0.06946417689323425 0.00798655953258276 0.14000000059604645 127 206 201
0.06979337334632874 0.00798655953258276 0.14000000059604645 127 193 191
0.06962169706821442 0.007929512299597263 0.13899999856948853 127 189 187
0.06994853913784027 0.007929512299597263 0.13899999856948853 127 192 184
0.07027538120746613 0.007929512299597263 0.13899999856948853 127 182 174
0.07060222327709198 0.007929512299597263 0.13899999856948853 127 161 151
0.07092906534671783 0.007929512299597263 0.13899999856948853 127 150 140
0.07074327766895294 0.007872465997934341 0.1379999965429306 127 139 141
0.07106777280569077 0.007872465997934341 0.1379999965429306 127 136 138
0.07139226794242859 0.007872465997934341 0.1379999965429306 127 116 124
0.07171675562858582 0.007872465997934341 0.1379999965429306 127 139 147
0.07204125076532364 0.007872465997934341 0.1379999965429306 127 184 191
0.07236573845148087 0.007872465997934341 0.1379999965429306 127 174 181
0.07269023358821869 0.007872465997934341 0.1379999965429306 127 177 176
0.07301472872495651 0.007872465997934341 0.1379999965429306 127 170 169
0.07333921641111374 0.007872465997934341 0.1379999965429306 127 173 161
0.07312991470098495 0.007815418764948845 0.13699999451637268 127 169 157
0.07345205545425415 0.007815418764948845 0.13699999451637268 127 166 155
0.07377419620752335 0.007815418764948845 0.13699999451637268 127 169 158
0.07409633696079254 0.007815418764948845 0.13699999451637268 127 164 155
0.07441847771406174 0.007815418764948845 0.13699999451637268 127 163 154
0.07474061846733093 0.007815418764948845 0.13699999451637268 127 164 155
0.07506275922060013 0.007815418764948845 0.13699999451637268 127 157 148
0.07538489997386932 0.007815418764948845 0.13699999451637268 127 155 145
0.07570704072713852 0.007815418764948845 0.13699999451637268 127 154 144
0.07602918893098831 0.007815418764948845 0.13699999451637268 127 139 132
0.07635132968425751 0.007815418764948845 0.13699999451637268 127 141 134
0.0766734704375267 0.007815418764948845 0.13699999451637268 127 118 123
0.07643359899520874 0.007758371997624636 0.13600000739097595 127 112 117
0.07675338536500931 0.007758371997624636 0.13600000739097595 127 123 132
0.07707317918539047 0.007758371997624636 0.13600000739097595 127 127 136
0.07739296555519104 0.007758371997624636 0.13600000739097595 127 138 146
0.07771275192499161 0.007758371997624636 0.13600000739097595 127 139 147
0.07745877653360367 0.0077013252303004265 0.13500000536441803 127 141 142
0.0777762159705162 0.0077013252303004265 0.13500000536441803 127 144 145
0.07809365540742874 0.0077013252303004265 0.13500000536441803 127 142 140
0.07841108739376068 0.0077013252303004265 0.13500000536441803 127 140 138
0.07872852683067322 0.0077013252303004265 0.13500000536441803 127 139 135
0.07904596626758575 0.0077013252303004265 0.13500000536441803 127 140 136
0.07936340570449829 0.0077013252303004265 0.13500000536441803 127 136 133
0.07968084514141083 0.0077013252303004265 0.13500000536441803 127 137 134
0.0805908590555191 0.007758371997624636 0.13600000739097595 127 137 134
0.08091065287590027 0.007758371997624636 0.13600000739097595 127 133 130
0.08123043924570084 0.007758371997624636 0.13600000739097595 127 128 125
0.081550233066082 0.007758371997624636 0.13600000739097595 127 128 125
0.08187001943588257 0.007758371997624636 0.13600000739097595 127 120 118
0.08218980580568314 0.007758371997624636 0.13600000739097595 127 126 124
0.0825095996260643 0.007758371997624636 0.13600000739097595 127 131 130
0.08282938599586487 0.007758371997624636 0.13600000739097595 127 135 134
0.08314917981624603 0.007758371997624636 0.13600000739097595 127 133 135
0.0834689661860466 0.007758371997624636 0.13600000739097595 127 137 139
0.08378876000642776 0.007758371997624636 0.13600000739097595 127 138 137
0.08410854637622833 0.007758371997624636 0.13600000739097595 127 141 140
0.0844283327460289 0.007758371997624636 0.13600000739097595 127 140 139
0.08474812656641006 0.007758371997624636 0.13600000739097595 127 138 137
0.08506791293621063 0.007758371997624636 0.13600000739097595 127 138 131
0.0853877067565918 0.007758371997624636 0.13600000739097595 127 139 132
0.08570749312639236 0.007758371997624636 0.13600000739097595 127 133 121
0.08665984123945236 0.007815418764948845 0.13699999451637268 127 132 120
0.08698198199272156 0.007815418764948845 0.13699999451637268 127 126 115
0.08730412274599075 0.007815418764948845 0.13699999451637268 127 123 112
0.08762626349925995 0.007815418764948845 0.13699999451637268 127 130 119
0.08794840425252914 0.007815418764948845 0.13699999451637268 127 132 121
0.08827054500579834 0.007815418764948845 0.13699999451637268 127 139 136
0.08859268575906754 0.007815418764948845 0.13699999451637268 127 137 134
0.08891482651233673 0.007815418764948845 0.13699999451637268 127 142 143
0.08923696726560593 0.007815418764948845 0.13699999451637268 127 143 144
0.08955910801887512 0.007815418764948845 0.13699999451637268 127 153 146
0.08988124877214432 0.007815418764948845 0.13699999451637268 127 150 143
0.09020338952541351 0.007815418764948845 0.13699999451637268 127 148 138
0.09052553027868271 0.007815418764948845 0.13699999451637268 127 148 138
0.0908476710319519 0.007815418764948845 0.13699999451637268 127 152 137
0.0911698117852211 0.007815418764948845 0.13699999451637268 127 144 129
0.0914919525384903 0.007815418764948845 0.13699999451637268 127 147 130
0.09248427301645279 0.007872465997934341 0.1379999965429306 127 138 121
0.09280876070261002 0.007872465997934341 0.1379999965429306 127 130 114
0.09313325583934784 0.007872465997934341 0.1379999965429306 127 125 109
0.09345774352550507 0.007872465997934341 0.1379999965429306 127 132 122
0.09378223866224289 0.007872465997934341 0.1379999965429306 127 129 119
0.09410673379898071 0.007872465997934341 0.1379999965429306 127 132 121
0.09443122148513794 0.007872465997934341 0.1379999965429306 127 132 121
0.09475571662187576 0.007872465997934341 0.1379999965429306 127 137 126
0.09508021175861359 0.007872465997934341 0.1379999965429306 127 137 126
0.09540469944477081 0.007872465997934341 0.1379999965429306 127 138 123
0.09572919458150864 0.007872465997934341 0.1379999965429306 127 132 117
0.09605368226766586 0.007872465997934341 0.1379999965429306 127 117 101
0.09707657247781754 0.007929512299597263 0.13899999856948853 127 109 92
0.055711131542921066 0.008850338868796825 0.14900000393390656 127 91 86
0.05606149137020111 0.008850338868796825 0.14900000393390656 127 85 78
0.05603324621915817 0.008790940046310425 0.14800000190734863 127 86 79
0.05638125166296959 0.008790940046310425 0.14800000190734863 127 91 82
0.056729257106781006 0.008790940046310425 0.14800000190734863 127 96 87
0.057462919503450394 0.008850338868796825 0.14900000393390656 127 97 89
0.05781327933073044 0.008850338868796825 0.14900000393390656 127 94 86
0.058163635432720184 0.008850338868796825 0.14900000393390656 127 93 94
0.05851399526000023 0.008850338868796825 0.14900000393390656 127 97 98
0.05925941467285156 0.008909736759960651 0.15000000596046448 127 106 108
0.059612125158309937 0.008909736759960651 0.15000000596046448 127 113 115
0.05996483191847801 0.008909736759960651 0.15000000596046448 127 117 117
0.060317542403936386 0.008909736759960651 0.15000000596046448 127 120 120
0.06067024916410446 0.008909736759960651 0.15000000596046448 127 125 121
0.061022959649562836 0.008909736759960651 0.15000000596046448 127 130 126
0.06137567013502121 0.008909736759960651 0.15000000596046448 127 135 131
0.06131685525178909 0.008850338868796825 0.14900000393390656 127 134 130
0.06166721135377884 0.008850338868796825 0.14900000393390656 127 132 129
0.062017571181058884 0.008850338868796825 0.14900000393390656 127 126 123
0.06236792728304863 0.008850338868796825 0.14900000393390656 127 124 124
0.062297359108924866 0.008790940046310425 0.14800000190734863 127 125 125
0.06264536082744598 0.008790940046310425 0.14800000190734863 127 107 108
0.0629933699965477 0.008790940046310425 0.14800000190734863 127 110 111
0.06291339546442032 0.008731542155146599 0.1469999998807907 127 159 162
0.0632590502500534 0.008731542155146599 0.1469999998807907 127 188 191
0.06360470503568649 0.008731542155146599 0.1469999998807907 127 206 212
0.06395035982131958 0.008731542155146599 0.1469999998807907 127 221 227
0.06429601460695267 0.008731542155146599 0.1469999998807907 127 239 245
0.06464166939258575 0.008731542155146599 0.1469999998807907 127 243 249
0.06498732417821884 0.008731542155146599 0.1469999998807907 127 245 249
0.06533297896385193 0.008731542155146599 0.1469999998807907 127 240 244
0.06567863374948502 0.008731542155146599 0.1469999998807907 127 228 224
0.06557514518499374 0.008672144263982773 0.1459999978542328 127 218 214
0.0659184455871582 0.008672144263982773 0.1459999978542328 127 212 204
0.06626175343990326 0.008672144263982773 0.1459999978542328 127 190 182
0.06614885479211807 0.008612745441496372 0.14499999582767487 127 199 183
0.0664898082613945 0.008612745441496372 0.14499999582767487 127 194 178
0.06636986136436462 0.008553347550332546 0.14399999380111694 127 191 175
0.06670846045017242 0.008553347550332546 0.14399999380111694 127 181 165
0.06658145785331726 0.008493948727846146 0.14300000667572021 127 164 157
0.06691770255565643 0.008493948727846146 0.14300000667572021 127 164 157
0.0672539547085762 0.008493948727846146 0.14300000667572021 127 132 135
0.06711754202842712 0.00843455083668232 0.1420000046491623 127 131 134
0.06745143979787827 0.00843455083668232 0.1420000046491623 127 154 167
0.0677853375673294 0.00843455083668232 0.1420000046491623 127 221 234
0.06811923533678055 0.00843455083668232 0.1420000046491623 127 213 226
0.06845313310623169 0.00843455083668232 0.1420000046491623 127 214 227
0.06878703087568283 0.00843455083668232 0.1420000046491623 127 222 223
0.06863416731357574 0.008375152945518494 0.14100000262260437 127 214 215
0.06896571069955826 0.008375152945518494 0.14100000262260437 127 209 205
0.06929726153612137 0.008375152945518494 0.14100000262260437 127 208 204
0.06962880492210388 0.008375152945518494 0.14100000262260437 127 202 197
0.06946417689323425 0.008315754123032093 0.14000000059604645 127 202 197
0.06979337334632874 0.008315754123032093 0.14000000059604645 127 197 192
0.07012256979942322 0.008315754123032093 0.14000000059604645 127 185 180
0.06994853913784027 0.008256356231868267 0.13899999856948853 127 187 176
0.07027538120746613 0.008256356231868267 0.13899999856948853 127 178 167
0.07060222327709198 0.008256356231868267 0.13899999856948853 127 176 166
0.07092906534671783 0.008256356231868267 0.13899999856948853 127 158 148
0.07074327766895294 0.008196958340704441 0.1379999965429306 127 144 147
0.07106777280569077 0.008196958340704441 0.1379999965429306 127 124 127
0.07139226794242859 0.008196958340704441 0.1379999965429306 127 105 119
0.07171675562858582 0.008196958340704441 0.1379999965429306 127 121 135
0.07204125076532364 0.008196958340704441 0.1379999965429306 127 181 189
0.07236573845148087 0.008196958340704441 0.1379999965429306 127 177 185
0.07269023358821869 0.008196958340704441 0.1379999965429306 127 181 182
0.07301472872495651 0.008196958340704441 0.1379999965429306 127 174 175
0.07333921641111374 0.008196958340704441 0.1379999965429306 127 178 169
0.07312991470098495 0.00813755951821804 0.13699999451637268 127 168 159
0.07345205545425415 0.00813755951821804 0.13699999451637268 127 167 158
0.07377419620752335 0.00813755951821804 0.13699999451637268 127 167 158
0.07409633696079254 0.00813755951821804 0.13699999451637268 127 164 155
0.07441847771406174 0.00813755951821804 0.13699999451637268 127 160 151
0.07474061846733093 0.00813755951821804 0.13699999451637268 127 159 150
0.07506275922060013 0.00813755951821804 0.13699999451637268 127 157 148
0.07538489997386932 0.00813755951821804 0.13699999451637268 127 153 145
0.07570704072713852 0.00813755951821804 0.13699999451637268 127 149 141
0.07602918893098831 0.00813755951821804 0.13699999451637268 127 144 142
0.07635132968425751 0.00813755951821804 0.13699999451637268 127 133 131
0.0766734704375267 0.00813755951821804 0.13699999451637268 127 110 117
0.07643359899520874 0.008078161627054214 0.13600000739097595 127 109 116
0.07675338536500931 0.008078161627054214 0.13600000739097595 127 121 129
0.07707317918539047 0.008078161627054214 0.13600000739097595 127 121 129
0.07739296555519104 0.008078161627054214 0.13600000739097595 127 135 145
0.07771275192499161 0.008078161627054214 0.13600000739097595 127 138 148
0.07803254574537277 0.008078161627054214 0.13600000739097595 127 142 148
0.07835233211517334 0.008078161627054214 0.13600000739097595 127 140 146
0.0786721259355545 0.008078161627054214 0.13600000739097595 127 137 140
0.07841108739376068 0.008018762804567814 0.13500000536441803 127 135 138
0.07872852683067322 0.008018762804567814 0.13500000536441803 127 135 137
0.07904596626758575 0.008018762804567814 0.13500000536441803 127 133 135
0.07936340570449829 0.008018762804567814 0.13500000536441803 127 133 132
0.08027107268571854 0.008078161627054214 0.13600000739097595 127 132 131
0.0805908590555191 0.008078161627054214 0.13600000739097595 127 133 130
0.08091065287590027 0.008078161627054214 0.13600000739097595 127 130 127
0.08123043924570084 0.008078161627054214 0.13600000739097595 127 125 123
0.081550233066082 0.008078161627054214 0.13600000739097595 127 124 122
0.08187001943588257 0.008078161627054214 0.13600000739097595 127 117 117
0.08218980580568314 0.008078161627054214 0.13600000739097595 127 114 114
0.0825095996260643 0.008078161627054214 0.13600000739097595 127 124 124
0.08282938599586487 0.008078161627054214 0.13600000739097595 127 130 130
0.08314917981624603 0.008078161627054214 0.13600000739097595 127 135 137
0.0834689661860466 0.008078161627054214 0.13600000739097595 127 140 142
0.08378876000642776 0.008078161627054214 0.13600000739097595 127 140 140
0.08410854637622833 0.008078161627054214 0.13600000739097595 127 138 138
0.0844283327460289 0.008078161627054214 0.13600000739097595 127 137 133
0.08474812656641006 0.008078161627054214 0.13600000739097595 127 140 136
0.08506791293621063 0.008078161627054214 0.13600000739097595 127 135 126
0.0853877067565918 0.008078161627054214 0.13600000739097595 127 136 127
0.08570749312639236 0.008078161627054214 0.13600000739097595 127 133 122
0.08665984123945236 0.00813755951821804 0.13699999451637268 127 131 120
0.08698198199272156 0.00813755951821804 0.13699999451637268 127 123 113
0.08730412274599075 0.00813755951821804 0.13699999451637268 127 121 111
0.08762626349925995 0.00813755951821804 0.13699999451637268 127 126 114
0.08794840425252914 0.00813755951821804 0.13699999451637268 127 128 116
0.08827054500579834 0.00813755951821804 0.13699999451637268 127 137 131
0.08859268575906754 0.00813755951821804 0.13699999451637268 127 138 132
0.08891482651233673 0.00813755951821804 0.13699999451637268 127 139 136
0.08923696726560593 0.00813755951821804 0.13699999451637268 127 140 137
0.08955910801887512 0.00813755951821804 0.13699999451637268 127 143 140
0.08988124877214432 0.00813755951821804 0.13699999451637268 127 137 134
0.09020338952541351 0.00813755951821804 0.13699999451637268 127 142 136
0.09052553027868271 0.00813755951821804 0.13699999451637268 127 142 136
0.0908476710319519 0.00813755951821804 0.13699999451637268 127 144 134
0.0911698117852211 0.00813755951821804 0.13699999451637268 127 139 129
0.0914919525384903 0.00813755951821804 0.13699999451637268 127 141 127
0.09181409329175949 0.00813755951821804 0.13699999451637268 127 137 123
0.09280876070261002 0.008196958340704441 0.1379999965429306 127 122 111
0.09313325583934784 0.008196958340704441 0.1379999965429306 127 122 111
0.09345774352550507 0.008196958340704441 0.1379999965429306 127 124 116
0.09378223866224289 0.008196958340704441 0.1379999965429306 127 126 118
0.09410673379898071 0.008196958340704441 0.1379999965429306 127 128 121
0.09443122148513794 0.008196958340704441 0.1379999965429306 127 125 118
0.09475571662187576 0.008196958340704441 0.1379999965429306 127 127 118
0.09508021175861359 0.008196958340704441 0.1379999965429306 127 128 119
0.09540469944477081 0.008196958340704441 0.1379999965429306 127 120 106
0.09572919458150864 0.008196958340704441 0.1379999965429306 127 113 98
0.09605368226766586 0.008196958340704441 0.1379999965429306 127 108 89
0.09637817740440369 0.008196958340704441 0.1379999965429306 127 107 88
0.05533723160624504 0.009138946421444416 0.14800000190734863 127 91 86
0.05568523705005646 0.009138946421444416 0.14800000190734863 127 89 78
0.05603324621915817 0.009138946421444416 0.14800000190734863 127 90 79
0.05638125166296959 0.009138946421444416 0.14800000190734863 127 87 77
0.056729257106781006 0.009138946421444416 0.14800000190734863 127 91 81
0.05707726255059242 0.009138946421444416 0.14800000190734863 127 91 83
0.05742526799440384 0.009138946421444416 0.14800000190734863 127 92 84
0.058163635432720184 0.00920069683343172 0.14900000393390656 127 94 95
0.05851399526000023 0.00920069683343172 0.14900000393390656 127 99 100
0.05925941467285156 0.00926244631409645 0.15000000596046448 127 103 107
0.059612125158309937 0.00926244631409645 0.15000000596046448 127 105 109
0.05996483191847801 0.00926244631409645 0.15000000596046448 127 113 114
0.060317542403936386 0.00926244631409645 0.15000000596046448 127 118 119
0.06067024916410446 0.00926244631409645 0.15000000596046448 127 121 121
0.061022959649562836 0.00926244631409645 0.15000000596046448 127 128 128
0.06137567013502121 0.00926244631409645 0.15000000596046448 127 132 131
0.06131685525178909 0.00920069683343172 0.14900000393390656 127 129 128
0.06166721135377884 0.00920069683343172 0.14900000393390656 127 128 129
0.062017571181058884 0.00920069683343172 0.14900000393390656 127 126 127
0.06236792728304863 0.00920069683343172 0.14900000393390656 127 123 123
0.062297359108924866 0.009138946421444416 0.14800000190734863 127 125 125
0.06264536082744598 0.009138946421444416 0.14800000190734863 127 96 99
0.0629933699965477 0.009138946421444416 0.14800000190734863 127 107 110
0.06291339546442032 0.009077196940779686 0.1469999998807907 127 167 175
0.0632590502500534 0.009077196940779686 0.1469999998807907 127 174 182
0.06360470503568649 0.009077196940779686 0.1469999998807907 127 190 194
0.06395035982131958 0.009077196940779686 0.1469999998807907 127 202 206
0.06429601460695267 0.009077196940779686 0.1469999998807907 127 219 221
0.06464166939258575 0.009077196940779686 0.1469999998807907 127 224 226
0.06498732417821884 0.009077196940779686 0.1469999998807907 127 224 225
0.06488853693008423 0.009015447460114956 0.1459999978542328 127 236 237
0.06523183733224869 0.009015447460114956 0.1459999978542328 127 240 237
0.06557514518499374 0.009015447460114956 0.1459999978542328 127 231 228
0.0659184455871582 0.009015447460114956 0.1459999978542328 127 218 208
0.06626175343990326 0.009015447460114956 0.1459999978542328 127 201 191
0.06614885479211807 0.008953697979450226 0.14499999582767487 127 195 179
0.0664898082613945 0.008953697979450226 0.14499999582767487 127 176 160
0.06636986136436462 0.008891948498785496 0.14399999380111694 127 166 148
0.06670846045017242 0.008891948498785496 0.14399999380111694 127 170 152
0.06658145785331726 0.008830198086798191 0.14300000667572021 127 164 155
0.06691770255565643 0.008830198086798191 0.14300000667572021 127 163 154
0.0672539547085762 0.008830198086798191 0.14300000667572021 127 137 139
0.06711754202842712 0.008768448606133461 0.1420000046491623 127 125 127
0.06745143979787827 0.008768448606133461 0.1420000046491623 127 133 146
0.0677853375673294 0.008768448606133461 0.1420000046491623 127 218 231
0.06811923533678055 0.008768448606133461 0.1420000046491623 127 216 229
0.06845313310623169 0.008768448606133461 0.1420000046491623 127 205 218
0.06878703087568283 0.008768448606133461 0.1420000046491623 127 211 216
0.06912093609571457 0.008768448606133461 0.1420000046491623 127 207 212
0.06896571069955826 0.008706699125468731 0.14100000262260437 127 207 203
0.06929726153612137 0.008706699125468731 0.14100000262260437 127 205 201
0.06962880492210388 0.008706699125468731 0.14100000262260437 127 197 192
0.06946417689323425 0.008644949644804 0.14000000059604645 127 195 190
0.06979337334632874 0.008644949644804 0.14000000059604645 127 197 190
0.07012256979942322 0.008644949644804 0.14000000059604645 127 199 192
0.06994853913784027 0.00858320016413927 0.13899999856948853 127 195 180
0.07027538120746613 0.00858320016413927 0.13899999856948853 127 173 158
0.07060222327709198 0.00858320016413927 0.13899999856948853 127 164 150
0.07092906534671783 0.00858320016413927 0.13899999856948853 127 161 147
0.07074327766895294 0.00852145068347454 0.1379999965429306 127 150 150
0.07106777280569077 0.00852145068347454 0.1379999965429306 127 124 124
0.07139226794242859 0.00852145068347454 0.1379999965429306 127 98 113
0.07171675562858582 0.00852145068347454 0.1379999965429306 127 107 122
0.07204125076532364 0.00852145068347454 0.1379999965429306 127 174 182
0.07236573845148087 0.00852145068347454 0.1379999965429306 127 178 186
0.07269023358821869 0.00852145068347454 0.1379999965429306 127 179 179
0.07301472872495651 0.00852145068347454 0.1379999965429306 127 172 172
0.07333921641111374 0.00852145068347454 0.1379999965429306 127 173 169
0.07312991470098495 0.008459700271487236 0.13699999451637268 127 164 160
0.07345205545425415 0.008459700271487236 0.13699999451637268 127 164 160
0.07377419620752335 0.008459700271487236 0.13699999451637268 127 162 158
0.07409633696079254 0.008459700271487236 0.13699999451637268 127 161 154
0.07441847771406174 0.008459700271487236 0.13699999451637268 127 155 148
0.07474061846733093 0.008459700271487236 0.13699999451637268 127 157 150
0.07506275922060013 0.008459700271487236 0.13699999451637268 127 152 145
0.07538489997386932 0.008459700271487236 0.13699999451637268 127 146 141
0.07570704072713852 0.008459700271487236 0.13699999451637268 127 141 136
0.07602918893098831 0.008459700271487236 0.13699999451637268 127 135 133
0.07635132968425751 0.008459700271487236 0.13699999451637268 127 123 121
0.0766734704375267 0.008459700271487236 0.13699999451637268 127 108 117
0.0769956111907959 0.008459700271487236 0.13699999451637268 127 99 108
0.07675338536500931 0.008397950790822506 0.13600000739097595 127 116 127
0.07707317918539047 0.008397950790822506 0.13600000739097595 127 124 135
0.07739296555519104 0.008397950790822506 0.13600000739097595 127 140 149
0.07771275192499161 0.008397950790822506 0.13600000739097595 127 133 142
0.07803254574537277 0.008397950790822506 0.13600000739097595 127 133 135
0.07835233211517334 0.008397950790822506 0.13600000739097595 127 135 137
0.0786721259355545 0.008397950790822506 0.13600000739097595 127 138 140
0.07899191230535507 0.008397950790822506 0.13600000739097595 127 134 136
0.07931170612573624 0.008397950790822506 0.13600000739097595 127 132 133
0.0796314924955368 0.008397950790822506 0.13600000739097595 127 139 140
0.07995127886533737 0.008397950790822506 0.13600000739097595 127 137 136
0.08027107268571854 0.008397950790822506 0.13600000739097595 127 133 132
0.0805908590555191 0.008397950790822506 0.13600000739097595 127 130 129
0.08091065287590027 0.008397950790822506 0.13600000739097595 127 126 125
0.08123043924570084 0.008397950790822506 0.13600000739097595 127 122 123
0.081550233066082 0.008397950790822506 0.13600000739097595 127 117 118
0.08187001943588257 0.008397950790822506 0.13600000739097595 127 110 111
0.08218980580568314 0.008397950790822506 0.13600000739097595 127 110 111
0.0825095996260643 0.008397950790822506 0.13600000739097595 127 115 116
0.08282938599586487 0.008397950790822506 0.13600000739097595 127 124 125
0.08314917981624603 0.008397950790822506 0.13600000739097595 127 134 136
0.0834689661860466 0.008397950790822506 0.13600000739097595 127 134 136
0.08378876000642776 0.008397950790822506 0.13600000739097595 127 132 131
0.08410854637622833 0.008397950790822506 0.13600000739097595 127 136 135
0.0844283327460289 0.008397950790822506 0.13600000739097595 127 135 131
0.08474812656641006 0.008397950790822506 0.13600000739097595 127 135 131
0.08506791293621063 0.008397950790822506 0.13600000739097595 127 137 131
0.0853877067565918 0.008397950790822506 0.13600000739097595 127 129 123
0.08570749312639236 0.008397950790822506 0.13600000739097595 127 125 119
0.08665984123945236 0.008459700271487236 0.13699999451637268 127 119 113
0.08698198199272156 0.008459700271487236 0.13699999451637268 127 118 107
0.08730412274599075 0.008459700271487236 0.13699999451637268 127 116 105
0.08762626349925995 0.008459700271487236 0.13699999451637268 127 116 108
0.08794840425252914 0.008459700271487236 0.13699999451637268 127 121 113
0.08827054500579834 0.008459700271487236 0.13699999451637268 127 132 126
0.08859268575906754 0.008459700271487236 0.13699999451637268 127 132 126
0.08891482651233673 0.008459700271487236 0.13699999451637268 127 138 135
0.08923696726560593 0.008459700271487236 0.13699999451637268 127 139 136
0.08955910801887512 0.008459700271487236 0.13699999451637268 127 140 137
0.08988124877214432 0.008459700271487236 0.13699999451637268 127 140 137
0.09020338952541351 0.008459700271487236 0.13699999451637268 127 139 137
0.09052553027868271 0.008459700271487236 0.13699999451637268 127 139 137
0.0908476710319519 0.008459700271487236 0.13699999451637268 127 140 134
0.0911698117852211 0.008459700271487236 0.13699999451637268 127 136 130
0.0914919525384903 0.008459700271487236 0.13699999451637268 127 133 124
0.09181409329175949 0.008459700271487236 0.13699999451637268 127 127 118
0.09213623404502869 0.008459700271487236 0.13699999451637268 127 117 107
0.09313325583934784 0.00852145068347454 0.1379999965429306 127 120 110
0.09345774352550507 0.00852145068347454 0.1379999965429306 127 118 115
0.09378223866224289 0.00852145068347454 0.1379999965429306 127 121 118
0.09410673379898071 0.00852145068347454 0.1379999965429306 127 121 119
0.09443122148513794 0.00852145068347454 0.1379999965429306 127 125 123
0.09475571662187576 0.00852145068347454 0.1379999965429306 127 122 119
0.09508021175861359 0.00852145068347454 0.1379999965429306 127 123 120
0.09540469944477081 0.00852145068347454 0.1379999965429306 127 117 106
0.09572919458150864 0.00852145068347454 0.1379999965429306 127 110 98
0.09605368226766586 0.00852145068347454 0.1379999965429306 127 107 91
0.09637817740440369 0.00852145068347454 0.1379999965429306 127 105 88
0.05533723160624504 0.009486952796578407 0.14800000190734863 127 84 78
0.05568523705005646 0.009486952796578407 0.14800000190734863 127 86 75
0.05565464124083519 0.009422851726412773 0.1469999998807907 127 88 77
0.05600029602646828 0.009422851726412773 0.1469999998807907 127 85 75
0.056729257106781006 0.009486952796578407 0.14800000190734863 127 84 74
0.05707726255059242 0.009486952796578407 0.14800000190734863 127 81 75
0.05742526799440384 0.009486952796578407 0.14800000190734863 127 87 81
0.058163635432720184 0.009551053866744041 0.14900000393390656 127 92 93
0.05851399526000023 0.009551053866744041 0.14900000393390656 127 100 101
0.058864351361989975 0.009551053866744041 0.14900000393390656 127 106 111
0.059612125158309937 0.009615154936909676 0.15000000596046448 127 108 113
0.05996483191847801 0.009615154936909676 0.15000000596046448 127 116 116
0.060317542403936386 0.009615154936909676 0.15000000596046448 127 114 114
0.06067024916410446 0.009615154936909676 0.15000000596046448 127 114 117
0.061022959649562836 0.009615154936909676 0.15000000596046448 127 112 115
0.06137567013502121 0.009615154936909676 0.15000000596046448 127 116 121
0.06131685525178909 0.009551053866744041 0.14900000393390656 127 115 120
0.06166721135377884 0.009551053866744041 0.14900000393390656 127 119 120
0.062017571181058884 0.009551053866744041 0.14900000393390656 127 118 119
0.06236792728304863 0.009551053866744041 0.14900000393390656 127 119 120
0.062297359108924866 0.009486952796578407 0.14800000190734863 127 119 120
0.06264536082744598 0.009486952796578407 0.14800000190734863 127 91 94
0.0629933699965477 0.009486952796578407 0.14800000190734863 127 96 99
0.06291339546442032 0.009422851726412773 0.1469999998807907 127 157 165
0.0632590502500534 0.009422851726412773 0.1469999998807907 127 164 172
0.06360470503568649 0.009422851726412773 0.1469999998807907 127 178 180
0.06395035982131958 0.009422851726412773 0.1469999998807907 127 185 187
0.06429601460695267 0.009422851726412773 0.1469999998807907 127 209 210
0.06464166939258575 0.009422851726412773 0.1469999998807907 127 204 205
0.06454523652791977 0.009358750656247139 0.1459999978542328 127 197 197
0.06488853693008423 0.009358750656247139 0.1459999978542328 127 201 201
0.06523183733224869 0.009358750656247139 0.1459999978542328 127 209 205
0.06557514518499374 0.009358750656247139 0.1459999978542328 127 214 210
0.0659184455871582 0.009358750656247139 0.1459999978542328 127 198 186
0.06626175343990326 0.009358750656247139 0.1459999978542328 127 197 185
0.06614885479211807 0.009294649586081505 0.14499999582767487 127 183 167
0.0664898082613945 0.009294649586081505 0.14499999582767487 127 178 162
0.06636986136436462 0.00923054851591587 0.14399999380111694 127 174 158
0.06670846045017242 0.00923054851591587 0.14399999380111694 127 168 152
0.06658145785331726 0.009166447445750237 0.14300000667572021 127 155 148
0.06691770255565643 0.009166447445750237 0.14300000667572021 127 154 147
0.0672539547085762 0.009166447445750237 0.14300000667572021 127 144 147
0.06711754202842712 0.009102347306907177 0.1420000046491623 127 116 119
0.06745143979787827 0.009102347306907177 0.1420000046491623 127 116 127
0.0677853375673294 0.009102347306907177 0.1420000046491623 127 208 219
0.06811923533678055 0.009102347306907177 0.1420000046491623 127 212 224
0.06845313310623169 0.009102347306907177 0.1420000046491623 127 203 215
0.06878703087568283 0.009102347306907177 0.1420000046491623 127 200 206
0.06912093609571457 0.009102347306907177 0.1420000046491623 127 199 205
0.06945483386516571 0.009102347306907177 0.1420000046491623 127 202 202
0.06929726153612137 0.009038246236741543 0.14100000262260437 127 200 200
0.06962880492210388 0.009038246236741543 0.14100000262260437 127 196 193
0.0699603483080864 0.009038246236741543 0.14100000262260437 127 192 189
0.06979337334632874 0.008974145166575909 0.14000000059604645 127 190 180
0.07012256979942322 0.008974145166575909 0.14000000059604645 127 185 175
0.0704517662525177 0.008974145166575909 0.14000000059604645 127 191 174
0.07027538120746613 0.008910044096410275 0.13899999856948853 127 178 161
0.07060222327709198 0.008910044096410275 0.13899999856948853 127 165 151
0.07092906534671783 0.008910044096410275 0.13899999856948853 127 147 133
0.07125591486692429 0.008910044096410275 0.13899999856948853 127 135 133
0.07106777280569077 0.00884594302624464 0.1379999965429306 127 123 121
0.07139226794242859 0.00884594302624464 0.1379999965429306 127 95 106
0.07171675562858582 0.00884594302624464 0.1379999965429306 127 104 115
0.07204125076532364 0.00884594302624464 0.1379999965429306 127 166 175
0.07236573845148087 0.00884594302624464 0.1379999965429306 127 171 180
0.07269023358821869 0.00884594302624464 0.1379999965429306 127 173 177
0.07301472872495651 0.00884594302624464 0.1379999965429306 127 166 170
0.07333921641111374 0.00884594302624464 0.1379999965429306 127 169 168
0.07366371154785156 0.00884594302624464 0.1379999965429306 127 163 162
0.07345205545425415 0.008781841956079006 0.13699999451637268 127 166 163
0.07377419620752335 0.008781841956079006 0.13699999451637268 127 154 151
0.07409633696079254 0.008781841956079006 0.13699999451637268 127 154 150
0.07441847771406174 0.008781841956079006 0.13699999451637268 127 154 150
0.07474061846733093 0.008781841956079006 0.13699999451637268 127 151 147
0.07506275922060013 0.008781841956079006 0.13699999451637268 127 147 143
0.07538489997386932 0.008781841956079006 0.13699999451637268 127 143 137
0.07570704072713852 0.008781841956079006 0.13699999451637268 127 137 131
0.07602918893098831 0.008781841956079006 0.13699999451637268 127 131 128
0.07635132968425751 0.008781841956079006 0.13699999451637268 127 124 121
0.0766734704375267 0.008781841956079006 0.13699999451637268 127 99 108
0.0769956111907959 0.008781841956079006 0.13699999451637268 127 93 102
0.07675338536500931 0.008717740885913372 0.13600000739097595 127 105 119
0.07707317918539047 0.008717740885913372 0.13600000739097595 127 120 134
0.07739296555519104 0.008717740885913372 0.13600000739097595 127 130 139
0.07771275192499161 0.008717740885913372 0.13600000739097595 127 130 139
0.07803254574537277 0.008717740885913372 0.13600000739097595 127 136 140
0.07835233211517334 0.008717740885913372 0.13600000739097595 127 132 136
0.0786721259355545 0.008717740885913372 0.13600000739097595 127 135 135
0.07899191230535507 0.008717740885913372 0.13600000739097595 127 135 135
0.07931170612573624 0.008717740885913372 0.13600000739097595 127 132 131
0.0796314924955368 0.008717740885913372 0.13600000739097595 127 132 131
0.07995127886533737 0.008717740885913372 0.13600000739097595 127 131 128
0.08027107268571854 0.008717740885913372 0.13600000739097595 127 132 129
0.0805908590555191 0.008717740885913372 0.13600000739097595 127 131 132
0.08091065287590027 0.008717740885913372 0.13600000739097595 127 126 127
0.08123043924570084 0.008717740885913372 0.13600000739097595 127 119 120
0.081550233066082 0.008717740885913372 0.13600000739097595 127 109 110
0.08187001943588257 0.008717740885913372 0.13600000739097595 127 102 107
0.08218980580568314 0.008717740885913372 0.13600000739097595 127 109 114
0.0825095996260643 0.008717740885913372 0.13600000739097595 127 113 119
0.08282938599586487 0.008717740885913372 0.13600000739097595 127 117 123
0.08314917981624603 0.008717740885913372 0.13600000739097595 127 132 136
0.0834689661860466 0.008717740885913372 0.13600000739097595 127 125 129
0.08378876000642776 0.008717740885913372 0.13600000739097595 127 135 132
0.08410854637622833 0.008717740885913372 0.13600000739097595 127 137 134
0.0844283327460289 0.008717740885913372 0.13600000739097595 127 133 127
0.08474812656641006 0.008717740885913372 0.13600000739097595 127 132 126
0.08506791293621063 0.008717740885913372 0.13600000739097595 127 139 131
0.0853877067565918 0.008717740885913372 0.13600000739097595 127 127 119
0.08570749312639236 0.008717740885913372 0.13600000739097595 127 126 118
0.08665984123945236 0.008781841956079006 0.13699999451637268 127 121 113
0.08698198199272156 0.008781841956079006 0.13699999451637268 127 113 105
0.08730412274599075 0.008781841956079006 0.13699999451637268 127 108 100
0.08762626349925995 0.008781841956079006 0.13699999451637268 127 119 111
0.08794840425252914 0.008781841956079006 0.13699999451637268 127 121 113
0.08827054500579834 0.008781841956079006 0.13699999451637268 127 126 120
0.08859268575906754 0.008781841956079006 0.13699999451637268 127 126 120
0.08891482651233673 0.008781841956079006 0.13699999451637268 127 131 128
0.08923696726560593 0.008781841956079006 0.13699999451637268 127 131 128
0.08955910801887512 0.008781841956079006 0.13699999451637268 127 132 132
0.08988124877214432 0.008781841956079006 0.13699999451637268 127 130 130
0.09020338952541351 0.008781841956079006 0.13699999451637268 127 132 131
0.09052553027868271 0.008781841956079006 0.13699999451637268 127 137 136
0.0908476710319519 0.008781841956079006 0.13699999451637268 127 137 134
0.0911698117852211 0.008781841956079006 0.13699999451637268 127 135 132
0.0914919525384903 0.008781841956079006 0.13699999451637268 127 133 120
0.09181409329175949 0.008781841956079006 0.13699999451637268 127 123 110
0.09213623404502869 0.008781841956079006 0.13699999451637268 127 112 102
0.09313325583934784 0.00884594302624464 0.1379999965429306 127 115 105
0.09345774352550507 0.00884594302624464 0.1379999965429306 127 115 109
0.09378223866224289 0.00884594302624464 0.1379999965429306 127 115 109
0.09410673379898071 0.00884594302624464 0.1379999965429306 127 112 109
0.09443122148513794 0.00884594302624464 0.1379999965429306 127 117 114
0.09475571662187576 0.00884594302624464 0.1379999965429306 127 119 117
0.09508021175861359 0.00884594302624464 0.1379999965429306 127 114 112
0.09540469944477081 0.00884594302624464 0.1379999965429306 127 112 105
0.09572919458150864 0.00884594302624464 0.1379999965429306 127 106 99
0.09605368226766586 0.00884594302624464 0.1379999965429306 127 102 90
0.09637817740440369 0.00884594302624464 0.1379999965429306 127 98 86
0.054963331669569016 0.00976850651204586 0.1469999998807907 127 83 74
0.0553089864552021 0.00976850651204586 0.1469999998807907 127 86 76
0.05565464124083519 0.00976850651204586 0.1469999998807907 127 88 78
0.05600029602646828 0.00976850651204586 0.1469999998807907 127 83 75
0.056729257106781006 0.009834959171712399 0.14800000190734863 127 83 75
0.05707726255059242 0.009834959171712399 0.14800000190734863 127 82 79
0.05742526799440384 0.009834959171712399 0.14800000190734863 127 87 84
0.058163635432720184 0.009901411831378937 0.14900000393390656 127 94 92
0.05851399526000023 0.009901411831378937 0.14900000393390656 127 103 101
0.058864351361989975 0.009901411831378937 0.14900000393390656 127 113 112
0.059612125158309937 0.009967864491045475 0.15000000596046448 127 108 107
0.05996483191847801 0.009967864491045475 0.15000000596046448 127 114 111
0.060317542403936386 0.009967864491045475 0.15000000596046448 127 113 110
0.06067024916410446 0.009967864491045475 0.15000000596046448 127 118 119
0.061022959649562836 0.009967864491045475 0.15000000596046448 127 115 116
0.06137567013502121 0.009967864491045475 0.15000000596046448 127 115 120
0.061728376895189285 0.009967864491045475 0.15000000596046448 127 114 119
0.06166721135377884 0.009901411831378937 0.14900000393390656 127 115 121
0.062017571181058884 0.009901411831378937 0.14900000393390656 127 109 115
0.06236792728304863 0.009901411831378937 0.14900000393390656 127 114 115
0.062297359108924866 0.009834959171712399 0.14800000190734863 127 111 112
0.06264536082744598 0.009834959171712399 0.14800000190734863 127 83 87
0.0629933699965477 0.009834959171712399 0.14800000190734863 127 85 89
0.06291339546442032 0.00976850651204586 0.1469999998807907 127 144 155
0.0632590502500534 0.00976850651204586 0.1469999998807907 127 153 164
0.06360470503568649 0.00976850651204586 0.1469999998807907 127 159 165
0.06395035982131958 0.00976850651204586 0.1469999998807907 127 173 179
0.06429601460695267 0.00976850651204586 0.1469999998807907 127 185 189
0.06464166939258575 0.00976850651204586 0.1469999998807907 127 190 194
0.06454523652791977 0.009702054783701897 0.1459999978542328 127 193 191
0.06488853693008423 0.009702054783701897 0.1459999978542328 127 189 187
0.06523183733224869 0.009702054783701897 0.1459999978542328 127 202 195
0.06557514518499374 0.009702054783701897 0.1459999978542328 127 205 198
0.0659184455871582 0.009702054783701897 0.1459999978542328 127 192 177
0.06626175343990326 0.009702054783701897 0.1459999978542328 127 185 170
0.06614885479211807 0.009635602124035358 0.14499999582767487 127 176 160
0.0664898082613945 0.009635602124035358 0.14499999582767487 127 169 153
0.06636986136436462 0.00956914946436882 0.14399999380111694 127 164 152
0.06624520570039749 0.009502696804702282 0.14300000667572021 127 164 152
0.06658145785331726 0.009502696804702282 0.14300000667572021 127 154 147
0.06691770255565643 0.009502696804702282 0.14300000667572021 127 160 153
0.0672539547085762 0.009502696804702282 0.14300000667572021 127 131 133
0.06759020686149597 0.009502696804702282 0.14300000667572021 127 104 106
0.06745143979787827 0.009436245076358318 0.1420000046491623 127 100 108
0.0677853375673294 0.009436245076358318 0.1420000046491623 127 190 198
0.06811923533678055 0.009436245076358318 0.1420000046491623 127 208 221
0.06845313310623169 0.009436245076358318 0.1420000046491623 127 200 213
0.06878703087568283 0.009436245076358318 0.1420000046491623 127 197 204
0.06912093609571457 0.009436245076358318 0.1420000046491623 127 192 199
0.06945483386516571 0.009436245076358318 0.1420000046491623 127 191 192
0.06929726153612137 0.00936979241669178 0.14100000262260437 127 187 188
0.06962880492210388 0.00936979241669178 0.14100000262260437 127 192 189
0.0699603483080864 0.00936979241669178 0.14100000262260437 127 191 188
0.0702918991446495 0.00936979241669178 0.14100000262260437 127 197 186
0.07012256979942322 0.009303339757025242 0.14000000059604645 127 183 172
0.0704517662525177 0.009303339757025242 0.14000000059604645 127 176 159
0.07078096270561218 0.009303339757025242 0.14000000059604645 127 176 159
0.07060222327709198 0.009236887097358704 0.13899999856948853 127 157 143
0.07092906534671783 0.009236887097358704 0.13899999856948853 127 144 130
0.07125591486692429 0.009236887097358704 0.13899999856948853 127 133 127
0.07158275693655014 0.009236887097358704 0.13899999856948853 127 124 118
0.07139226794242859 0.00917043536901474 0.1379999965429306 127 92 99
0.07171675562858582 0.00917043536901474 0.1379999965429306 127 92 99
0.07204125076532364 0.00917043536901474 0.1379999965429306 127 136 149
0.07236573845148087 0.00917043536901474 0.1379999965429306 127 167 180
0.07269023358821869 0.00917043536901474 0.1379999965429306 127 169 176
0.07301472872495651 0.00917043536901474 0.1379999965429306 127 168 175
0.07333921641111374 0.00917043536901474 0.1379999965429306 127 167 169
0.07366371154785156 0.00917043536901474 0.1379999965429306 127 156 158
0.07345205545425415 0.009103982709348202 0.13699999451637268 127 160 155
0.07377419620752335 0.009103982709348202 0.13699999451637268 127 150 145
0.07409633696079254 0.009103982709348202 0.13699999451637268 127 148 142
0.07441847771406174 0.009103982709348202 0.13699999451637268 127 150 144
0.07474061846733093 0.009103982709348202 0.13699999451637268 127 155 146
0.07506275922060013 0.009103982709348202 0.13699999451637268 127 146 137
0.07538489997386932 0.009103982709348202 0.13699999451637268 127 140 128
0.07570704072713852 0.009103982709348202 0.13699999451637268 127 137 125
0.07602918893098831 0.009103982709348202 0.13699999451637268 127 128 124
0.07635132968425751 0.009103982709348202 0.13699999451637268 127 130 126
0.0766734704375267 0.009103982709348202 0.13699999451637268 127 84 93
0.0769956111907959 0.009103982709348202 0.13699999451637268 127 91 100
0.07675338536500931 0.009037530049681664 0.13600000739097595 127 113 126
0.07707317918539047 0.009037530049681664 0.13600000739097595 127 120 133
0.07739296555519104 0.009037530049681664 0.13600000739097595 127 124 132
0.07771275192499161 0.009037530049681664 0.13600000739097595 127 127 135
0.07803254574537277 0.009037530049681664 0.13600000739097595 127 133 132
0.07835233211517334 0.009037530049681664 0.13600000739097595 127 128 127
0.0786721259355545 0.009037530049681664 0.13600000739097595 127 129 125
0.07899191230535507 0.009037530049681664 0.13600000739097595 127 130 126
0.07931170612573624 0.009037530049681664 0.13600000739097595 127 131 125
0.0796314924955368 0.009037530049681664 0.13600000739097595 127 130 124
0.07995127886533737 0.009037530049681664 0.13600000739097595 127 131 125
0.08027107268571854 0.009037530049681664 0.13600000739097595 127 130 124
0.0805908590555191 0.009037530049681664 0.13600000739097595 127 132 128
0.08091065287590027 0.009037530049681664 0.13600000739097595 127 130 126
0.08123043924570084 0.009037530049681664 0.13600000739097595 127 117 117
0.081550233066082 0.009037530049681664 0.13600000739097595 127 105 105
0.08187001943588257 0.009037530049681664 0.13600000739097595 127 98 107
0.08218980580568314 0.009037530049681664 0.13600000739097595 127 105 114
0.0825095996260643 0.009037530049681664 0.13600000739097595 127 109 115
0.08282938599586487 0.009037530049681664 0.13600000739097595 127 113 119
0.08314917981624603 0.009037530049681664 0.13600000739097595 127 119 123
0.0834689661860466 0.009037530049681664 0.13600000739097595 127 123 127
0.08378876000642776 0.009037530049681664 0.13600000739097595 127 129 126
0.08410854637622833 0.009037530049681664 0.13600000739097595 127 128 125
0.0844283327460289 0.009037530049681664 0.13600000739097595 127 129 121
0.08474812656641006 0.009037530049681664 0.13600000739097595 127 126 118
0.08506791293621063 0.009037530049681664 0.13600000739097595 127 124 118
0.0853877067565918 0.009037530049681664 0.13600000739097595 127 123 117
0.08570749312639236 0.009037530049681664 0.13600000739097595 127 121 116
0.08602728694677353 0.009037530049681664 0.13600000739097595 127 116 111
0.08698198199272156 0.009103982709348202 0.13699999451637268 127 99 89
0.08730412274599075 0.009103982709348202 0.13699999451637268 127 99 89
0.08762626349925995 0.009103982709348202 0.13699999451637268 127 112 102
0.08794840425252914 0.009103982709348202 0.13699999451637268 127 117 107
0.08827054500579834 0.009103982709348202 0.13699999451637268 127 123 119
0.08859268575906754 0.009103982709348202 0.13699999451637268 127 124 120
0.08891482651233673 0.009103982709348202 0.13699999451637268 127 124 123
0.08923696726560593 0.009103982709348202 0.13699999451637268 127 125 124
0.08955910801887512 0.009103982709348202 0.13699999451637268 127 125 125
0.08988124877214432 0.009103982709348202 0.13699999451637268 127 124 124
0.09020338952541351 0.009103982709348202 0.13699999451637268 127 129 128
0.09052553027868271 0.009103982709348202 0.13699999451637268 127 129 128
0.0908476710319519 0.009103982709348202 0.13699999451637268 127 133 130
0.0911698117852211 0.009103982709348202 0.13699999451637268 127 125 122
0.0914919525384903 0.009103982709348202 0.13699999451637268 127 126 111
0.09181409329175949 0.009103982709348202 0.13699999451637268 127 121 106
0.09213623404502869 0.009103982709348202 0.13699999451637268 127 109 98
0.09245837479829788 0.009103982709348202 0.13699999451637268 127 108 97
0.09345774352550507 0.00917043536901474 0.1379999965429306 127 111 101
0.09378223866224289 0.00917043536901474 0.1379999965429306 127 111 101
0.09410673379898071 0.00917043536901474 0.1379999965429306 127 108 103
0.09443122148513794 0.00917043536901474 0.1379999965429306 127 110 105
0.09475571662187576 0.00917043536901474 0.1379999965429306 127 118 115
0.09508021175861359 0.00917043536901474 0.1379999965429306 127 106 103
0.09540469944477081 0.00917043536901474 0.1379999965429306 127 104 99
0.09572919458150864 0.00917043536901474 0.1379999965429306 127 97 92
0.09605368226766586 0.00917043536901474 0.1379999965429306 127 93 86
0.09637817740440369 0.00917043536901474 0.1379999965429306 127 90 83
0.054963331669569016 0.010114162229001522 0.1469999998807907 127 92 82
0.0553089864552021 0.010114162229001522 0.1469999998807907 127 89 80
0.05565464124083519 0.010114162229001522 0.1469999998807907 127 87 78
0.05600029602646828 0.010114162229001522 0.1469999998807907 127 81 78
0.056729257106781006 0.01018296554684639 0.14800000190734863 127 82 79
0.05707726255059242 0.01018296554684639 0.14800000190734863 127 87 83
0.05742526799440384 0.01018296554684639 0.14800000190734863 127 90 86
0.058163635432720184 0.010251769796013832 0.14900000393390656 127 93 90
0.05851399526000023 0.010251769796013832 0.14900000393390656 127 105 102
0.05925941467285156 0.0103205731138587 0.15000000596046448 127 111 105
0.059612125158309937 0.0103205731138587 0.15000000596046448 127 109 103
0.05996483191847801 0.0103205731138587 0.15000000596046448 127 113 108
0.060317542403936386 0.0103205731138587 0.15000000596046448 127 112 107
0.06067024916410446 0.0103205731138587 0.15000000596046448 127 112 111
0.061022959649562836 0.0103205731138587 0.15000000596046448 127 114 113
0.06137567013502121 0.0103205731138587 0.15000000596046448 127 114 118
0.061728376895189285 0.0103205731138587 0.15000000596046448 127 111 115
0.06166721135377884 0.010251769796013832 0.14900000393390656 127 109 111
0.062017571181058884 0.010251769796013832 0.14900000393390656 127 104 106
0.06236792728304863 0.010251769796013832 0.14900000393390656 127 97 99
0.062297359108924866 0.01018296554684639 0.14800000190734863 127 83 85
