0.0672539547085762 0.008157700300216675 0.14300000667572021 127 150 155
0.06711754202842712 0.008100653067231178 0.1420000046491623 127 131 136
0.06745143979787827 0.008100653067231178 0.1420000046491623 127 182 193
0.0677853375673294 0.008100653067231178 0.1420000046491623 127 230 241
0.06811923533678055 0.008100653067231178 0.1420000046491623 127 223 236
0.06845313310623169 0.008100653067231178 0.1420000046491623 127 218 231
0.06878703087568283 0.008100653067231178 0.1420000046491623 127 222 224
0.06863416731357574 0.008043605834245682 0.14100000262260437 127 213 215
0.06896571069955826 0.008043605834245682 0.14100000262260437 127 204 204
0.06929726153612137 0.008043605834245682 0.14100000262260437 127 207 207
0.06962880492210388 0.008043605834245682 0.14100000262260437 127 209 206
0.06946417689323425 0.00798655953258276 0.14000000059604645 127 204 201
0.06979337334632874 0.00798655953258276 0.14000000059604645 127 201 196
0.06962169706821442 0.007929512299597263 0.13899999856948853 127 201 196
0.06994853913784027 0.007929512299597263 0.13899999856948853 127 201 185
0.07027538120746613 0.007929512299597263 0.13899999856948853 127 194 178
0.07060222327709198 0.007929512299597263 0.13899999856948853 127 176 162
0.07041878998279572 0.007872465997934341 0.1379999965429306 127 168 154
0.07074327766895294 0.007872465997934341 0.1379999965429306 127 152 148
0.07106777280569077 0.007872465997934341 0.1379999965429306 127 133 129
0.07139226794242859 0.007872465997934341 0.1379999965429306 127 118 125
0.07171675562858582 0.007872465997934341 0.1379999965429306 127 130 137
0.07204125076532364 0.007872465997934341 0.1379999965429306 127 185 191
0.07236573845148087 0.007872465997934341 0.1379999965429306 127 185 191
0.07269023358821869 0.007872465997934341 0.1379999965429306 127 183 180
0.07301472872495651 0.007872465997934341 0.1379999965429306 127 169 166
0.07333921641111374 0.007872465997934341 0.1379999965429306 127 166 158
0.07312991470098495 0.007815418764948845 0.13699999451637268 127 168 160
0.07345205545425415 0.007815418764948845 0.13699999451637268 127 169 161
0.07377419620752335 0.007815418764948845 0.13699999451637268 127 166 158
0.07409633696079254 0.007815418764948845 0.13699999451637268 127 162 157
0.07441847771406174 0.007815418764948845 0.13699999451637268 127 157 152
0.07474061846733093 0.007815418764948845 0.13699999451637268 127 159 153
0.07506275922060013 0.007815418764948845 0.13699999451637268 127 161 155
0.07538489997386932 0.007815418764948845 0.13699999451637268 127 154 140
0.07515443861484528 0.007758371997624636 0.13600000739097595 127 156 142
0.07547422498464584 0.007758371997624636 0.13600000739097595 127 142 127
0.07579401880502701 0.007758371997624636 0.13600000739097595 127 143 128
0.07611380517482758 0.007758371997624636 0.13600000739097595 127 130 128
0.07643359899520874 0.007758371997624636 0.13600000739097595 127 127 125
0.07675338536500931 0.007758371997624636 0.13600000739097595 127 126 127
0.07707317918539047 0.007758371997624636 0.13600000739097595 127 139 140
0.07739296555519104 0.007758371997624636 0.13600000739097595 127 142 141
0.07771275192499161 0.007758371997624636 0.13600000739097595 127 145 144
0.07803254574537277 0.007758371997624636 0.13600000739097595 127 139 137
0.07835233211517334 0.007758371997624636 0.13600000739097595 127 139 137
0.0786721259355545 0.007758371997624636 0.13600000739097595 127 152 142
0.07899191230535507 0.007758371997624636 0.13600000739097595 127 145 135
0.07931170612573624 0.007758371997624636 0.13600000739097595 127 139 129
0.0796314924955368 0.007758371997624636 0.13600000739097595 127 142 132
0.07995127886533737 0.007758371997624636 0.13600000739097595 127 142 133
0.08027107268571854 0.007758371997624636 0.13600000739097595 127 145 136
0.0805908590555191 0.007758371997624636 0.13600000739097595 127 144 135
0.08091065287590027 0.007758371997624636 0.13600000739097595 127 139 130
0.08123043924570084 0.007758371997624636 0.13600000739097595 127 135 127
0.081550233066082 0.007758371997624636 0.13600000739097595 127 133 125
0.08187001943588257 0.007758371997624636 0.13600000739097595 127 125 120
0.08218980580568314 0.007758371997624636 0.13600000739097595 127 127 122
0.0825095996260643 0.007758371997624636 0.13600000739097595 127 119 124
0.08282938599586487 0.007758371997624636 0.13600000739097595 127 125 130
0.08314917981624603 0.007758371997624636 0.13600000739097595 127 129 134
0.0834689661860466 0.007758371997624636 0.13600000739097595 127 133 138
0.08378876000642776 0.007758371997624636 0.13600000739097595 127 140 139
0.08410854637622833 0.007758371997624636 0.13600000739097595 127 141 140
0.0844283327460289 0.007758371997624636 0.13600000739097595 127 140 138
0.08474812656641006 0.007758371997624636 0.13600000739097595 127 139 137
0.08506791293621063 0.007758371997624636 0.13600000739097595 127 144 135
0.08601555228233337 0.007815418764948845 0.13699999451637268 127 139 130
0.08633770048618317 0.007815418764948845 0.13699999451637268 127 138 129
0.08665984123945236 0.007815418764948845 0.13699999451637268 127 133 124
0.08698198199272156 0.007815418764948845 0.13699999451637268 127 128 119
0.08730412274599075 0.007815418764948845 0.13699999451637268 127 123 114
0.08762626349925995 0.007815418764948845 0.13699999451637268 127 124 113
0.08794840425252914 0.007815418764948845 0.13699999451637268 127 133 122
0.08827054500579834 0.007815418764948845 0.13699999451637268 127 135 130
0.08859268575906754 0.007815418764948845 0.13699999451637268 127 137 132
0.08891482651233673 0.007815418764948845 0.13699999451637268 127 144 137
0.08923696726560593 0.007815418764948845 0.13699999451637268 127 153 146
0.08955910801887512 0.007815418764948845 0.13699999451637268 127 152 147
0.09053731709718704 0.007872465997934341 0.1379999965429306 127 152 147
0.09086180478334427 0.007872465997934341 0.1379999965429306 127 151 146
0.09118629992008209 0.007872465997934341 0.1379999965429306 127 148 143
0.09151079505681992 0.007872465997934341 0.1379999965429306 127 149 142
0.09183528274297714 0.007872465997934341 0.1379999965429306 127 140 133
0.09215977787971497 0.007872465997934341 0.1379999965429306 127 145 129
0.09248427301645279 0.007872465997934341 0.1379999965429306 127 137 121
0.09280876070261002 0.007872465997934341 0.1379999965429306 127 125 113
0.0938081294298172 0.007929512299597263 0.13899999856948853 127 126 114
0.09413497895002365 0.007929512299597263 0.13899999856948853 127 126 115
0.0944618210196495 0.007929512299597263 0.13899999856948853 127 128 117
0.09478866308927536 0.007929512299597263 0.13899999856948853 127 131 121
0.09511550515890121 0.007929512299597263 0.13899999856948853 127 130 120
0.09544235467910767 0.007929512299597263 0.13899999856948853 127 133 121
0.09576919674873352 0.007929512299597263 0.13899999856948853 127 129 117
0.09678737819194794 0.00798655953258276 0.14000000059604645 127 130 112
0.09711657464504242 0.00798655953258276 0.14000000059604645 127 120 102
0.0974457710981369 0.00798655953258276 0.14000000059604645 127 116 96
0.09777496010065079 0.00798655953258276 0.14000000059604645 127 109 88
0.09810415655374527 0.00798655953258276 0.14000000059604645 127 102 86
0.09843335300683975 0.00798655953258276 0.14000000059604645 127 97 80
0.056437741965055466 0.008909736759960651 0.15000000596046448 127 92 86
0.05679044872522354 0.008909736759960651 0.15000000596046448 127 94 88
0.057143159210681915 0.008909736759960651 0.15000000596046448 127 94 86
0.05749586969614029 0.008909736759960651 0.15000000596046448 127 91 83
0.05820128694176674 0.008909736759960651 0.15000000596046448 127 89 84
0.05855399742722511 0.008909736759960651 0.15000000596046448 127 89 87
0.05890670418739319 0.008909736759960651 0.15000000596046448 127 92 90
0.05965447798371315 0.008969135582447052 0.1509999930858612 127 102 99
0.060009539127349854 0.008969135582447052 0.1509999930858612 127 114 111
0.06036459654569626 0.008969135582447052 0.1509999930858612 127 120 115
0.06071965768933296 0.008969135582447052 0.1509999930858612 127 120 115
0.061074718832969666 0.008969135582447052 0.1509999930858612 127 133 125
0.06142977997660637 0.008969135582447052 0.1509999930858612 127 130 122
0.06178484112024307 0.008969135582447052 0.1509999930858612 127 132 129
0.061728376895189285 0.008909736759960651 0.15000000596046448 127 134 131
0.06208108738064766 0.008909736759960651 0.15000000596046448 127 128 128
0.06243379786610603 0.008909736759960651 0.15000000596046448 127 128 128
0.06236792728304863 0.008850338868796825 0.14900000393390656 127 133 134
0.06271828711032867 0.008850338868796825 0.14900000393390656 127 128 129
0.06264536082744598 0.008790940046310425 0.14800000190734863 127 104 109
0.0629933699965477 0.008790940046310425 0.14800000190734863 127 106 111
0.06291339546442032 0.008731542155146599 0.1469999998807907 127 165 173
0.0632590502500534 0.008731542155146599 0.1469999998807907 127 196 204
0.06360470503568649 0.008731542155146599 0.1469999998807907 127 209 216
0.0635153204202652 0.008672144263982773 0.1459999978542328 127 214 221
0.06385862827301025 0.008672144263982773 0.1459999978542328 127 234 245
0.06420192867517471 0.008672144263982773 0.1459999978542328 127 239 250
0.06454523652791977 0.008672144263982773 0.1459999978542328 127 243 250
0.06488853693008423 0.008672144263982773 0.1459999978542328 127 243 250
0.06523183733224869 0.008672144263982773 0.1459999978542328 127 224 225
0.06512600183486938 0.008612745441496372 0.14499999582767487 127 216 217
0.06546695530414581 0.008612745441496372 0.14499999582767487 127 213 208
0.06580790132284164 0.008612745441496372 0.14499999582767487 127 204 199
0.06614885479211807 0.008612745441496372 0.14499999582767487 127 185 173
0.06603125482797623 0.008553347550332546 0.14399999380111694 127 183 171
0.06636986136436462 0.008553347550332546 0.14399999380111694 127 183 175
0.06624520570039749 0.008493948727846146 0.14300000667572021 127 171 163
0.06658145785331726 0.008493948727846146 0.14300000667572021 127 166 162
0.06691770255565643 0.008493948727846146 0.14300000667572021 127 169 165
0.0672539547085762 0.008493948727846146 0.14300000667572021 127 156 156
0.06711754202842712 0.00843455083668232 0.1420000046491623 127 131 131
0.06745143979787827 0.00843455083668232 0.1420000046491623 127 152 157
0.0677853375673294 0.00843455083668232 0.1420000046491623 127 234 239
0.06811923533678055 0.00843455083668232 0.1420000046491623 127 220 227
0.06845313310623169 0.00843455083668232 0.1420000046491623 127 218 225
0.06878703087568283 0.00843455083668232 0.1420000046491623 127 212 216
0.06912093609571457 0.00843455083668232 0.1420000046491623 127 208 212
0.06896571069955826 0.008375152945518494 0.14100000262260437 127 203 201
0.06929726153612137 0.008375152945518494 0.14100000262260437 127 203 201
0.06962880492210388 0.008375152945518494 0.14100000262260437 127 202 199
0.06946417689323425 0.008315754123032093 0.14000000059604645 127 203 200
0.06979337334632874 0.008315754123032093 0.14000000059604645 127 202 195
0.06962169706821442 0.008256356231868267 0.13899999856948853 127 188 181
0.06994853913784027 0.008256356231868267 0.13899999856948853 127 184 172
0.07027538120746613 0.008256356231868267 0.13899999856948853 127 182 170
0.07060222327709198 0.008256356231868267 0.13899999856948853 127 166 155
0.07041878998279572 0.008196958340704441 0.1379999965429306 127 152 141
0.07074327766895294 0.008196958340704441 0.1379999965429306 127 147 142
0.07106777280569077 0.008196958340704441 0.1379999965429306 127 133 128
0.07139226794242859 0.008196958340704441 0.1379999965429306 127 107 115
0.07171675562858582 0.008196958340704441 0.1379999965429306 127 125 133
0.07204125076532364 0.008196958340704441 0.1379999965429306 127 183 189
0.07236573845148087 0.008196958340704441 0.1379999965429306 127 189 195
0.07269023358821869 0.008196958340704441 0.1379999965429306 127 190 187
0.07301472872495651 0.008196958340704441 0.1379999965429306 127 181 178
0.07333921641111374 0.008196958340704441 0.1379999965429306 127 171 165
0.07366371154785156 0.008196958340704441 0.1379999965429306 127 162 156
0.07345205545425415 0.00813755951821804 0.13699999451637268 127 164 158
0.07377419620752335 0.00813755951821804 0.13699999451637268 127 162 156
0.07409633696079254 0.00813755951821804 0.13699999451637268 127 162 156
0.07441847771406174 0.00813755951821804 0.13699999451637268 127 159 153
0.07474061846733093 0.00813755951821804 0.13699999451637268 127 158 151
0.07506275922060013 0.00813755951821804 0.13699999451637268 127 155 148
0.07538489997386932 0.00813755951821804 0.13699999451637268 127 154 139
0.07570704072713852 0.00813755951821804 0.13699999451637268 127 150 135
0.07547422498464584 0.008078161627054214 0.13600000739097595 127 139 127
0.07579401880502701 0.008078161627054214 0.13600000739097595 127 140 128
0.07611380517482758 0.008078161627054214 0.13600000739097595 127 126 122
0.07643359899520874 0.008078161627054214 0.13600000739097595 127 116 112
0.07675338536500931 0.008078161627054214 0.13600000739097595 127 120 123
0.07707317918539047 0.008078161627054214 0.13600000739097595 127 133 136
0.07739296555519104 0.008078161627054214 0.13600000739097595 127 144 143
0.07771275192499161 0.008078161627054214 0.13600000739097595 127 145 144
0.07803254574537277 0.008078161627054214 0.13600000739097595 127 145 143
0.07835233211517334 0.008078161627054214 0.13600000739097595 127 140 138
0.0786721259355545 0.008078161627054214 0.13600000739097595 127 147 140
0.07899191230535507 0.008078161627054214 0.13600000739097595 127 141 134
0.07931170612573624 0.008078161627054214 0.13600000739097595 127 138 129
0.0796314924955368 0.008078161627054214 0.13600000739097595 127 139 130
0.07995127886533737 0.008078161627054214 0.13600000739097595 127 139 129
0.08027107268571854 0.008078161627054214 0.13600000739097595 127 144 134
0.0805908590555191 0.008078161627054214 0.13600000739097595 127 139 129
0.08091065287590027 0.008078161627054214 0.13600000739097595 127 133 123
0.08123043924570084 0.008078161627054214 0.13600000739097595 127 129 119
0.081550233066082 0.008078161627054214 0.13600000739097595 127 129 119
0.08187001943588257 0.008078161627054214 0.13600000739097595 127 111 106
0.08218980580568314 0.008078161627054214 0.13600000739097595 127 123 118
0.0825095996260643 0.008078161627054214 0.13600000739097595 127 120 124
0.08282938599586487 0.008078161627054214 0.13600000739097595 127 124 128
0.08314917981624603 0.008078161627054214 0.13600000739097595 127 132 136
0.0834689661860466 0.008078161627054214 0.13600000739097595 127 133 137
0.08378876000642776 0.008078161627054214 0.13600000739097595 127 141 138
0.08410854637622833 0.008078161627054214 0.13600000739097595 127 137 134
0.0844283327460289 0.008078161627054214 0.13600000739097595 127 139 132
0.08474812656641006 0.008078161627054214 0.13600000739097595 127 140 133
0.08506791293621063 0.008078161627054214 0.13600000739097595 127 140 131
0.08601555228233337 0.00813755951821804 0.13699999451637268 127 137 128
0.08633770048618317 0.00813755951821804 0.13699999451637268 127 136 124
0.08665984123945236 0.00813755951821804 0.13699999451637268 127 132 120
0.08698198199272156 0.00813755951821804 0.13699999451637268 127 128 118
0.08730412274599075 0.00813755951821804 0.13699999451637268 127 111 101
0.08762626349925995 0.00813755951821804 0.13699999451637268 127 116 110
0.08794840425252914 0.00813755951821804 0.13699999451637268 127 133 127
0.08827054500579834 0.00813755951821804 0.13699999451637268 127 133 128
0.08859268575906754 0.00813755951821804 0.13699999451637268 127 138 133
0.08891482651233673 0.00813755951821804 0.13699999451637268 127 142 138
0.08923696726560593 0.00813755951821804 0.13699999451637268 127 144 140
0.08955910801887512 0.00813755951821804 0.13699999451637268 127 146 139
0.09053731709718704 0.008196958340704441 0.1379999965429306 127 145 138
0.09086180478334427 0.008196958340704441 0.1379999965429306 127 146 139
0.09118629992008209 0.008196958340704441 0.1379999965429306 127 145 138
0.09151079505681992 0.008196958340704441 0.1379999965429306 127 147 141
0.09183528274297714 0.008196958340704441 0.1379999965429306 127 142 136
0.09215977787971497 0.008196958340704441 0.1379999965429306 127 137 126
0.09248427301645279 0.008196958340704441 0.1379999965429306 127 132 121
0.09280876070261002 0.008196958340704441 0.1379999965429306 127 124 113
0.0938081294298172 0.008256356231868267 0.13899999856948853 127 119 108
0.09413497895002365 0.008256356231868267 0.13899999856948853 127 120 114
0.0944618210196495 0.008256356231868267 0.13899999856948853 127 121 115
0.09478866308927536 0.008256356231868267 0.13899999856948853 127 126 117
0.09511550515890121 0.008256356231868267 0.13899999856948853 127 124 115
0.09544235467910767 0.008256356231868267 0.13899999856948853 127 130 119
0.09576919674873352 0.008256356231868267 0.13899999856948853 127 125 114
0.09678737819194794 0.008315754123032093 0.14000000059604645 127 130 112
0.09711657464504242 0.008315754123032093 0.14000000059604645 127 120 102
0.0974457710981369 0.008315754123032093 0.14000000059604645 127 112 91
0.09777496010065079 0.008315754123032093 0.14000000059604645 127 111 90
0.09810415655374527 0.008315754123032093 0.14000000059604645 127 103 85
0.09843335300683975 0.008315754123032093 0.14000000059604645 127 93 74
0.05568523705005646 0.009138946421444416 0.14800000190734863 127 86 81
0.05565464124083519 0.009077196940779686 0.1469999998807907 127 87 82
0.05600029602646828 0.009077196940779686 0.1469999998807907 127 87 81
0.056729257106781006 0.009138946421444416 0.14800000190734863 127 87 81
0.05707726255059242 0.009138946421444416 0.14800000190734863 127 85 81
0.05781327933073044 0.00920069683343172 0.14900000393390656 127 86 82
0.058163635432720184 0.00920069683343172 0.14900000393390656 127 91 92
0.05890670418739319 0.00926244631409645 0.15000000596046448 127 91 92
0.05925941467285156 0.00926244631409645 0.15000000596046448 127 108 105
0.060009539127349854 0.009324195794761181 0.1509999930858612 127 115 112
0.06036459654569626 0.009324195794761181 0.1509999930858612 127 124 116
0.06071965768933296 0.009324195794761181 0.1509999930858612 127 121 113
0.061074718832969666 0.009324195794761181 0.1509999930858612 127 130 122
0.06142977997660637 0.009324195794761181 0.1509999930858612 127 128 120
0.06178484112024307 0.009324195794761181 0.1509999930858612 127 131 127
0.061728376895189285 0.00926244631409645 0.15000000596046448 127 132 128
0.06208108738064766 0.00926244631409645 0.15000000596046448 127 125 125
0.062017571181058884 0.00920069683343172 0.14900000393390656 127 119 119
0.06236792728304863 0.00920069683343172 0.14900000393390656 127 120 118
0.06271828711032867 0.00920069683343172 0.14900000393390656 127 118 116
0.06264536082744598 0.009138946421444416 0.14800000190734863 127 94 99
0.0629933699965477 0.009138946421444416 0.14800000190734863 127 101 106
0.06291339546442032 0.009077196940779686 0.1469999998807907 127 158 167
0.0632590502500534 0.009077196940779686 0.1469999998807907 127 178 187
0.06360470503568649 0.009077196940779686 0.1469999998807907 127 197 202
0.0635153204202652 0.009015447460114956 0.1459999978542328 127 205 210
0.06385862827301025 0.009015447460114956 0.1459999978542328 127 213 216
0.06420192867517471 0.009015447460114956 0.1459999978542328 127 223 226
0.06454523652791977 0.009015447460114956 0.1459999978542328 127 233 233
0.06488853693008423 0.009015447460114956 0.1459999978542328 127 238 238
0.06523183733224869 0.009015447460114956 0.1459999978542328 127 235 229
0.06512600183486938 0.008953697979450226 0.14499999582767487 127 230 224
0.06546695530414581 0.008953697979450226 0.14499999582767487 127 217 211
0.06580790132284164 0.008953697979450226 0.14499999582767487 127 187 181
0.06614885479211807 0.008953697979450226 0.14499999582767487 127 182 174
0.06603125482797623 0.008891948498785496 0.14399999380111694 127 178 170
0.06636986136436462 0.008891948498785496 0.14399999380111694 127 176 170
0.06624520570039749 0.008830198086798191 0.14300000667572021 127 155 149
0.06658145785331726 0.008830198086798191 0.14300000667572021 127 158 154
0.06691770255565643 0.008830198086798191 0.14300000667572021 127 153 149
0.0672539547085762 0.008830198086798191 0.14300000667572021 127 142 137
0.06711754202842712 0.008768448606133461 0.1420000046491623 127 127 122
0.06745143979787827 0.008768448606133461 0.1420000046491623 127 129 130
0.0677853375673294 0.008768448606133461 0.1420000046491623 127 229 230
0.06811923533678055 0.008768448606133461 0.1420000046491623 127 222 226
0.06845313310623169 0.008768448606133461 0.1420000046491623 127 216 220
0.06878703087568283 0.008768448606133461 0.1420000046491623 127 211 212
0.06912093609571457 0.008768448606133461 0.1420000046491623 127 205 206
0.06896571069955826 0.008706699125468731 0.14100000262260437 127 201 200
0.06929726153612137 0.008706699125468731 0.14100000262260437 127 202 201
0.06962880492210388 0.008706699125468731 0.14100000262260437 127 195 195
0.06946417689323425 0.008644949644804 0.14000000059604645 127 191 191
0.06979337334632874 0.008644949644804 0.14000000059604645 127 203 196
0.06962169706821442 0.00858320016413927 0.13899999856948853 127 189 182
0.06994853913784027 0.00858320016413927 0.13899999856948853 127 175 166
0.07027538120746613 0.00858320016413927 0.13899999856948853 127 177 168
0.07060222327709198 0.00858320016413927 0.13899999856948853 127 165 154
0.07041878998279572 0.00852145068347454 0.1379999965429306 127 155 144
0.07074327766895294 0.00852145068347454 0.1379999965429306 127 157 151
0.07106777280569077 0.00852145068347454 0.1379999965429306 127 128 122
0.07139226794242859 0.00852145068347454 0.1379999965429306 127 98 108
0.07171675562858582 0.00852145068347454 0.1379999965429306 127 116 126
0.07204125076532364 0.00852145068347454 0.1379999965429306 127 173 181
0.07236573845148087 0.00852145068347454 0.1379999965429306 127 179 187
0.07269023358821869 0.00852145068347454 0.1379999965429306 127 181 180
0.07301472872495651 0.00852145068347454 0.1379999965429306 127 162 161
0.07333921641111374 0.00852145068347454 0.1379999965429306 127 162 156
0.07366371154785156 0.00852145068347454 0.1379999965429306 127 162 156
0.07345205545425415 0.008459700271487236 0.13699999451637268 127 165 157
0.07377419620752335 0.008459700271487236 0.13699999451637268 127 162 154
0.07409633696079254 0.008459700271487236 0.13699999451637268 127 154 146
0.07441847771406174 0.008459700271487236 0.13699999451637268 127 150 142
0.07474061846733093 0.008459700271487236 0.13699999451637268 127 157 145
0.07506275922060013 0.008459700271487236 0.13699999451637268 127 158 146
0.07538489997386932 0.008459700271487236 0.13699999451637268 127 156 140
0.07570704072713852 0.008459700271487236 0.13699999451637268 127 153 137
0.07602918893098831 0.008459700271487236 0.13699999451637268 127 145 131
0.07635132968425751 0.008459700271487236 0.13699999451637268 127 134 120
0.0766734704375267 0.008459700271487236 0.13699999451637268 127 114 111
0.0769956111907959 0.008459700271487236 0.13699999451637268 127 105 102
0.0773177519440651 0.008459700271487236 0.13699999451637268 127 117 120
0.07763989269733429 0.008459700271487236 0.13699999451637268 127 132 135
0.07739296555519104 0.008397950790822506 0.13600000739097595 127 140 140
0.07771275192499161 0.008397950790822506 0.13600000739097595 127 138 138
0.07803254574537277 0.008397950790822506 0.13600000739097595 127 146 140
0.07835233211517334 0.008397950790822506 0.13600000739097595 127 145 139
0.0786721259355545 0.008397950790822506 0.13600000739097595 127 143 136
0.07899191230535507 0.008397950790822506 0.13600000739097595 127 140 133
0.07931170612573624 0.008397950790822506 0.13600000739097595 127 139 133
0.0796314924955368 0.008397950790822506 0.13600000739097595 127 134 128
0.07995127886533737 0.008397950790822506 0.13600000739097595 127 136 127
0.08027107268571854 0.008397950790822506 0.13600000739097595 127 136 127
0.0805908590555191 0.008397950790822506 0.13600000739097595 127 135 126
0.08091065287590027 0.008397950790822506 0.13600000739097595 127 132 123
0.08123043924570084 0.008397950790822506 0.13600000739097595 127 130 122
0.081550233066082 0.008397950790822506 0.13600000739097595 127 125 117
0.08187001943588257 0.008397950790822506 0.13600000739097595 127 101 99
0.08218980580568314 0.008397950790822506 0.13600000739097595 127 110 108
0.0825095996260643 0.008397950790822506 0.13600000739097595 127 123 127
0.08282938599586487 0.008397950790822506 0.13600000739097595 127 119 123
0.08314917981624603 0.008397950790822506 0.13600000739097595 127 128 129
0.0834689661860466 0.008397950790822506 0.13600000739097595 127 133 134
0.08378876000642776 0.008397950790822506 0.13600000739097595 127 134 131
0.08410854637622833 0.008397950790822506 0.13600000739097595 127 134 131
0.0844283327460289 0.008397950790822506 0.13600000739097595 127 139 132
0.08474812656641006 0.008397950790822506 0.13600000739097595 127 139 132
0.08506791293621063 0.008397950790822506 0.13600000739097595 127 140 128
0.08601555228233337 0.008459700271487236 0.13699999451637268 127 137 125
0.08633770048618317 0.008459700271487236 0.13699999451637268 127 134 122
0.08665984123945236 0.008459700271487236 0.13699999451637268 127 132 120
0.08698198199272156 0.008459700271487236 0.13699999451637268 127 122 116
0.08730412274599075 0.008459700271487236 0.13699999451637268 127 114 108
0.08762626349925995 0.008459700271487236 0.13699999451637268 127 116 112
0.08794840425252914 0.008459700271487236 0.13699999451637268 127 122 118
0.08827054500579834 0.008459700271487236 0.13699999451637268 127 121 121
0.08859268575906754 0.008459700271487236 0.13699999451637268 127 130 130
0.08891482651233673 0.008459700271487236 0.13699999451637268 127 136 135
0.08923696726560593 0.008459700271487236 0.13699999451637268 127 136 135
0.09021282196044922 0.00852145068347454 0.1379999965429306 127 140 137
0.09053731709718704 0.00852145068347454 0.1379999965429306 127 142 139
0.09086180478334427 0.00852145068347454 0.1379999965429306 127 140 137
0.09118629992008209 0.00852145068347454 0.1379999965429306 127 137 134
0.09151079505681992 0.00852145068347454 0.1379999965429306 127 138 132
0.09183528274297714 0.00852145068347454 0.1379999965429306 127 137 131
0.09215977787971497 0.00852145068347454 0.1379999965429306 127 138 128
0.09248427301645279 0.00852145068347454 0.1379999965429306 127 130 120
0.09348128736019135 0.00858320016413927 0.13899999856948853 127 117 107
0.0938081294298172 0.00858320016413927 0.13899999856948853 127 116 106
0.09413497895002365 0.00858320016413927 0.13899999856948853 127 113 107
0.0944618210196495 0.00858320016413927 0.13899999856948853 127 116 110
0.09478866308927536 0.00858320016413927 0.13899999856948853 127 121 115
0.09511550515890121 0.00858320016413927 0.13899999856948853 127 122 116
0.09544235467910767 0.00858320016413927 0.13899999856948853 127 124 115
0.09576919674873352 0.00858320016413927 0.13899999856948853 127 122 113
0.09609603881835938 0.00858320016413927 0.13899999856948853 127 129 110
0.09642288088798523 0.00858320016413927 0.13899999856948853 127 111 91
0.0974457710981369 0.008644949644804 0.14000000059604645 127 113 92
0.09777496010065079 0.008644949644804 0.14000000059604645 127 116 95
0.09810415655374527 0.008644949644804 0.14000000059604645 127 86 66
0.09843335300683975 0.008644949644804 0.14000000059604645 127 95 76
0.0553089864552021 0.009422851726412773 0.1469999998807907 127 82 79
0.055276039987802505 0.009358750656247139 0.1459999978542328 127 84 81
0.055619340389966965 0.009358750656247139 0.1459999978542328 127 85 80
0.056345950812101364 0.009422851726412773 0.1469999998807907 127 85 80
0.05669160559773445 0.009422851726412773 0.1469999998807907 127 79 78
0.05742526799440384 0.009486952796578407 0.14800000190734863 127 82 81
0.058163635432720184 0.009551053866744041 0.14900000393390656 127 93 96
0.05890670418739319 0.009615154936909676 0.15000000596046448 127 93 96
0.05925941467285156 0.009615154936909676 0.15000000596046448 127 109 109
0.060009539127349854 0.00967925600707531 0.1509999930858612 127 107 107
0.06036459654569626 0.00967925600707531 0.1509999930858612 127 118 115
0.06071965768933296 0.00967925600707531 0.1509999930858612 127 115 112
0.061074718832969666 0.00967925600707531 0.1509999930858612 127 120 119
0.06142977997660637 0.00967925600707531 0.1509999930858612 127 121 120
0.06137567013502121 0.009615154936909676 0.15000000596046448 127 124 124
0.061728376895189285 0.009615154936909676 0.15000000596046448 127 123 123
0.06208108738064766 0.009615154936909676 0.15000000596046448 127 120 118
0.062017571181058884 0.009551053866744041 0.14900000393390656 127 119 117
0.06236792728304863 0.009551053866744041 0.14900000393390656 127 121 118
0.06271828711032867 0.009551053866744041 0.14900000393390656 127 115 112
0.06264536082744598 0.009486952796578407 0.14800000190734863 127 92 97
0.0629933699965477 0.009486952796578407 0.14800000190734863 127 92 97
0.06291339546442032 0.009422851726412773 0.1469999998807907 127 153 159
0.0632590502500534 0.009422851726412773 0.1469999998807907 127 170 176
0.06360470503568649 0.009422851726412773 0.1469999998807907 127 184 188
0.0635153204202652 0.009358750656247139 0.1459999978542328 127 191 195
0.06385862827301025 0.009358750656247139 0.1459999978542328 127 208 205
0.06420192867517471 0.009358750656247139 0.1459999978542328 127 205 202
0.06454523652791977 0.009358750656247139 0.1459999978542328 127 213 211
0.06444409489631653 0.009294649586081505 0.14499999582767487 127 214 212
0.06478504836559296 0.009294649586081505 0.14499999582767487 127 210 204
0.06512600183486938 0.009294649586081505 0.14499999582767487 127 211 205
0.06546695530414581 0.009294649586081505 0.14499999582767487 127 212 205
0.06580790132284164 0.009294649586081505 0.14499999582767487 127 184 177
0.06614885479211807 0.009294649586081505 0.14499999582767487 127 175 169
0.06603125482797623 0.00923054851591587 0.14399999380111694 127 170 164
0.06636986136436462 0.00923054851591587 0.14399999380111694 127 169 162
0.06624520570039749 0.009166447445750237 0.14300000667572021 127 160 153
0.06658145785331726 0.009166447445750237 0.14300000667572021 127 154 149
0.06691770255565643 0.009166447445750237 0.14300000667572021 127 154 149
0.0672539547085762 0.009166447445750237 0.14300000667572021 127 135 132
0.06711754202842712 0.009102347306907177 0.1420000046491623 127 115 112
0.06745143979787827 0.009102347306907177 0.1420000046491623 127 116 116
0.0677853375673294 0.009102347306907177 0.1420000046491623 127 211 211
0.06811923533678055 0.009102347306907177 0.1420000046491623 127 217 219
0.06845313310623169 0.009102347306907177 0.1420000046491623 127 211 213
0.06878703087568283 0.009102347306907177 0.1420000046491623 127 205 205
0.06912093609571457 0.009102347306907177 0.1420000046491623 127 202 202
0.06945483386516571 0.009102347306907177 0.1420000046491623 127 199 200
0.06929726153612137 0.009038246236741543 0.14100000262260437 127 200 201
0.06962880492210388 0.009038246236741543 0.14100000262260437 127 196 198
0.06946417689323425 0.008974145166575909 0.14000000059604645 127 191 193
0.06979337334632874 0.008974145166575909 0.14000000059604645 127 204 200
0.06962169706821442 0.008910044096410275 0.13899999856948853 127 187 183
0.06994853913784027 0.008910044096410275 0.13899999856948853 127 178 170
0.07027538120746613 0.008910044096410275 0.13899999856948853 127 167 159
0.07060222327709198 0.008910044096410275 0.13899999856948853 127 163 155
0.07092906534671783 0.008910044096410275 0.13899999856948853 127 147 139
0.07074327766895294 0.00884594302624464 0.1379999965429306 127 137 133
0.07106777280569077 0.00884594302624464 0.1379999965429306 127 110 106
0.07139226794242859 0.00884594302624464 0.1379999965429306 127 89 99
0.07171675562858582 0.00884594302624464 0.1379999965429306 127 103 113
0.07204125076532364 0.00884594302624464 0.1379999965429306 127 156 168
0.07236573845148087 0.00884594302624464 0.1379999965429306 127 172 184
0.07269023358821869 0.00884594302624464 0.1379999965429306 127 173 179
0.07301472872495651 0.00884594302624464 0.1379999965429306 127 168 174
0.07333921641111374 0.00884594302624464 0.1379999965429306 127 169 164
0.07366371154785156 0.00884594302624464 0.1379999965429306 127 162 157
0.07345205545425415 0.008781841956079006 0.13699999451637268 127 161 153
0.07377419620752335 0.008781841956079006 0.13699999451637268 127 158 150
0.07409633696079254 0.008781841956079006 0.13699999451637268 127 161 149
0.07441847771406174 0.008781841956079006 0.13699999451637268 127 153 141
0.07474061846733093 0.008781841956079006 0.13699999451637268 127 155 143
0.07506275922060013 0.008781841956079006 0.13699999451637268 127 151 139
0.07538489997386932 0.008781841956079006 0.13699999451637268 127 139 121
0.07570704072713852 0.008781841956079006 0.13699999451637268 127 144 126
0.07602918893098831 0.008781841956079006 0.13699999451637268 127 145 133
0.07635132968425751 0.008781841956079006 0.13699999451637268 127 130 118
0.0766734704375267 0.008781841956079006 0.13699999451637268 127 101 98
0.0769956111907959 0.008781841956079006 0.13699999451637268 127 99 96
0.0773177519440651 0.008781841956079006 0.13699999451637268 127 120 122
0.07763989269733429 0.008781841956079006 0.13699999451637268 127 135 137
0.07796203345060349 0.008781841956079006 0.13699999451637268 127 133 135
0.07828417420387268 0.008781841956079006 0.13699999451637268 127 134 136
0.07860631495714188 0.008781841956079006 0.13699999451637268 127 141 135
0.07835233211517334 0.008717740885913372 0.13600000739097595 127 138 132
0.0786721259355545 0.008717740885913372 0.13600000739097595 127 135 127
0.07899191230535507 0.008717740885913372 0.13600000739097595 127 135 127
0.07931170612573624 0.008717740885913372 0.13600000739097595 127 137 130
0.0796314924955368 0.008717740885913372 0.13600000739097595 127 136 129
0.07995127886533737 0.008717740885913372 0.13600000739097595 127 135 128
0.08027107268571854 0.008717740885913372 0.13600000739097595 127 130 123
0.0805908590555191 0.008717740885913372 0.13600000739097595 127 129 123
0.08091065287590027 0.008717740885913372 0.13600000739097595 127 130 124
0.08123043924570084 0.008717740885913372 0.13600000739097595 127 126 117
0.081550233066082 0.008717740885913372 0.13600000739097595 127 119 110
0.08187001943588257 0.008717740885913372 0.13600000739097595 127 101 103
0.08218980580568314 0.008717740885913372 0.13600000739097595 127 113 115
0.0825095996260643 0.008717740885913372 0.13600000739097595 127 119 122
0.08282938599586487 0.008717740885913372 0.13600000739097595 127 118 121
0.08314917981624603 0.008717740885913372 0.13600000739097595 127 121 123
0.0834689661860466 0.008717740885913372 0.13600000739097595 127 125 127
0.08378876000642776 0.008717740885913372 0.13600000739097595 127 134 130
0.08410854637622833 0.008717740885913372 0.13600000739097595 127 132 128
0.0844283327460289 0.008717740885913372 0.13600000739097595 127 136 128
0.08474812656641006 0.008717740885913372 0.13600000739097595 127 135 127
0.08506791293621063 0.008717740885913372 0.13600000739097595 127 135 123
0.0853877067565918 0.008717740885913372 0.13600000739097595 127 132 120
0.08633770048618317 0.008781841956079006 0.13699999451637268 127 126 115
0.08665984123945236 0.008781841956079006 0.13699999451637268 127 131 120
0.08698198199272156 0.008781841956079006 0.13699999451637268 127 109 105
0.08730412274599075 0.008781841956079006 0.13699999451637268 127 110 106
0.08762626349925995 0.008781841956079006 0.13699999451637268 127 112 112
0.08794840425252914 0.008781841956079006 0.13699999451637268 127 114 114
0.08827054500579834 0.008781841956079006 0.13699999451637268 127 118 119
0.08859268575906754 0.008781841956079006 0.13699999451637268 127 122 123
0.08891482651233673 0.008781841956079006 0.13699999451637268 127 130 128
0.08923696726560593 0.008781841956079006 0.13699999451637268 127 130 128
0.09021282196044922 0.00884594302624464 0.1379999965429306 127 133 130
0.09053731709718704 0.00884594302624464 0.1379999965429306 127 138 135
0.09086180478334427 0.00884594302624464 0.1379999965429306 127 138 136
0.09118629992008209 0.00884594302624464 0.1379999965429306 127 134 132
0.09151079505681992 0.00884594302624464 0.1379999965429306 127 127 125
0.09183528274297714 0.00884594302624464 0.1379999965429306 127 131 129
0.09215977787971497 0.00884594302624464 0.1379999965429306 127 132 126
0.09248427301645279 0.00884594302624464 0.1379999965429306 127 113 107
0.09348128736019135 0.008910044096410275 0.13899999856948853 127 111 103
0.0938081294298172 0.008910044096410275 0.13899999856948853 127 113 105
0.09413497895002365 0.008910044096410275 0.13899999856948853 127 108 100
0.0944618210196495 0.008910044096410275 0.13899999856948853 127 112 104
0.09478866308927536 0.008910044096410275 0.13899999856948853 127 115 107
0.09511550515890121 0.008910044096410275 0.13899999856948853 127 122 114
0.09544235467910767 0.008910044096410275 0.13899999856948853 127 122 115
0.09576919674873352 0.008910044096410275 0.13899999856948853 127 119 112
0.09609603881835938 0.008910044096410275 0.13899999856948853 127 127 111
0.09642288088798523 0.008910044096410275 0.13899999856948853 127 108 92
0.09674973040819168 0.008910044096410275 0.13899999856948853 127 104 85
0.09707657247781754 0.008910044096410275 0.13899999856948853 127 102 83
0.09740341454744339 0.008910044096410275 0.13899999856948853 127 82 68
0.09773025661706924 0.008910044096410275 0.13899999856948853 127 81 67
0.05493273586034775 0.009702054783701897 0.1459999978542328 127 90 86
0.055276039987802505 0.009702054783701897 0.1459999978542328 127 86 82
0.055619340389966965 0.009702054783701897 0.1459999978542328 127 85 82
0.056345950812101364 0.00976850651204586 0.1469999998807907 127 83 80
0.05669160559773445 0.00976850651204586 0.1469999998807907 127 79 79
0.05742526799440384 0.009834959171712399 0.14800000190734863 127 93 93
0.058163635432720184 0.009901411831378937 0.14900000393390656 127 94 97
0.05890670418739319 0.009967864491045475 0.15000000596046448 127 94 97
0.05925941467285156 0.009967864491045475 0.15000000596046448 127 106 107
0.060009539127349854 0.010034316219389439 0.1509999930858612 127 103 104
0.06036459654569626 0.010034316219389439 0.1509999930858612 127 111 110
0.06071965768933296 0.010034316219389439 0.1509999930858612 127 111 110
0.061074718832969666 0.010034316219389439 0.1509999930858612 127 118 118
0.06142977997660637 0.010034316219389439 0.1509999930858612 127 117 117
0.06137567013502121 0.009967864491045475 0.15000000596046448 127 122 121
0.061728376895189285 0.009967864491045475 0.15000000596046448 127 117 116
0.06208108738064766 0.009967864491045475 0.15000000596046448 127 115 113
0.062017571181058884 0.009901411831378937 0.14900000393390656 127 116 114
0.06236792728304863 0.009901411831378937 0.14900000393390656 127 118 114
0.062297359108924866 0.009834959171712399 0.14800000190734863 127 106 102
0.06264536082744598 0.009834959171712399 0.14800000190734863 127 91 91
0.0629933699965477 0.009834959171712399 0.14800000190734863 127 86 86
0.06291339546442032 0.00976850651204586 0.1469999998807907 127 148 158
0.0632590502500534 0.00976850651204586 0.1469999998807907 127 166 176
0.06360470503568649 0.00976850651204586 0.1469999998807907 127 174 178
0.0635153204202652 0.009702054783701897 0.1459999978542328 127 186 190
0.06385862827301025 0.009702054783701897 0.1459999978542328 127 198 198
0.06420192867517471 0.009702054783701897 0.1459999978542328 127 184 184
0.0641031414270401 0.009635602124035358 0.14499999582767487 127 199 193
0.06444409489631653 0.009635602124035358 0.14499999582767487 127 203 197
0.06478504836559296 0.009635602124035358 0.14499999582767487 127 207 200
0.06512600183486938 0.009635602124035358 0.14499999582767487 127 201 194
0.06546695530414581 0.009635602124035358 0.14499999582767487 127 191 182
0.06535405665636063 0.00956914946436882 0.14399999380111694 127 183 174
0.06569265574216843 0.00956914946436882 0.14399999380111694 127 168 160
0.06603125482797623 0.00956914946436882 0.14399999380111694 127 164 156
0.06590895354747772 0.009502696804702282 0.14300000667572021 127 162 154
0.06624520570039749 0.009502696804702282 0.14300000667572021 127 155 147
0.06658145785331726 0.009502696804702282 0.14300000667572021 127 149 144
0.06691770255565643 0.009502696804702282 0.14300000667572021 127 148 143
0.0672539547085762 0.009502696804702282 0.14300000667572021 127 116 115
0.06711754202842712 0.009436245076358318 0.1420000046491623 127 105 104
0.06745143979787827 0.009436245076358318 0.1420000046491623 127 107 107
0.0677853375673294 0.009436245076358318 0.1420000046491623 127 193 193
0.06811923533678055 0.009436245076358318 0.1420000046491623 127 203 207
0.06845313310623169 0.009436245076358318 0.1420000046491623 127 207 211
0.06878703087568283 0.009436245076358318 0.1420000046491623 127 200 202
0.06912093609571457 0.009436245076358318 0.1420000046491623 127 197 199
0.06945483386516571 0.009436245076358318 0.1420000046491623 127 197 200
0.06929726153612137 0.00936979241669178 0.14100000262260437 127 199 202
0.06962880492210388 0.00936979241669178 0.14100000262260437 127 198 198
0.06946417689323425 0.009303339757025242 0.14000000059604645 127 186 186
0.06979337334632874 0.009303339757025242 0.14000000059604645 127 183 174
0.07012256979942322 0.009303339757025242 0.14000000059604645 127 174 165
0.06994853913784027 0.009236887097358704 0.13899999856948853 127 170 160
0.07027538120746613 0.009236887097358704 0.13899999856948853 127 163 153
0.07060222327709198 0.009236887097358704 0.13899999856948853 127 154 146
0.07092906534671783 0.009236887097358704 0.13899999856948853 127 146 138
0.07125591486692429 0.009236887097358704 0.13899999856948853 127 138 133
0.07158275693655014 0.009236887097358704 0.13899999856948853 127 112 107
0.07139226794242859 0.00917043536901474 0.1379999965429306 127 77 86
0.07171675562858582 0.00917043536901474 0.1379999965429306 127 88 97
0.07204125076532364 0.00917043536901474 0.1379999965429306 127 143 154
0.07236573845148087 0.00917043536901474 0.1379999965429306 127 176 187
0.07269023358821869 0.00917043536901474 0.1379999965429306 127 178 186
0.07301472872495651 0.00917043536901474 0.1379999965429306 127 162 170
0.07333921641111374 0.00917043536901474 0.1379999965429306 127 167 162
0.07366371154785156 0.00917043536901474 0.1379999965429306 127 160 155
0.07345205545425415 0.009103982709348202 0.13699999451637268 127 156 147
0.07377419620752335 0.009103982709348202 0.13699999451637268 127 146 137
0.07409633696079254 0.009103982709348202 0.13699999451637268 127 152 140
0.07441847771406174 0.009103982709348202 0.13699999451637268 127 151 139
0.07474061846733093 0.009103982709348202 0.13699999451637268 127 149 137
0.07506275922060013 0.009103982709348202 0.13699999451637268 127 150 138
0.07538489997386932 0.009103982709348202 0.13699999451637268 127 140 124
0.07570704072713852 0.009103982709348202 0.13699999451637268 127 137 121
0.07602918893098831 0.009103982709348202 0.13699999451637268 127 139 125
0.07635132968425751 0.009103982709348202 0.13699999451637268 127 129 115
0.0766734704375267 0.009103982709348202 0.13699999451637268 127 87 84
0.0769956111907959 0.009103982709348202 0.13699999451637268 127 93 90
0.0773177519440651 0.009103982709348202 0.13699999451637268 127 115 119
0.07763989269733429 0.009103982709348202 0.13699999451637268 127 126 130
0.07796203345060349 0.009103982709348202 0.13699999451637268 127 125 126
0.07828417420387268 0.009103982709348202 0.13699999451637268 127 132 133
0.07860631495714188 0.009103982709348202 0.13699999451637268 127 138 132
0.07892845571041107 0.009103982709348202 0.13699999451637268 127 138 132
0.07925059646368027 0.009103982709348202 0.13699999451637268 127 132 126
0.07899191230535507 0.009037530049681664 0.13600000739097595 127 130 124
0.07931170612573624 0.009037530049681664 0.13600000739097595 127 135 129
0.0796314924955368 0.009037530049681664 0.13600000739097595 127 131 125
0.07995127886533737 0.009037530049681664 0.13600000739097595 127 128 122
0.08027107268571854 0.009037530049681664 0.13600000739097595 127 126 120
0.0805908590555191 0.009037530049681664 0.13600000739097595 127 126 120
0.08091065287590027 0.009037530049681664 0.13600000739097595 127 123 117
0.08123043924570084 0.009037530049681664 0.13600000739097595 127 118 112
0.081550233066082 0.009037530049681664 0.13600000739097595 127 108 102
0.08187001943588257 0.009037530049681664 0.13600000739097595 127 96 98
0.08218980580568314 0.009037530049681664 0.13600000739097595 127 95 97
0.0825095996260643 0.009037530049681664 0.13600000739097595 127 95 102
0.08282938599586487 0.009037530049681664 0.13600000739097595 127 111 118
0.08314917981624603 0.009037530049681664 0.13600000739097595 127 123 127
0.0834689661860466 0.009037530049681664 0.13600000739097595 127 120 124
0.08378876000642776 0.009037530049681664 0.13600000739097595 127 127 123
0.08410854637622833 0.009037530049681664 0.13600000739097595 127 128 124
0.0844283327460289 0.009037530049681664 0.13600000739097595 127 135 125
0.08474812656641006 0.009037530049681664 0.13600000739097595 127 132 122
0.08506791293621063 0.009037530049681664 0.13600000739097595 127 129 118
0.0853877067565918 0.009037530049681664 0.13600000739097595 127 124 113
0.08633770048618317 0.009103982709348202 0.13699999451637268 127 119 112
0.08665984123945236 0.009103982709348202 0.13699999451637268 127 126 119
0.08698198199272156 0.009103982709348202 0.13699999451637268 127 98 98
0.08730412274599075 0.009103982709348202 0.13699999451637268 127 90 90
0.08762626349925995 0.009103982709348202 0.13699999451637268 127 106 109
0.08794840425252914 0.009103982709348202 0.13699999451637268 127 113 116
0.08827054500579834 0.009103982709348202 0.13699999451637268 127 110 113
0.08859268575906754 0.009103982709348202 0.13699999451637268 127 114 117
0.08891482651233673 0.009103982709348202 0.13699999451637268 127 121 122
0.08923696726560593 0.009103982709348202 0.13699999451637268 127 124 125
0.09021282196044922 0.00917043536901474 0.1379999965429306 127 126 125
0.09053731709718704 0.00917043536901474 0.1379999965429306 127 126 125
0.09086180478334427 0.00917043536901474 0.1379999965429306 127 129 127
0.09118629992008209 0.00917043536901474 0.1379999965429306 127 124 122
0.09151079505681992 0.00917043536901474 0.1379999965429306 127 124 121
0.09183528274297714 0.00917043536901474 0.1379999965429306 127 131 128
0.09215977787971497 0.00917043536901474 0.1379999965429306 127 121 113
0.09248427301645279 0.00917043536901474 0.1379999965429306 127 118 110
0.09348128736019135 0.009236887097358704 0.13899999856948853 127 110 100
0.0938081294298172 0.009236887097358704 0.13899999856948853 127 107 97
0.09413497895002365 0.009236887097358704 0.13899999856948853 127 103 93
0.0944618210196495 0.009236887097358704 0.13899999856948853 127 103 93
0.09478866308927536 0.009236887097358704 0.13899999856948853 127 107 100
0.09511550515890121 0.009236887097358704 0.13899999856948853 127 111 104
0.09544235467910767 0.009236887097358704 0.13899999856948853 127 108 104
0.09576919674873352 0.009236887097358704 0.13899999856948853 127 106 102
0.09609603881835938 0.009236887097358704 0.13899999856948853 127 104 97
0.09642288088798523 0.009236887097358704 0.13899999856948853 127 102 95
0.09674973040819168 0.009236887097358704 0.13899999856948853 127 103 94
0.09707657247781754 0.009236887097358704 0.13899999856948853 127 97 88
0.09740341454744339 0.009236887097358704 0.13899999856948853 127 78 74
0.09773025661706924 0.009236887097358704 0.13899999856948853 127 81 77
0.05493273586034775 0.01004535797983408 0.1459999978542328 127 87 83
0.055276039987802505 0.01004535797983408 0.1459999978542328 127 86 82
0.055619340389966965 0.01004535797983408 0.1459999978542328 127 83 79
0.05596264451742172 0.01004535797983408 0.1459999978542328 127 83 79
0.05669160559773445 0.010114162229001522 0.1469999998807907 127 87 84
0.05742526799440384 0.01018296554684639 0.14800000190734863 127 94 91
