0.013126091100275517 0.023294134065508842 0.1860000044107437 254 255 251
0.013563450425863266 0.023294134065508842 0.1860000044107437 254 255 251
0.014000809751451015 0.023294134065508842 0.1860000044107437 254 255 251
0.01436054427176714 0.02316889725625515 0.1850000023841858 254 255 251
0.014795552007853985 0.02316889725625515 0.1850000023841858 254 255 251
0.01523055974394083 0.02316889725625515 0.1850000023841858 254 255 251
0.015580888837575912 0.023043658584356308 0.18400000035762787 254 255 251
0.01601354591548443 0.023043658584356308 0.18400000035762787 254 255 251
0.016446202993392944 0.023043658584356308 0.18400000035762787 254 255 251
0.016787126660346985 0.022918421775102615 0.18299999833106995 254 255 251
0.017217431217432022 0.022918421775102615 0.18299999833106995 254 255 246
0.017551301047205925 0.022793184965848923 0.18199999630451202 255 255 247
0.017979254946112633 0.022793184965848923 0.18199999630451202 255 255 243
0.01830606907606125 0.02266794815659523 0.1809999942779541 255 255 243
0.018731672316789627 0.02266794815659523 0.1809999942779541 255 255 243
0.019157273694872856 0.02266794815659523 0.1809999942779541 255 255 243
0.019582876935601234 0.02266794815659523 0.1809999942779541 255 255 243
0.020008478313684464 0.02266794815659523 0.1809999942779541 255 255 243
0.020321184769272804 0.022542709484696388 0.18000000715255737 255 255 243
0.020744435489177704 0.022542709484696388 0.18000000715255737 255 255 243
0.021167688071727753 0.022542709484696388 0.18000000715255737 255 255 239
0.021590938791632652 0.022542709484696388 0.18000000715255737 255 255 239
0.022136490792036057 0.02266794815659523 0.1809999942779541 255 245 224
0.02243744023144245 0.022542709484696388 0.18000000715255737 215 179 158
0.02328394167125225 0.022542709484696388 0.18000000715255737 255 230 208
0.02383890002965927 0.02266794815659523 0.1809999942779541 255 247 231
0.0242645014077425 0.02266794815659523 0.1809999942779541 255 247 231
0.02469010464847088 0.02266794815659523 0.1809999942779541 255 250 241
0.025115706026554108 0.02266794815659523 0.1809999942779541 255 250 241
0.025541309267282486 0.02266794815659523 0.1809999942779541 255 251 245
0.025966910645365715 0.02266794815659523 0.1809999942779541 255 251 245
0.026392513886094093 0.02266794815659523 0.1809999942779541 255 249 245
0.026818115264177322 0.02266794815659523 0.1809999942779541 255 249 245
0.0272437185049057 0.02266794815659523 0.1809999942779541 255 237 226
0.02766931988298893 0.02266794815659523 0.1809999942779541 244 218 207
0.028094923123717308 0.02266794815659523 0.1809999942779541 255 250 233
0.028520524501800537 0.02266794815659523 0.1809999942779541 255 252 235
0.028946127742528915 0.02266794815659523 0.1809999942779541 255 255 241
0.029371729120612144 0.02266794815659523 0.1809999942779541 255 255 241
0.029797332361340523 0.02266794815659523 0.1809999942779541 255 255 247
0.030222933739423752 0.02266794815659523 0.1809999942779541 255 255 247
0.03064853698015213 0.02266794815659523 0.1809999942779541 255 255 247
0.031245820224285126 0.022793184965848923 0.18199999630451202 255 255 247
0.031673774123191833 0.022793184965848923 0.18199999630451202 255 255 247
0.03210172802209854 0.022793184965848923 0.18199999630451202 255 255 247
0.032708413898944855 0.022918421775102615 0.18299999833106995 255 255 241
0.03313871845602989 0.022918421775102615 0.18299999833106995 255 255 241
0.03375246375799179 0.023043658584356308 0.18400000035762787 240 208 186
0.03418511897325516 0.023043658584356308 0.18400000035762787 153 121 99
0.034617774188518524 0.023043658584356308 0.18400000035762787 229 183 165
0.03505043312907219 0.023043658584356308 0.18400000035762787 255 225 207
0.035483088344335556 0.023043658584356308 0.18400000035762787 255 252 239
0.03591574355959892 0.023043658584356308 0.18400000035762787 255 252 239
0.036545947194099426 0.02316889725625515 0.1850000023841858 255 255 247
0.03698095679283142 0.02316889725625515 0.1850000023841858 255 255 247
0.03741596266627312 0.02316889725625515 0.1850000023841858 255 255 249
0.03785097226500511 0.02316889725625515 0.1850000023841858 255 255 249
0.03849292919039726 0.023294134065508842 0.1860000044107437 255 255 249
0.04001901298761368 0.023419370874762535 0.18700000643730164 219 194 187
0.04045872390270233 0.023419370874762535 0.18700000643730164 234 188 170
0.040898434817790985 0.023419370874762535 0.18700000643730164 255 214 196
0.04133814573287964 0.023419370874762535 0.18700000643730164 255 223 198
0.04177785664796829 0.023419370874762535 0.18700000643730164 255 243 218
0.042217567563056946 0.023419370874762535 0.18700000643730164 255 253 235
0.042885392904281616 0.023544607684016228 0.18799999356269836 255 253 235
0.043557919561862946 0.02366984635591507 0.1889999955892563 255 253 239
0.04400233179330826 0.02366984635591507 0.1889999955892563 255 246 232
0.04444674402475357 0.02366984635591507 0.1889999955892563 250 232 223
0.045128677040338516 0.023795083165168762 0.1899999976158142 244 226 217
0.04605518653988838 0.024045556783676147 0.19200000166893005 255 241 237
0.046748872846364975 0.02417079545557499 0.19300000369548798 255 244 240
0.047447267919778824 0.024296032264828682 0.1940000057220459 255 252 245
0.04815036430954933 0.024421269074082375 0.19499999284744263 255 252 245
0.0488581620156765 0.024546505883336067 0.19599999487400055 255 244 242
0.049570661038160324 0.02467174455523491 0.19699999690055847 255 237 235
0.05028786510229111 0.0247969813644886 0.1979999989271164 255 248 244
0.05075344070792198 0.0247969813644886 0.1979999989271164 255 249 245
0.05147770047187805 0.024922218173742294 0.19900000095367432 255 253 247
0.05220666155219078 0.025047456845641136 0.20000000298023224 255 252 246
0.05294032394886017 0.02517269365489483 0.20100000500679016 255 246 248
0.05341295525431633 0.02517269365489483 0.20100000500679016 245 221 223
0.054153669625520706 0.02529793046414852 0.20200000703334808 232 175 186
0.05489909276366234 0.025423167273402214 0.2029999941587448 241 184 195
0.005507831461727619 0.02487979084253311 0.19499999284744263 255 255 197
0.005935756489634514 0.02475220337510109 0.1940000057220459 255 255 195
0.006391926668584347 0.02475220337510109 0.1940000057220459 255 255 231
0.006812797859311104 0.024624614045023918 0.19300000369548798 255 255 231
0.007228965871036053 0.024497024714946747 0.19200000166893005 254 255 245
0.007640431635081768 0.024369437247514725 0.19099999964237213 254 255 245
0.008089547976851463 0.024369437247514725 0.19099999964237213 254 255 249
0.008493958972394466 0.024241847917437553 0.1899999976158142 254 255 249
0.008893667720258236 0.024114258587360382 0.1889999955892563 254 255 249
0.009288673289120197 0.02398667111992836 0.18799999356269836 254 255 249
0.00973073486238718 0.02398667111992836 0.18799999356269836 254 255 249
0.010172797366976738 0.02398667111992836 0.18799999356269836 254 255 249
0.010558397509157658 0.02385908178985119 0.18700000643730164 254 255 251
0.010998107492923737 0.02385908178985119 0.18700000643730164 254 255 251
0.01143781840801239 0.02385908178985119 0.18700000643730164 254 255 251
0.011814013123512268 0.023731492459774017 0.1860000044107437 254 255 251
0.012251372449100018 0.023731492459774017 0.1860000044107437 254 255 251
0.012688731774687767 0.023731492459774017 0.1860000044107437 254 255 251
0.013126091100275517 0.023731492459774017 0.1860000044107437 254 255 251
0.013563450425863266 0.023731492459774017 0.1860000044107437 254 255 251
0.014000809751451015 0.023731492459774017 0.1860000044107437 254 255 251
0.01436054427176714 0.023603904992341995 0.1850000023841858 254 255 251
0.014795552007853985 0.023603904992341995 0.1850000023841858 254 255 251
0.01523055974394083 0.023603904992341995 0.1850000023841858 254 255 251
0.015580888837575912 0.023476315662264824 0.18400000035762787 254 255 251
0.01601354591548443 0.023476315662264824 0.18400000035762787 254 255 251
0.0163568202406168 0.023348728194832802 0.18299999833106995 254 255 251
0.016787126660346985 0.023348728194832802 0.18299999833106995 254 255 251
0.017217431217432022 0.023348728194832802 0.18299999833106995 254 255 251
0.017551301047205925 0.02322113886475563 0.18199999630451202 254 255 251
0.017979254946112633 0.02322113886475563 0.18199999630451202 254 255 249
0.01830606907606125 0.02309354953467846 0.1809999942779541 254 255 249
0.018731672316789627 0.02309354953467846 0.1809999942779541 254 255 249
0.019157273694872856 0.02309354953467846 0.1809999942779541 254 255 249
0.019582876935601234 0.02309354953467846 0.1809999942779541 254 255 249
0.019897934049367905 0.022965962067246437 0.18000000715255737 254 255 249
0.020321184769272804 0.022965962067246437 0.18000000715255737 254 255 249
0.020744435489177704 0.022965962067246437 0.18000000715255737 254 255 249
0.021167688071727753 0.022965962067246437 0.18000000715255737 254 255 247
0.021590938791632652 0.022965962067246437 0.18000000715255737 254 255 247
0.022014189511537552 0.022965962067246437 0.18000000715255737 255 253 235
0.02243744023144245 0.022965962067246437 0.18000000715255737 232 220 202
0.02286069095134735 0.022965962067246437 0.18000000715255737 255 244 224
0.02328394167125225 0.022965962067246437 0.18000000715255737 255 251 231
0.02370719239115715 0.022965962067246437 0.18000000715255737 255 253 240
0.02413044311106205 0.022965962067246437 0.18000000715255737 255 253 240
0.02469010464847088 0.02309354953467846 0.1809999942779541 255 254 245
0.025115706026554108 0.02309354953467846 0.1809999942779541 255 254 245
0.025541309267282486 0.02309354953467846 0.1809999942779541 255 254 249
0.025966910645365715 0.02309354953467846 0.1809999942779541 255 254 249
0.026392513886094093 0.02309354953467846 0.1809999942779541 255 254 249
0.026818115264177322 0.02309354953467846 0.1809999942779541 255 254 249
0.0272437185049057 0.02309354953467846 0.1809999942779541 255 253 244
0.02766931988298893 0.02309354953467846 0.1809999942779541 255 254 245
0.028094923123717308 0.02309354953467846 0.1809999942779541 254 255 242
0.028520524501800537 0.02309354953467846 0.1809999942779541 255 255 243
0.028946127742528915 0.02309354953467846 0.1809999942779541 254 255 247
0.029371729120612144 0.02309354953467846 0.1809999942779541 254 255 247
0.029797332361340523 0.02309354953467846 0.1809999942779541 254 255 249
0.030222933739423752 0.02309354953467846 0.1809999942779541 254 255 249
0.03064853698015213 0.02309354953467846 0.1809999942779541 254 255 249
0.03107413835823536 0.02309354953467846 0.1809999942779541 254 255 249
0.031673774123191833 0.02322113886475563 0.18199999630451202 254 255 249
0.03210172802209854 0.02322113886475563 0.18199999630451202 254 255 249
0.03252968192100525 0.02322113886475563 0.18199999630451202 255 255 245
0.03313871845602989 0.023348728194832802 0.18299999833106995 255 255 245
0.03356902673840523 0.023348728194832802 0.18299999833106995 255 250 231
0.033999331295490265 0.023348728194832802 0.18299999833106995 244 237 218
0.0344296358525753 0.023348728194832802 0.18299999833106995 255 251 232
0.03485994040966034 0.023348728194832802 0.18299999833106995 255 252 233
0.03529024496674538 0.023348728194832802 0.18299999833106995 255 255 245
0.035720549523830414 0.023348728194832802 0.18299999833106995 255 255 245
0.03615085408091545 0.023348728194832802 0.18299999833106995 254 255 249
0.03658116236329079 0.023348728194832802 0.18299999833106995 254 255 249
0.037011466920375824 0.023348728194832802 0.18299999833106995 254 255 249
0.03744177147746086 0.023348728194832802 0.18299999833106995 254 255 249
0.03807902708649635 0.023476315662264824 0.18400000035762787 254 255 251
0.03851168230175972 0.023476315662264824 0.18400000035762787 254 255 251
0.0391559936106205 0.023603904992341995 0.1850000023841858 255 254 241
0.03959100320935249 0.023603904992341995 0.1850000023841858 248 242 229
0.04024236649274826 0.023731492459774017 0.1860000044107437 255 237 217
0.040679726749658585 0.023731492459774017 0.1860000044107437 250 232 212
0.04133814573287964 0.02385908178985119 0.18700000643730164 255 251 229
0.04177785664796829 0.02385908178985119 0.18700000643730164 255 253 231
0.042217567563056946 0.02385908178985119 0.18700000643730164 255 255 239
0.042885392904281616 0.02398667111992836 0.18799999356269836 255 255 239
0.043557919561862946 0.024114258587360382 0.1889999955892563 255 255 245
0.04400233179330826 0.024114258587360382 0.1889999955892563 255 255 245
0.04444674402475357 0.024114258587360382 0.1889999955892563 255 252 245
0.045128677040338516 0.024241847917437553 0.1899999976158142 255 250 243
0.04605518653988838 0.024497024714946747 0.19200000166893005 255 252 247
0.046748872846364975 0.024624614045023918 0.19300000369548798 255 252 247
0.047447267919778824 0.02475220337510109 0.1940000057220459 255 252 249
0.04815036430954933 0.02487979084253311 0.19499999284744263 255 252 249
0.04860888421535492 0.02487979084253311 0.19499999284744263 255 246 246
0.049067407846450806 0.02487979084253311 0.19499999284744263 237 220 220
0.04977990686893463 0.025007380172610283 0.19599999487400055 255 244 246
0.050497110933065414 0.025134969502687454 0.19699999690055847 255 249 251
0.051219016313552856 0.025262556970119476 0.1979999989271164 255 253 249
0.051945626735687256 0.025390146300196648 0.19900000095367432 255 253 249
0.052676938474178314 0.02551773563027382 0.20000000298023224 255 250 249
0.053147219121456146 0.02551773563027382 0.20000000298023224 255 245 244
0.05388558283448219 0.02564532309770584 0.20100000500679016 235 180 188
0.0546286515891552 0.025772912427783012 0.20200000703334808 233 178 186
0.005479585845023394 0.025208372622728348 0.1940000057220459 255 255 196
0.005935756489634514 0.025208372622728348 0.1940000057220459 255 255 196
0.006391926668584347 0.025208372622728348 0.1940000057220459 255 255 231
0.006812797859311104 0.025078432634472847 0.19300000369548798 255 255 231
0.007228965871036053 0.024948492646217346 0.19200000166893005 254 255 247
0.007640431635081768 0.024818552657961845 0.19099999964237213 254 255 247
0.008089547976851463 0.024818552657961845 0.19099999964237213 254 255 249
0.008493958972394466 0.024688612669706345 0.1899999976158142 254 255 249
0.008893667720258236 0.024558672681450844 0.1889999955892563 254 255 251
0.009288673289120197 0.024428732693195343 0.18799999356269836 254 255 251
0.00973073486238718 0.024428732693195343 0.18799999356269836 254 255 251
0.010118686594069004 0.024298792704939842 0.18700000643730164 254 255 251
0.010558397509157658 0.024298792704939842 0.18700000643730164 254 255 251
0.010998107492923737 0.024298792704939842 0.18700000643730164 254 255 251
0.01143781840801239 0.024298792704939842 0.18700000643730164 254 255 251
0.011877529323101044 0.024298792704939842 0.18700000643730164 254 255 251
0.012251372449100018 0.02416885271668434 0.1860000044107437 254 255 251
0.012688731774687767 0.02416885271668434 0.1860000044107437 254 255 251
0.013126091100275517 0.02416885271668434 0.1860000044107437 254 255 251
0.013563450425863266 0.02416885271668434 0.1860000044107437 254 255 251
0.014000809751451015 0.02416885271668434 0.1860000044107437 254 255 251
0.01436054427176714 0.02403891272842884 0.1850000023841858 254 255 251
0.014795552007853985 0.02403891272842884 0.1850000023841858 254 255 251
0.015148232690989971 0.02390897274017334 0.18400000035762787 254 255 251
0.015580888837575912 0.02390897274017334 0.18400000035762787 254 255 251
0.01601354591548443 0.02390897274017334 0.18400000035762787 254 255 251
0.0163568202406168 0.02377903275191784 0.18299999833106995 254 255 251
0.016787126660346985 0.02377903275191784 0.18299999833106995 254 255 251
0.017217431217432022 0.02377903275191784 0.18299999833106995 254 255 251
0.017551301047205925 0.023649092763662338 0.18199999630451202 254 255 251
0.017979254946112633 0.023649092763662338 0.18199999630451202 254 255 251
0.01830606907606125 0.023519152775406837 0.1809999942779541 254 255 251
0.018731672316789627 0.023519152775406837 0.1809999942779541 254 255 251
0.019157273694872856 0.023519152775406837 0.1809999942779541 254 255 251
0.019582876935601234 0.023519152775406837 0.1809999942779541 254 255 251
0.019897934049367905 0.023389212787151337 0.18000000715255737 254 255 251
0.020321184769272804 0.023389212787151337 0.18000000715255737 254 255 251
0.020744435489177704 0.023389212787151337 0.18000000715255737 254 255 251
0.021167688071727753 0.023389212787151337 0.18000000715255737 254 255 251
0.021590938791632652 0.023389212787151337 0.18000000715255737 254 255 251
0.022014189511537552 0.023389212787151337 0.18000000715255737 253 255 244
0.02243744023144245 0.023389212787151337 0.18000000715255737 253 255 244
0.02286069095134735 0.023389212787151337 0.18000000715255737 255 254 242
0.02328394167125225 0.023389212787151337 0.18000000715255737 255 255 243
0.02370719239115715 0.023389212787151337 0.18000000715255737 255 255 245
0.02413044311106205 0.023389212787151337 0.18000000715255737 255 255 245
0.02455369383096695 0.023389212787151337 0.18000000715255737 255 255 249
0.024976946413517 0.023389212787151337 0.18000000715255737 255 255 249
0.025400197133421898 0.023389212787151337 0.18000000715255737 255 255 249
0.025823447853326797 0.023389212787151337 0.18000000715255737 255 255 249
0.026392513886094093 0.023519152775406837 0.1809999942779541 255 255 249
0.026818115264177322 0.023519152775406837 0.1809999942779541 255 255 249
0.0272437185049057 0.023519152775406837 0.1809999942779541 254 255 249
0.02766931988298893 0.023519152775406837 0.1809999942779541 254 255 249
0.028094923123717308 0.023519152775406837 0.1809999942779541 254 255 249
0.028520524501800537 0.023519152775406837 0.1809999942779541 254 255 249
0.028946127742528915 0.023519152775406837 0.1809999942779541 254 255 249
0.029371729120612144 0.023519152775406837 0.1809999942779541 254 255 249
0.029797332361340523 0.023519152775406837 0.1809999942779541 254 255 249
0.030222933739423752 0.023519152775406837 0.1809999942779541 254 255 249
0.03064853698015213 0.023519152775406837 0.1809999942779541 254 255 249
0.03107413835823536 0.023519152775406837 0.1809999942779541 254 255 249
0.031673774123191833 0.023649092763662338 0.18199999630451202 254 255 249
0.03210172802209854 0.023649092763662338 0.18199999630451202 254 255 249
0.03252968192100525 0.023649092763662338 0.18199999630451202 254 255 249
0.03295763581991196 0.023649092763662338 0.18199999630451202 254 255 249
0.033385589718818665 0.023649092763662338 0.18199999630451202 253 255 244
0.033813539892435074 0.023649092763662338 0.18199999630451202 253 255 244
0.03424149379134178 0.023649092763662338 0.18199999630451202 255 255 243
0.03466944769024849 0.023649092763662338 0.18199999630451202 255 255 243
0.0350974015891552 0.023649092763662338 0.18199999630451202 254 255 247
0.035525355488061905 0.023649092763662338 0.18199999630451202 254 255 247
0.03595330938696861 0.023649092763662338 0.18199999630451202 254 255 249
0.03638126328587532 0.023649092763662338 0.18199999630451202 254 255 249
0.03680921718478203 0.023649092763662338 0.18199999630451202 254 255 251
0.03744177147746086 0.02377903275191784 0.18299999833106995 254 255 251
0.0378720760345459 0.02377903275191784 0.18299999833106995 254 255 251
0.038302380591630936 0.02377903275191784 0.18299999833106995 254 255 251
0.038944341242313385 0.02390897274017334 0.18400000035762787 253 255 246
0.03937699645757675 0.02390897274017334 0.18400000035762787 235 237 228
0.04002600908279419 0.02403891272842884 0.1850000023841858 247 244 230
0.040679726749658585 0.02416885271668434 0.1860000044107437 248 245 231
0.04111708700656891 0.02416885271668434 0.1860000044107437 255 255 240
0.041554443538188934 0.02416885271668434 0.1860000044107437 255 255 241
0.042217567563056946 0.024298792704939842 0.18700000643730164 254 255 247
0.042885392904281616 0.024428732693195343 0.18799999356269836 254 255 247
0.0433274544775486 0.024428732693195343 0.18799999356269836 254 255 249
0.04400233179330826 0.024558672681450844 0.1889999955892563 254 255 249
0.04444674402475357 0.024558672681450844 0.1889999955892563 255 253 249
0.04489115998148918 0.024558672681450844 0.1889999955892563 247 242 238
0.04557544365525246 0.024688612669706345 0.1899999976158142 245 237 236
0.04626442864537239 0.024818552657961845 0.19099999964237213 255 249 248
0.0472026951611042 0.025078432634472847 0.19300000369548798 255 254 251
0.04765651375055313 0.025078432634472847 0.19300000369548798 255 254 251
0.04860888421535492 0.02533831261098385 0.19499999284744263 255 249 249
0.049067407846450806 0.02533831261098385 0.19499999284744263 242 230 230
0.04977990686893463 0.02546825259923935 0.19599999487400055 253 238 239
0.050497110933065414 0.02559819258749485 0.19699999690055847 255 250 251
0.051219016313552856 0.02572813257575035 0.1979999989271164 254 249 247
0.051945626735687256 0.025858072564005852 0.19900000095367432 254 249 247
0.052676938474178314 0.025988014414906502 0.20000000298023224 255 249 246
0.053147219121456146 0.025988014414906502 0.20000000298023224 255 251 248
0.05388558283448219 0.026117954403162003 0.20100000500679016 255 216 222
0.0546286515891552 0.026247894391417503 0.20200000703334808 223 175 181
0.005479585845023394 0.025664543733000755 0.1940000057220459 255 255 196
0.005935756489634514 0.025664543733000755 0.1940000057220459 255 255 198
0.006358978804200888 0.025532251223921776 0.19300000369548798 254 255 230
0.006812797859311104 0.025532251223921776 0.19300000369548798 255 255 231
0.007228965871036053 0.025399960577487946 0.19200000166893005 254 255 245
0.007640431635081768 0.025267669931054115 0.19099999964237213 254 255 245
0.008047194220125675 0.025135377421975136 0.1899999976158142 254 255 249
0.008449253626167774 0.025003086775541306 0.1889999955892563 254 255 249
0.008893667720258236 0.025003086775541306 0.1889999955892563 254 255 249
0.009288673289120197 0.024870794266462326 0.18799999356269836 254 255 249
0.00973073486238718 0.024870794266462326 0.18799999356269836 254 255 251
0.010118686594069004 0.024738503620028496 0.18700000643730164 254 255 251
0.010558397509157658 0.024738503620028496 0.18700000643730164 254 255 251
0.010998107492923737 0.024738503620028496 0.18700000643730164 254 255 251
0.01143781840801239 0.024738503620028496 0.18700000643730164 254 255 251
0.011814013123512268 0.024606211110949516 0.1860000044107437 254 255 251
0.012251372449100018 0.024606211110949516 0.1860000044107437 254 255 251
0.012688731774687767 0.024606211110949516 0.1860000044107437 254 255 251
0.013126091100275517 0.024606211110949516 0.1860000044107437 254 255 251
0.013563450425863266 0.024606211110949516 0.1860000044107437 254 255 251
0.014000809751451015 0.024606211110949516 0.1860000044107437 254 255 251
0.01436054427176714 0.024473920464515686 0.1850000023841858 254 255 251
0.014795552007853985 0.024473920464515686 0.1850000023841858 254 255 251
0.015148232690989971 0.024341629818081856 0.18400000035762787 254 255 251
0.015580888837575912 0.024341629818081856 0.18400000035762787 254 255 251
0.01601354591548443 0.024341629818081856 0.18400000035762787 254 255 251
0.0163568202406168 0.024209337309002876 0.18299999833106995 254 255 251
0.016787126660346985 0.024209337309002876 0.18299999833106995 254 255 251
0.017217431217432022 0.024209337309002876 0.18299999833106995 254 255 251
0.017551301047205925 0.024077046662569046 0.18199999630451202 254 255 251
0.017979254946112633 0.024077046662569046 0.18199999630451202 254 255 251
0.01830606907606125 0.023944754153490067 0.1809999942779541 254 255 251
0.018731672316789627 0.023944754153490067 0.1809999942779541 254 255 251
0.019157273694872856 0.023944754153490067 0.1809999942779541 254 255 251
0.019582876935601234 0.023944754153490067 0.1809999942779541 254 255 251
0.019897934049367905 0.023812463507056236 0.18000000715255737 254 255 251
0.020321184769272804 0.023812463507056236 0.18000000715255737 254 255 251
0.020744435489177704 0.023812463507056236 0.18000000715255737 254 255 251
0.021167688071727753 0.023812463507056236 0.18000000715255737 254 255 251
0.021590938791632652 0.023812463507056236 0.18000000715255737 254 255 251
0.022014189511537552 0.023812463507056236 0.18000000715255737 254 255 251
0.02243744023144245 0.023812463507056236 0.18000000715255737 254 255 251
0.02286069095134735 0.023812463507056236 0.18000000715255737 254 255 249
0.02328394167125225 0.023812463507056236 0.18000000715255737 254 255 249
0.02370719239115715 0.023812463507056236 0.18000000715255737 254 255 249
0.02413044311106205 0.023812463507056236 0.18000000715255737 254 255 249
0.02455369383096695 0.023812463507056236 0.18000000715255737 254 255 249
0.024976946413517 0.023812463507056236 0.18000000715255737 254 255 249
0.025400197133421898 0.023812463507056236 0.18000000715255737 254 255 249
0.025823447853326797 0.023812463507056236 0.18000000715255737 254 255 249
0.026246698573231697 0.023812463507056236 0.18000000715255737 254 255 249
0.026818115264177322 0.023944754153490067 0.1809999942779541 254 255 249
0.0272437185049057 0.023944754153490067 0.1809999942779541 254 255 249
0.02766931988298893 0.023944754153490067 0.1809999942779541 254 255 249
0.028094923123717308 0.023944754153490067 0.1809999942779541 254 255 249
0.028520524501800537 0.023944754153490067 0.1809999942779541 254 255 249
0.028946127742528915 0.023944754153490067 0.1809999942779541 254 255 249
0.029371729120612144 0.023944754153490067 0.1809999942779541 254 255 249
0.029797332361340523 0.023944754153490067 0.1809999942779541 254 255 249
0.030222933739423752 0.023944754153490067 0.1809999942779541 254 255 249
0.03064853698015213 0.023944754153490067 0.1809999942779541 254 255 249
0.031245820224285126 0.024077046662569046 0.18199999630451202 254 255 249
0.031673774123191833 0.024077046662569046 0.18199999630451202 254 255 249
0.03210172802209854 0.024077046662569046 0.18199999630451202 254 255 249
0.03252968192100525 0.024077046662569046 0.18199999630451202 254 255 249
0.03295763581991196 0.024077046662569046 0.18199999630451202 254 255 249
0.033385589718818665 0.024077046662569046 0.18199999630451202 254 255 249
0.033813539892435074 0.024077046662569046 0.18199999630451202 254 255 249
0.03424149379134178 0.024077046662569046 0.18199999630451202 254 255 249
0.03466944769024849 0.024077046662569046 0.18199999630451202 254 255 249
0.0350974015891552 0.024077046662569046 0.18199999630451202 254 255 249
0.035525355488061905 0.024077046662569046 0.18199999630451202 254 255 249
0.03595330938696861 0.024077046662569046 0.18199999630451202 254 255 249
0.03638126328587532 0.024077046662569046 0.18199999630451202 254 255 249
0.03680921718478203 0.024077046662569046 0.18199999630451202 254 255 249
0.03744177147746086 0.024209337309002876 0.18299999833106995 254 255 249
0.0378720760345459 0.024209337309002876 0.18299999833106995 254 255 249
0.038302380591630936 0.024209337309002876 0.18299999833106995 254 255 249
0.038944341242313385 0.024341629818081856 0.18400000035762787 254 255 249
0.03937699645757675 0.024341629818081856 0.18400000035762787 252 253 247
0.04002600908279419 0.024473920464515686 0.1850000023841858 253 254 248
0.040461018681526184 0.024473920464515686 0.1850000023841858 253 254 248
0.04111708700656891 0.024606211110949516 0.1860000044107437 254 255 247
0.041554443538188934 0.024606211110949516 0.1860000044107437 254 255 247
0.04199180379509926 0.024606211110949516 0.1860000044107437 254 255 249
0.0426572784781456 0.024738503620028496 0.18700000643730164 254 255 249
0.04309698939323425 0.024738503620028496 0.18700000643730164 254 255 249
0.04376951605081558 0.024870794266462326 0.18799999356269836 254 255 249
0.044211577624082565 0.024870794266462326 0.18799999356269836 255 255 251
0.04465363919734955 0.024870794266462326 0.18799999356269836 233 233 229
0.045335572212934494 0.025003086775541306 0.1889999955892563 227 222 220
0.0460222065448761 0.025135377421975136 0.1899999976158142 255 253 251
0.04671354591846466 0.025267669931054115 0.19099999964237213 255 254 251
0.04740958660840988 0.025399960577487946 0.19200000166893005 255 254 251
0.04811033234000206 0.025532251223921776 0.19300000369548798 249 241 240
0.0488157793879509 0.025664543733000755 0.1940000057220459 239 231 230
0.04952592775225639 0.025796834379434586 0.19499999284744263 249 234 235
0.05024078115820885 0.025929126888513565 0.19599999487400055 255 246 247
0.05096033588051796 0.026061417534947395 0.19699999690055847 255 252 250
0.05168459191918373 0.026193710044026375 0.1979999989271164 255 252 250
0.05241355299949646 0.026326000690460205 0.19900000095367432 255 251 251
0.053147219121456146 0.026458293199539185 0.20000000298023224 255 251 251
0.05361749604344368 0.026458293199539185 0.20000000298023224 255 227 233
0.054358214139938354 0.026590583845973015 0.20100000500679016 224 181 187
0.005479585845023394 0.026120714843273163 0.1940000057220459 255 255 195
0.005935756489634514 0.026120714843273163 0.1940000057220459 255 255 197
0.006358978804200888 0.025986071676015854 0.19300000369548798 254 255 224
0.006812797859311104 0.025986071676015854 0.19300000369548798 255 255 225
0.007228965871036053 0.025851428508758545 0.19200000166893005 254 255 241
0.007640431635081768 0.025716785341501236 0.19099999964237213 254 255 241
0.008047194220125675 0.025582142174243927 0.1899999976158142 254 255 247
0.008449253626167774 0.025447499006986618 0.1889999955892563 254 255 247
0.008893667720258236 0.025447499006986618 0.1889999955892563 254 255 249
0.009288673289120197 0.02531285770237446 0.18799999356269836 254 255 249
0.00973073486238718 0.02531285770237446 0.18799999356269836 254 255 249
0.010118686594069004 0.02517821453511715 0.18700000643730164 254 255 249
0.010558397509157658 0.02517821453511715 0.18700000643730164 254 255 251
0.010998107492923737 0.02517821453511715 0.18700000643730164 254 255 251
0.01143781840801239 0.02517821453511715 0.18700000643730164 254 255 251
0.011814013123512268 0.02504357136785984 0.1860000044107437 254 255 251
0.012251372449100018 0.02504357136785984 0.1860000044107437 254 255 251
0.012688731774687767 0.02504357136785984 0.1860000044107437 254 255 251
0.013126091100275517 0.02504357136785984 0.1860000044107437 254 255 251
0.013563450425863266 0.02504357136785984 0.1860000044107437 254 255 251
0.014000809751451015 0.02504357136785984 0.1860000044107437 254 255 251
0.01436054427176714 0.02490892820060253 0.1850000023841858 254 255 251
0.014795552007853985 0.02490892820060253 0.1850000023841858 254 255 251
0.015148232690989971 0.024774285033345222 0.18400000035762787 254 255 251
0.015580888837575912 0.024774285033345222 0.18400000035762787 254 255 251
0.01601354591548443 0.024774285033345222 0.18400000035762787 254 255 251
0.0163568202406168 0.024639641866087914 0.18299999833106995 254 255 251
0.016787126660346985 0.024639641866087914 0.18299999833106995 254 255 251
0.017217431217432022 0.024639641866087914 0.18299999833106995 254 255 251
0.017551301047205925 0.024505000561475754 0.18199999630451202 254 255 251
0.017979254946112633 0.024505000561475754 0.18199999630451202 254 255 251
0.01830606907606125 0.024370357394218445 0.1809999942779541 254 255 251
0.018731672316789627 0.024370357394218445 0.1809999942779541 254 255 251
0.019157273694872856 0.024370357394218445 0.1809999942779541 254 255 251
0.019582876935601234 0.024370357394218445 0.1809999942779541 254 255 251
0.019897934049367905 0.024235714226961136 0.18000000715255737 254 255 251
0.020321184769272804 0.024235714226961136 0.18000000715255737 254 255 251
0.020744435489177704 0.024235714226961136 0.18000000715255737 254 255 251
0.021167688071727753 0.024235714226961136 0.18000000715255737 254 255 251
0.021590938791632652 0.024235714226961136 0.18000000715255737 254 255 251
0.022014189511537552 0.024235714226961136 0.18000000715255737 254 255 251
0.02243744023144245 0.024235714226961136 0.18000000715255737 253 254 250
0.02286069095134735 0.024235714226961136 0.18000000715255737 254 255 251
0.02328394167125225 0.024235714226961136 0.18000000715255737 254 255 251
0.02370719239115715 0.024235714226961136 0.18000000715255737 254 255 251
0.02413044311106205 0.024235714226961136 0.18000000715255737 254 255 251
0.02455369383096695 0.024235714226961136 0.18000000715255737 254 255 251
0.024976946413517 0.024235714226961136 0.18000000715255737 254 255 251
0.025400197133421898 0.024235714226961136 0.18000000715255737 254 255 251
0.025823447853326797 0.024235714226961136 0.18000000715255737 254 255 251
0.026246698573231697 0.024235714226961136 0.18000000715255737 254 255 251
0.026669949293136597 0.024235714226961136 0.18000000715255737 254 255 251
0.0272437185049057 0.024370357394218445 0.1809999942779541 254 255 251
0.02766931988298893 0.024370357394218445 0.1809999942779541 254 255 251
0.028094923123717308 0.024370357394218445 0.1809999942779541 254 255 251
0.028520524501800537 0.024370357394218445 0.1809999942779541 254 255 251
0.028946127742528915 0.024370357394218445 0.1809999942779541 254 255 251
0.029371729120612144 0.024370357394218445 0.1809999942779541 254 255 251
0.029797332361340523 0.024370357394218445 0.1809999942779541 254 255 251
0.030222933739423752 0.024370357394218445 0.1809999942779541 254 255 251
0.030817866325378418 0.024505000561475754 0.18199999630451202 254 255 251
0.031245820224285126 0.024505000561475754 0.18199999630451202 254 255 251
0.031673774123191833 0.024505000561475754 0.18199999630451202 254 255 251
0.03210172802209854 0.024505000561475754 0.18199999630451202 254 255 251
0.03252968192100525 0.024505000561475754 0.18199999630451202 254 255 251
0.03295763581991196 0.024505000561475754 0.18199999630451202 254 255 251
0.033385589718818665 0.024505000561475754 0.18199999630451202 254 255 251
0.033813539892435074 0.024505000561475754 0.18199999630451202 254 255 251
0.03424149379134178 0.024505000561475754 0.18199999630451202 254 255 251
0.03466944769024849 0.024505000561475754 0.18199999630451202 254 255 251
0.0350974015891552 0.024505000561475754 0.18199999630451202 254 255 251
0.035525355488061905 0.024505000561475754 0.18199999630451202 254 255 251
0.03595330938696861 0.024505000561475754 0.18199999630451202 254 255 251
0.03638126328587532 0.024505000561475754 0.18199999630451202 254 255 251
0.03680921718478203 0.024505000561475754 0.18199999630451202 254 255 251
0.03744177147746086 0.024639641866087914 0.18299999833106995 254 255 251
0.0378720760345459 0.024639641866087914 0.18299999833106995 254 255 251
0.038302380591630936 0.024639641866087914 0.18299999833106995 254 255 251
0.038944341242313385 0.024774285033345222 0.18400000035762787 254 255 251
0.03937699645757675 0.024774285033345222 0.18400000035762787 253 254 250
0.04002600908279419 0.02490892820060253 0.1850000023841858 253 254 248
0.040461018681526184 0.02490892820060253 0.1850000023841858 254 255 249
0.04111708700656891 0.02504357136785984 0.1860000044107437 254 255 249
0.041554443538188934 0.02504357136785984 0.1860000044107437 254 255 249
0.04199180379509926 0.02504357136785984 0.1860000044107437 254 255 251
0.04242916405200958 0.02504357136785984 0.1860000044107437 254 255 251
0.04309698939323425 0.02517821453511715 0.18700000643730164 254 255 251
0.043536700308322906 0.02517821453511715 0.18700000643730164 254 255 251
0.04397641122341156 0.02517821453511715 0.18700000643730164 255 255 251
0.04465363919734955 0.02531285770237446 0.18799999356269836 247 247 243
0.045335572212934494 0.025447499006986618 0.1889999955892563 225 222 219
0.045779984444379807 0.025447499006986618 0.1889999955892563 255 254 251
0.04646897315979004 0.025582142174243927 0.1899999976158142 255 254 251
0.04740958660840988 0.025851428508758545 0.19200000166893005 255 254 251
0.04811033234000206 0.025986071676015854 0.19300000369548798 255 253 251
0.0488157793879509 0.026120714843273163 0.1940000057220459 242 237 235
0.04952592775225639 0.026255356147885323 0.19499999284744263 244 232 232
0.05024078115820885 0.02638999931514263 0.19599999487400055 246 234 234
0.05096033588051796 0.02652464248239994 0.19699999690055847 255 249 250
0.051423560827970505 0.02652464248239994 0.19699999690055847 255 249 250
0.052150171250104904 0.02665928564965725 0.1979999989271164 255 247 254
0.05288148298859596 0.02679392881691456 0.19900000095367432 254 233 240
0.05361749604344368 0.026928571984171867 0.20000000298023224 255 216 226
0.05408777669072151 0.026928571984171867 0.20000000298023224 242 201 211
0.005479585845023394 0.02657688409090042 0.1940000057220459 255 255 190
0.005935756489634514 0.02657688409090042 0.1940000057220459 255 255 192
0.006358978804200888 0.026439890265464783 0.19300000369548798 255 255 211
0.006777498405426741 0.026302896440029144 0.19200000166893005 255 255 212
0.007228965871036053 0.026302896440029144 0.19200000166893005 254 255 236
0.007640431635081768 0.026165902614593506 0.19099999964237213 255 255 237
0.008047194220125675 0.026028906926512718 0.1899999976158142 254 255 245
0.008449253626167774 0.02589191310107708 0.1889999955892563 254 255 245
0.00884661078453064 0.02575491927564144 0.18799999356269836 254 255 249
0.009288673289120197 0.02575491927564144 0.18799999356269836 254 255 249
0.00967897567898035 0.025617925450205803 0.18700000643730164 254 255 249
0.010118686594069004 0.025617925450205803 0.18700000643730164 254 255 249
0.010558397509157658 0.025617925450205803 0.18700000643730164 254 255 251
0.010998107492923737 0.025617925450205803 0.18700000643730164 254 255 251
0.011376653797924519 0.025480929762125015 0.1860000044107437 254 255 251
0.011814013123512268 0.025480929762125015 0.1860000044107437 254 255 251
0.012251372449100018 0.025480929762125015 0.1860000044107437 254 255 251
0.012688731774687767 0.025480929762125015 0.1860000044107437 254 255 251
0.013126091100275517 0.025480929762125015 0.1860000044107437 254 255 251
0.013563450425863266 0.025480929762125015 0.1860000044107437 254 255 251
0.013925536535680294 0.025343935936689377 0.1850000023841858 254 255 251
0.01436054427176714 0.025343935936689377 0.1850000023841858 254 255 251
0.014795552007853985 0.025343935936689377 0.1850000023841858 254 255 251
0.015148232690989971 0.02520694211125374 0.18400000035762787 254 255 251
0.015580888837575912 0.02520694211125374 0.18400000035762787 254 255 251
0.01601354591548443 0.02520694211125374 0.18400000035762787 254 255 251
0.0163568202406168 0.0250699482858181 0.18299999833106995 254 255 251
0.016787126660346985 0.0250699482858181 0.18299999833106995 254 255 251
0.017217431217432022 0.0250699482858181 0.18299999833106995 254 255 251
0.017551301047205925 0.024932952597737312 0.18199999630451202 254 255 251
0.017979254946112633 0.024932952597737312 0.18199999630451202 254 255 251
0.01830606907606125 0.024795958772301674 0.1809999942779541 254 255 251
0.018731672316789627 0.024795958772301674 0.1809999942779541 254 255 251
0.019157273694872856 0.024795958772301674 0.1809999942779541 254 255 251
0.019582876935601234 0.024795958772301674 0.1809999942779541 254 255 251
0.020008478313684464 0.024795958772301674 0.1809999942779541 254 255 251
0.020321184769272804 0.024658964946866035 0.18000000715255737 254 255 251
0.020744435489177704 0.024658964946866035 0.18000000715255737 254 255 251
0.021167688071727753 0.024658964946866035 0.18000000715255737 254 255 251
0.021590938791632652 0.024658964946866035 0.18000000715255737 254 255 251
0.022014189511537552 0.024658964946866035 0.18000000715255737 254 255 251
0.02243744023144245 0.024658964946866035 0.18000000715255737 250 251 247
0.02286069095134735 0.024658964946866035 0.18000000715255737 253 254 250
0.02328394167125225 0.024658964946866035 0.18000000715255737 254 255 251
0.02370719239115715 0.024658964946866035 0.18000000715255737 254 255 251
0.02413044311106205 0.024658964946866035 0.18000000715255737 254 255 251
0.02455369383096695 0.024658964946866035 0.18000000715255737 254 255 251
0.024976946413517 0.024658964946866035 0.18000000715255737 254 255 251
0.025400197133421898 0.024658964946866035 0.18000000715255737 254 255 251
0.025823447853326797 0.024658964946866035 0.18000000715255737 254 255 251
0.026246698573231697 0.024658964946866035 0.18000000715255737 254 255 251
0.026669949293136597 0.024658964946866035 0.18000000715255737 254 255 251
0.0272437185049057 0.024795958772301674 0.1809999942779541 254 255 251
0.02766931988298893 0.024795958772301674 0.1809999942779541 254 255 251
0.028094923123717308 0.024795958772301674 0.1809999942779541 250 251 247
0.028520524501800537 0.024795958772301674 0.1809999942779541 254 255 251
0.028946127742528915 0.024795958772301674 0.1809999942779541 254 255 251
0.029371729120612144 0.024795958772301674 0.1809999942779541 254 255 251
0.029797332361340523 0.024795958772301674 0.1809999942779541 254 255 251
0.03038991242647171 0.024932952597737312 0.18199999630451202 254 255 251
0.030817866325378418 0.024932952597737312 0.18199999630451202 254 255 251
0.031245820224285126 0.024932952597737312 0.18199999630451202 254 255 251
0.031673774123191833 0.024932952597737312 0.18199999630451202 254 255 251
0.03210172802209854 0.024932952597737312 0.18199999630451202 254 255 251
0.03252968192100525 0.024932952597737312 0.18199999630451202 254 255 251
0.03295763581991196 0.024932952597737312 0.18199999630451202 254 255 251
0.033385589718818665 0.024932952597737312 0.18199999630451202 252 253 249
0.033813539892435074 0.024932952597737312 0.18199999630451202 253 254 250
0.03424149379134178 0.024932952597737312 0.18199999630451202 254 255 251
0.03466944769024849 0.024932952597737312 0.18199999630451202 254 255 251
0.0350974015891552 0.024932952597737312 0.18199999630451202 254 255 251
0.035525355488061905 0.024932952597737312 0.18199999630451202 254 255 251
0.03595330938696861 0.024932952597737312 0.18199999630451202 254 255 251
0.03638126328587532 0.024932952597737312 0.18199999630451202 254 255 251
0.03680921718478203 0.024932952597737312 0.18199999630451202 254 255 251
0.03744177147746086 0.0250699482858181 0.18299999833106995 254 255 251
0.0378720760345459 0.0250699482858181 0.18299999833106995 254 255 251
0.038302380591630936 0.0250699482858181 0.18299999833106995 254 255 251
0.038944341242313385 0.02520694211125374 0.18400000035762787 254 255 251
0.03937699645757675 0.02520694211125374 0.18400000035762787 254 255 251
0.04002600908279419 0.025343935936689377 0.1850000023841858 254 255 251
0.040461018681526184 0.025343935936689377 0.1850000023841858 254 255 251
0.04089602455496788 0.025343935936689377 0.1850000023841858 254 255 251
0.041554443538188934 0.025480929762125015 0.1860000044107437 254 255 251
0.04199180379509926 0.025480929762125015 0.1860000044107437 254 255 251
0.04242916405200958 0.025480929762125015 0.1860000044107437 254 255 251
0.04309698939323425 0.025617925450205803 0.18700000643730164 254 255 251
0.043536700308322906 0.025617925450205803 0.18700000643730164 254 255 251
0.04397641122341156 0.025617925450205803 0.18700000643730164 254 255 251
0.04465363919734955 0.02575491927564144 0.18799999356269836 254 255 251
0.045335572212934494 0.02589191310107708 0.1889999955892563 221 218 213
0.045779984444379807 0.02589191310107708 0.1889999955892563 243 240 235
0.04646897315979004 0.026028906926512718 0.1899999976158142 255 252 250
0.04716266319155693 0.026165902614593506 0.19099999964237213 255 253 251
0.04786105453968048 0.026302896440029144 0.19200000166893005 255 253 250
0.04856415092945099 0.026439890265464783 0.19300000369548798 236 233 230
0.049271948635578156 0.02657688409090042 0.1940000057220459 237 222 223
0.04998445138335228 0.02671387791633606 0.19499999284744263 229 214 215
0.05070165544748306 0.026850873604416847 0.19599999487400055 245 220 228
0.051423560827970505 0.026987867429852486 0.19699999690055847 255 234 242
0.052150171250104904 0.027124861255288124 0.1979999989271164 255 229 246
0.05288148298859596 0.027261855080723763 0.19900000095367432 255 224 241
0.05334940925240517 0.027261855080723763 0.19900000095367432 255 214 226
0.05408777669072151 0.02739885076880455 0.20000000298023224 255 216 228
0.005479585845023394 0.02703305520117283 0.1940000057220459 255 255 186
0.0059051597490906715 0.02689370885491371 0.19300000369548798 255 255 187
0.006358978804200888 0.02689370885491371 0.19300000369548798 255 255 201
0.006777498405426741 0.026754364371299744 0.19200000166893005 255 255 202
0.007191315293312073 0.026615018025040627 0.19099999964237213 255 255 225
0.007640431635081768 0.026615018025040627 0.19099999964237213 255 255 226
0.008047194220125675 0.02647567167878151 0.1899999976158142 254 255 243
0.008449253626167774 0.02633632719516754 0.1889999955892563 254 255 243
0.00884661078453064 0.026196980848908424 0.18799999356269836 254 255 249
0.009288673289120197 0.026196980848908424 0.18799999356269836 254 255 249
0.00967897567898035 0.026057634502649307 0.18700000643730164 254 255 249
0.010118686594069004 0.026057634502649307 0.18700000643730164 254 255 249
0.010558397509157658 0.026057634502649307 0.18700000643730164 254 255 251
0.010939294472336769 0.02591829001903534 0.1860000044107437 254 255 251
0.011376653797924519 0.02591829001903534 0.1860000044107437 254 255 251
0.011814013123512268 0.02591829001903534 0.1860000044107437 254 255 251
0.012251372449100018 0.02591829001903534 0.1860000044107437 254 255 251
0.012688731774687767 0.02591829001903534 0.1860000044107437 254 255 251
0.013126091100275517 0.02591829001903534 0.1860000044107437 254 255 251
0.013563450425863266 0.02591829001903534 0.1860000044107437 254 255 251
0.013925536535680294 0.025778943672776222 0.1850000023841858 254 255 251
0.01436054427176714 0.025778943672776222 0.1850000023841858 254 255 251
0.014795552007853985 0.025778943672776222 0.1850000023841858 254 255 251
0.015148232690989971 0.025639599189162254 0.18400000035762787 254 255 251
0.015580888837575912 0.025639599189162254 0.18400000035762787 254 255 251
0.01592651568353176 0.025500252842903137 0.18299999833106995 254 255 251
0.0163568202406168 0.025500252842903137 0.18299999833106995 254 255 251
0.016787126660346985 0.025500252842903137 0.18299999833106995 254 255 251
0.017217431217432022 0.025500252842903137 0.18299999833106995 254 255 249
0.017551301047205925 0.02536090649664402 0.18199999630451202 254 255 249
0.017979254946112633 0.02536090649664402 0.18199999630451202 254 255 247
0.01840720698237419 0.02536090649664402 0.18199999630451202 254 255 247
0.018731672316789627 0.025221562013030052 0.1809999942779541 254 255 249
0.019157273694872856 0.025221562013030052 0.1809999942779541 254 255 249
0.019582876935601234 0.025221562013030052 0.1809999942779541 254 255 249
0.020008478313684464 0.025221562013030052 0.1809999942779541 254 255 249
0.020321184769272804 0.025082215666770935 0.18000000715255737 254 255 249
0.020744435489177704 0.025082215666770935 0.18000000715255737 254 255 249
0.021167688071727753 0.025082215666770935 0.18000000715255737 254 255 249
0.021590938791632652 0.025082215666770935 0.18000000715255737 254 255 249
0.022014189511537552 0.025082215666770935 0.18000000715255737 254 255 249
0.02243744023144245 0.025082215666770935 0.18000000715255737 247 248 242
0.02286069095134735 0.025082215666770935 0.18000000715255737 252 254 245
0.02328394167125225 0.025082215666770935 0.18000000715255737 254 255 247
0.02370719239115715 0.025082215666770935 0.18000000715255737 254 255 249
0.02413044311106205 0.025082215666770935 0.18000000715255737 254 255 249
0.02455369383096695 0.025082215666770935 0.18000000715255737 254 255 249
0.024976946413517 0.025082215666770935 0.18000000715255737 254 255 249
0.025400197133421898 0.025082215666770935 0.18000000715255737 254 255 251
0.025823447853326797 0.025082215666770935 0.18000000715255737 254 255 251
0.026246698573231697 0.025082215666770935 0.18000000715255737 254 255 251
0.026818115264177322 0.025221562013030052 0.1809999942779541 254 255 251
0.0272437185049057 0.025221562013030052 0.1809999942779541 254 255 251
0.02766931988298893 0.025221562013030052 0.1809999942779541 253 254 250
0.028094923123717308 0.025221562013030052 0.1809999942779541 250 250 246
