0.06050610914826393 0.006347126327455044 0.16599999368190765 255 252 238
0.06089644134044647 0.006347126327455044 0.16599999368190765 255 239 233
0.06128677353262901 0.006347126327455044 0.16599999368190765 254 213 207
0.061677105724811554 0.006347126327455044 0.16599999368190765 248 192 196
0.062067434191703796 0.006347126327455044 0.16599999368190765 255 204 208
0.06208151578903198 0.006308890413492918 0.16500000655651093 233 175 175
0.062469497323036194 0.006308890413492918 0.16500000655651093 207 149 149
0.0628574788570404 0.006308890413492918 0.16500000655651093 205 146 139
0.06324545294046402 0.006308890413492918 0.16500000655651093 193 134 127
0.06363343447446823 0.006308890413492918 0.16500000655651093 241 175 169
0.06402141600847244 0.006308890413492918 0.16500000655651093 250 184 178
0.06440939754247665 0.006308890413492918 0.16500000655651093 239 179 179
0.06479737907648087 0.006308890413492918 0.16500000655651093 237 177 177
0.06518535315990448 0.006308890413492918 0.16500000655651093 229 173 175
0.06557333469390869 0.006308890413492918 0.16500000655651093 232 176 178
0.0659613162279129 0.006308890413492918 0.16500000655651093 229 169 165
0.06634929776191711 0.006308890413492918 0.16500000655651093 226 166 162
0.06673727929592133 0.006308890413492918 0.16500000655651093 211 151 147
0.06712525337934494 0.006308890413492918 0.16500000655651093 208 148 144
0.06751323491334915 0.006308890413492918 0.16500000655651093 206 151 146
0.06748969107866287 0.006270654499530792 0.164000004529953 188 133 128
0.06787531822919846 0.006270654499530792 0.164000004529953 194 137 130
0.06826095283031464 0.006270654499530792 0.164000004529953 198 141 134
0.06864657998085022 0.006270654499530792 0.164000004529953 211 140 133
0.0690322071313858 0.006270654499530792 0.164000004529953 212 141 134
0.06941783428192139 0.006270654499530792 0.164000004529953 231 167 160
0.06980346143245697 0.006270654499530792 0.164000004529953 255 208 201
0.07018909603357315 0.006270654499530792 0.164000004529953 255 238 238
0.07057472318410873 0.006270654499530792 0.164000004529953 255 225 225
0.07096035033464432 0.006270654499530792 0.164000004529953 254 205 216
0.0713459774851799 0.006270654499530792 0.164000004529953 236 187 198
0.07173160463571548 0.006270654499530792 0.164000004529953 241 174 184
0.07211723923683167 0.006270654499530792 0.164000004529953 250 183 193
0.07250286638736725 0.006270654499530792 0.164000004529953 240 172 178
0.07288849353790283 0.006270654499530792 0.164000004529953 237 169 175
0.07372091710567474 0.006308890413492918 0.16500000655651093 214 149 151
0.07410889863967896 0.006308890413492918 0.16500000655651093 199 134 136
0.07449687272310257 0.006308890413492918 0.16500000655651093 197 132 132
0.07488485425710678 0.006308890413492918 0.16500000655651093 186 121 121
0.07527283579111099 0.006308890413492918 0.16500000655651093 177 110 111
0.0756608173251152 0.006308890413492918 0.16500000655651093 187 120 121
0.07604879885911942 0.006308890413492918 0.16500000655651093 231 167 162
0.07643677294254303 0.006308890413492918 0.16500000655651093 248 184 179
0.07682475447654724 0.006308890413492918 0.16500000655651093 233 167 163
0.07721273601055145 0.006308890413492918 0.16500000655651093 236 170 166
0.07807102054357529 0.006347126327455044 0.16599999368190765 245 175 177
0.07846135646104813 0.006347126327455044 0.16599999368190765 231 161 163
0.07885168492794037 0.006347126327455044 0.16599999368190765 213 150 154
0.07924202084541321 0.006347126327455044 0.16599999368190765 210 147 151
0.07963234931230545 0.006347126327455044 0.16599999368190765 209 149 149
0.08050474524497986 0.006385361775755882 0.16699999570846558 193 133 133
0.08089742809534073 0.006385361775755882 0.16699999570846558 189 122 121
0.08177687972784042 0.006423597689718008 0.1679999977350235 187 120 119
0.08217190951108932 0.006423597689718008 0.1679999977350235 180 103 105
0.0830584168434143 0.0064618331380188465 0.16899999976158142 183 106 108
0.08394962549209595 0.006500069051980972 0.17000000178813934 194 120 121
0.08484553545713425 0.006538304500281811 0.17100000381469727 203 129 130
0.08524762094020844 0.006538304500281811 0.17100000381469727 192 122 122
0.08615058660507202 0.0065765404142439365 0.1720000058412552 181 111 111
0.08705825358629227 0.006614775862544775 0.17299999296665192 178 109 104
0.08746504038572311 0.006614775862544775 0.17299999296665192 187 118 113
0.08787183463573456 0.006614775862544775 0.17299999296665192 182 114 106
0.0882786214351654 0.006614775862544775 0.17299999296665192 181 113 105
0.0891980454325676 0.006653011776506901 0.17399999499320984 174 103 96
0.08960719406604767 0.006653011776506901 0.17399999499320984 173 102 95
0.09001633524894714 0.006653011776506901 0.17399999499320984 170 99 92
0.09094516187906265 0.006691247224807739 0.17499999701976776 184 113 106
0.09135665744543076 0.006691247224807739 0.17499999701976776 178 109 104
0.09229253977537155 0.006729483138769865 0.17599999904632568 181 112 107
0.09270638227462769 0.006729483138769865 0.17599999904632568 175 106 101
0.09312023222446442 0.006729483138769865 0.17599999904632568 181 112 107
0.09406551718711853 0.006767719052731991 0.1770000010728836 185 112 110
0.09448171406984329 0.006767719052731991 0.1770000010728836 183 110 108
0.04742114618420601 0.007508612237870693 0.1850000023841858 255 205 189
0.04759747162461281 0.007468025200068951 0.18400000035762787 255 235 210
0.048030126839876175 0.007468025200068951 0.18400000035762787 255 246 221
0.048199400305747986 0.007427438162267208 0.18299999833106995 255 254 235
0.04862970486283302 0.007427438162267208 0.18299999833106995 255 254 235
0.04879192262887955 0.0073868511244654655 0.18199999630451202 254 255 243
0.049219876527786255 0.0073868511244654655 0.18199999630451202 254 255 243
0.04964783042669296 0.0073868511244654655 0.18199999630451202 254 255 247
0.05007578432559967 0.0073868511244654655 0.18199999630451202 254 255 247
0.051147788763046265 0.007062154356390238 0.17399999499320984 254 255 249
0.05155693367123604 0.007062154356390238 0.17399999499320984 254 255 249
0.05166741833090782 0.007021567318588495 0.17299999296665192 254 255 249
0.052074212580919266 0.007021567318588495 0.17299999296665192 254 255 249
0.05217764526605606 0.006980980280786753 0.1720000058412552 254 255 249
0.05258208513259888 0.006980980280786753 0.1720000058412552 254 255 249
0.052678462117910385 0.006940392777323723 0.17100000381469727 254 255 249
0.05308055132627487 0.006940392777323723 0.17100000381469727 254 255 249
0.05348264053463936 0.006940392777323723 0.17100000381469727 254 255 249
0.05388472601771355 0.006940392777323723 0.17100000381469727 253 254 248
0.05428681522607803 0.006940392777323723 0.17100000381469727 252 253 247
0.05468890443444252 0.006940392777323723 0.17100000381469727 254 255 249
0.05509099364280701 0.006940392777323723 0.17100000381469727 254 255 249
0.055493079125881195 0.006940392777323723 0.17100000381469727 254 255 249
0.05589516833424568 0.006940392777323723 0.17100000381469727 254 255 249
0.0559680350124836 0.00689980573952198 0.17000000178813934 254 255 249
0.056367769837379456 0.00689980573952198 0.17000000178813934 254 255 249
0.05676750838756561 0.00689980573952198 0.17000000178813934 254 255 249
0.05683096498250961 0.006859218701720238 0.16899999976158142 254 255 249
0.05688972398638725 0.006818631663918495 0.1679999977350235 255 255 249
0.05728475749492645 0.006818631663918495 0.1679999977350235 255 255 249
0.057336460798978806 0.006778044626116753 0.16699999570846558 255 243 239
0.057729143649339676 0.006778044626116753 0.16699999570846558 230 204 200
0.058121826499700546 0.006778044626116753 0.16699999570846558 220 183 180
0.05851450935006142 0.006778044626116753 0.16699999570846558 255 218 215
0.05890719220042229 0.006778044626116753 0.16699999570846558 255 250 245
0.05929987505078316 0.006778044626116753 0.16699999570846558 255 250 245
0.05969255790114403 0.006778044626116753 0.16699999570846558 254 250 241
0.0600852407515049 0.006778044626116753 0.16699999570846558 249 245 236
0.06047792360186577 0.006778044626116753 0.16699999570846558 255 239 230
0.06087060645222664 0.006778044626116753 0.16699999570846558 243 225 216
0.06089644134044647 0.00673745758831501 0.16599999368190765 251 207 205
0.06128677353262901 0.00673745758831501 0.16599999368190765 240 196 194
0.061677105724811554 0.00673745758831501 0.16599999368190765 250 187 191
0.062067434191703796 0.00673745758831501 0.16599999368190765 246 183 187
0.06208151578903198 0.0066968705505132675 0.16500000655651093 222 155 154
0.062469497323036194 0.0066968705505132675 0.16500000655651093 213 146 145
0.0628574788570404 0.0066968705505132675 0.16500000655651093 208 144 137
0.06324545294046402 0.0066968705505132675 0.16500000655651093 192 128 121
0.06363343447446823 0.0066968705505132675 0.16500000655651093 224 155 150
0.06402141600847244 0.0066968705505132675 0.16500000655651093 238 169 164
0.06440939754247665 0.0066968705505132675 0.16500000655651093 233 171 170
0.06479737907648087 0.0066968705505132675 0.16500000655651093 234 172 171
0.06518535315990448 0.0066968705505132675 0.16500000655651093 229 171 169
0.06557333469390869 0.0066968705505132675 0.16500000655651093 233 175 173
0.0659613162279129 0.0066968705505132675 0.16500000655651093 222 163 156
0.06634929776191711 0.0066968705505132675 0.16500000655651093 218 159 152
0.06673727929592133 0.0066968705505132675 0.16500000655651093 215 156 149
0.06712525337934494 0.0066968705505132675 0.16500000655651093 204 145 138
0.06710406392812729 0.006656283512711525 0.164000004529953 205 148 139
0.06748969107866287 0.006656283512711525 0.164000004529953 196 139 130
0.06787531822919846 0.006656283512711525 0.164000004529953 195 138 129
0.06826095283031464 0.006656283512711525 0.164000004529953 196 139 130
0.06864657998085022 0.006656283512711525 0.164000004529953 200 137 127
0.0690322071313858 0.006656283512711525 0.164000004529953 193 130 120
0.06941783428192139 0.006656283512711525 0.164000004529953 220 157 147
0.06980346143245697 0.006656283512711525 0.164000004529953 255 212 202
0.07018909603357315 0.006656283512711525 0.164000004529953 255 237 236
0.07057472318410873 0.006656283512711525 0.164000004529953 255 230 229
0.07096035033464432 0.006656283512711525 0.164000004529953 255 204 215
0.0713459774851799 0.006656283512711525 0.164000004529953 230 179 190
0.07173160463571548 0.006656283512711525 0.164000004529953 240 174 181
0.07211723923683167 0.006656283512711525 0.164000004529953 245 179 186
0.07250286638736725 0.006656283512711525 0.164000004529953 243 176 179
0.07288849353790283 0.006656283512711525 0.164000004529953 226 159 162
0.07327412068843842 0.006656283512711525 0.164000004529953 206 141 143
0.073659747838974 0.006656283512711525 0.164000004529953 197 132 134
0.07404538244009018 0.006656283512711525 0.164000004529953 197 132 132
0.07443100959062576 0.006656283512711525 0.164000004529953 184 119 119
0.07527283579111099 0.0066968705505132675 0.16500000655651093 180 113 112
0.0756608173251152 0.0066968705505132675 0.16500000655651093 179 112 111
0.07604879885911942 0.0066968705505132675 0.16500000655651093 177 111 107
0.07643677294254303 0.0066968705505132675 0.16500000655651093 192 126 122
0.07682475447654724 0.0066968705505132675 0.16500000655651093 208 132 131
0.07721273601055145 0.0066968705505132675 0.16500000655651093 233 157 156
0.07760071754455566 0.0066968705505132675 0.16500000655651093 223 147 146
0.07846135646104813 0.00673745758831501 0.16599999368190765 218 142 141
0.07885168492794037 0.00673745758831501 0.16599999368190765 211 146 144
0.07924202084541321 0.00673745758831501 0.16599999368190765 208 143 141
0.07963234931230545 0.00673745758831501 0.16599999368190765 202 142 138
0.08050474524497986 0.006778044626116753 0.16699999570846558 198 138 134
0.08089742809534073 0.006778044626116753 0.16699999570846558 205 140 138
0.08177687972784042 0.006818631663918495 0.1679999977350235 185 120 118
0.08217190951108932 0.006818631663918495 0.1679999977350235 177 104 107
0.0830584168434143 0.006859218701720238 0.16899999976158142 179 106 109
0.08345580101013184 0.006859218701720238 0.16899999976158142 182 108 111
0.08434935659170151 0.00689980573952198 0.17000000178813934 182 108 111
0.08524762094020844 0.006940392777323723 0.17100000381469727 181 111 111
0.08615058660507202 0.006980980280786753 0.1720000058412552 186 116 116
0.08655502647161484 0.006980980280786753 0.1720000058412552 180 111 108
0.08746504038572311 0.007021567318588495 0.17299999296665192 182 113 110
0.08787183463573456 0.007021567318588495 0.17299999296665192 181 112 107
0.0882786214351654 0.007021567318588495 0.17299999296665192 186 117 112
0.09001633524894714 0.007062154356390238 0.17399999499320984 170 102 94
0.09042547643184662 0.007062154356390238 0.17399999499320984 174 106 98
0.09135665744543076 0.00710274139419198 0.17499999701976776 178 110 102
0.09176815301179886 0.00710274139419198 0.17499999701976776 182 114 106
0.09270638227462769 0.007143328431993723 0.17599999904632568 182 114 106
0.09312023222446442 0.007143328431993723 0.17599999904632568 181 113 105
0.09353407472372055 0.007143328431993723 0.17599999904632568 182 109 105
0.09448171406984329 0.0071839154697954655 0.1770000010728836 181 108 104
0.09489791095256805 0.0071839154697954655 0.1770000010728836 183 104 107
0.09531410783529282 0.0071839154697954655 0.1770000010728836 174 95 98
0.04759747162461281 0.007900681346654892 0.18400000035762787 249 204 181
0.048030126839876175 0.007900681346654892 0.18400000035762787 255 235 212
0.048199400305747986 0.00785774365067482 0.18299999833106995 255 254 230
0.04862970486283302 0.00785774365067482 0.18299999833106995 255 255 231
0.04879192262887955 0.007814805023372173 0.18199999630451202 254 255 243
0.049219876527786255 0.007814805023372173 0.18199999630451202 254 255 243
0.04937503859400749 0.007771866396069527 0.1809999942779541 254 255 249
0.04980064183473587 0.007771866396069527 0.1809999942779541 254 255 249
0.051147788763046265 0.007471296936273575 0.17399999499320984 254 255 249
0.05155693367123604 0.007471296936273575 0.17399999499320984 254 255 249
0.05166741833090782 0.007428358308970928 0.17299999296665192 254 255 249
0.052074212580919266 0.007428358308970928 0.17299999296665192 254 255 249
0.05217764526605606 0.0073854196816682816 0.1720000058412552 254 255 249
0.05258208513259888 0.0073854196816682816 0.1720000058412552 254 255 249
0.05298652499914169 0.0073854196816682816 0.1720000058412552 254 255 249
0.05308055132627487 0.007342481520026922 0.17100000381469727 254 255 249
0.05348264053463936 0.007342481520026922 0.17100000381469727 254 255 249
0.05388472601771355 0.007342481520026922 0.17100000381469727 249 250 246
0.05428681522607803 0.007342481520026922 0.17100000381469727 249 250 246
0.05468890443444252 0.007342481520026922 0.17100000381469727 254 255 251
0.05509099364280701 0.007342481520026922 0.17100000381469727 254 255 251
0.055493079125881195 0.007342481520026922 0.17100000381469727 254 255 251
0.05556829646229744 0.007299542892724276 0.17000000178813934 254 255 251
0.0559680350124836 0.007299542892724276 0.17000000178813934 254 255 251
0.056367769837379456 0.007299542892724276 0.17000000178813934 254 255 251
0.05676750838756561 0.007299542892724276 0.17000000178813934 254 255 251
0.05683096498250961 0.007256604265421629 0.16899999976158142 254 255 251
0.05722835287451744 0.007256604265421629 0.16899999976158142 255 255 249
0.05728475749492645 0.00721366610378027 0.1679999977350235 255 255 249
0.057336460798978806 0.007170727476477623 0.16699999570846558 255 231 230
0.057729143649339676 0.007170727476477623 0.16699999570846558 223 195 194
0.058121826499700546 0.007170727476477623 0.16699999570846558 220 178 175
0.05851450935006142 0.007170727476477623 0.16699999570846558 255 213 210
0.05890719220042229 0.007170727476477623 0.16699999570846558 255 250 241
0.05929987505078316 0.007170727476477623 0.16699999570846558 255 250 241
0.05969255790114403 0.007170727476477623 0.16699999570846558 253 249 238
0.0600852407515049 0.007170727476477623 0.16699999570846558 243 239 228
0.06047792360186577 0.007170727476477623 0.16699999570846558 253 231 223
0.06087060645222664 0.007170727476477623 0.16699999570846558 241 219 211
0.06089644134044647 0.007127788849174976 0.16599999368190765 249 198 200
0.06128677353262901 0.007127788849174976 0.16599999368190765 239 188 190
0.061677105724811554 0.007127788849174976 0.16599999368190765 246 178 184
0.062067434191703796 0.007127788849174976 0.16599999368190765 246 178 184
0.06208151578903198 0.007084850687533617 0.16500000655651093 225 153 151
0.062469497323036194 0.007084850687533617 0.16500000655651093 220 148 146
0.0628574788570404 0.007084850687533617 0.16500000655651093 208 137 130
0.06324545294046402 0.007084850687533617 0.16500000655651093 193 122 115
0.06363343447446823 0.007084850687533617 0.16500000655651093 214 141 137
0.06402141600847244 0.007084850687533617 0.16500000655651093 228 155 151
0.06440939754247665 0.007084850687533617 0.16500000655651093 234 167 168
0.06479737907648087 0.007084850687533617 0.16500000655651093 233 166 167
0.06518535315990448 0.007084850687533617 0.16500000655651093 230 170 168
0.06557333469390869 0.007084850687533617 0.16500000655651093 232 172 170
0.0659613162279129 0.007084850687533617 0.16500000655651093 230 169 163
0.06634929776191711 0.007084850687533617 0.16500000655651093 219 158 152
0.06673727929592133 0.007084850687533617 0.16500000655651093 211 150 144
0.06712525337934494 0.007084850687533617 0.16500000655651093 205 144 138
0.06710406392812729 0.00704191206023097 0.164000004529953 204 145 138
0.06748969107866287 0.00704191206023097 0.164000004529953 198 139 132
0.06787531822919846 0.00704191206023097 0.164000004529953 193 136 127
0.06826095283031464 0.00704191206023097 0.164000004529953 192 135 126
0.06864657998085022 0.00704191206023097 0.164000004529953 194 136 122
0.0690322071313858 0.00704191206023097 0.164000004529953 188 130 116
0.06941783428192139 0.00704191206023097 0.164000004529953 222 159 147
0.06980346143245697 0.00704191206023097 0.164000004529953 253 190 178
0.07018909603357315 0.00704191206023097 0.164000004529953 255 231 228
0.07057472318410873 0.00704191206023097 0.164000004529953 255 221 218
0.07096035033464432 0.00704191206023097 0.164000004529953 246 198 206
0.0713459774851799 0.00704191206023097 0.164000004529953 229 181 189
0.07173160463571548 0.00704191206023097 0.164000004529953 238 179 184
0.07211723923683167 0.00704191206023097 0.164000004529953 237 178 183
0.07250286638736725 0.00704191206023097 0.164000004529953 229 166 170
0.07288849353790283 0.00704191206023097 0.164000004529953 217 154 158
0.07327412068843842 0.00704191206023097 0.164000004529953 213 151 152
0.073659747838974 0.00704191206023097 0.164000004529953 201 139 140
0.07404538244009018 0.00704191206023097 0.164000004529953 201 136 136
0.07443100959062576 0.00704191206023097 0.164000004529953 184 119 119
0.07481663674116135 0.00704191206023097 0.164000004529953 181 116 114
0.0756608173251152 0.007084850687533617 0.16500000655651093 179 114 112
0.07604879885911942 0.007084850687533617 0.16500000655651093 184 115 110
0.07643677294254303 0.007084850687533617 0.16500000655651093 203 134 129
0.07682475447654724 0.007084850687533617 0.16500000655651093 203 127 126
0.07721273601055145 0.007084850687533617 0.16500000655651093 222 146 145
0.07760071754455566 0.007084850687533617 0.16500000655651093 214 141 139
0.07846135646104813 0.007127788849174976 0.16599999368190765 209 136 134
0.07885168492794037 0.007127788849174976 0.16599999368190765 205 141 136
0.07924202084541321 0.007127788849174976 0.16599999368190765 196 132 127
0.07963234931230545 0.007127788849174976 0.16599999368190765 196 137 130
0.08002267777919769 0.007127788849174976 0.16599999368190765 194 135 128
0.08089742809534073 0.007170727476477623 0.16699999570846558 195 130 128
0.0812901109457016 0.007170727476477623 0.16699999570846558 188 123 121
0.08217190951108932 0.00721366610378027 0.1679999977350235 182 109 112
0.08256694674491882 0.00721366610378027 0.1679999977350235 175 102 105
0.08345580101013184 0.007256604265421629 0.16899999976158142 176 102 103
0.08434935659170151 0.007299542892724276 0.17000000178813934 178 104 105
0.08524762094020844 0.007342481520026922 0.17100000381469727 184 114 114
0.08615058660507202 0.0073854196816682816 0.1720000058412552 186 116 116
0.08655502647161484 0.0073854196816682816 0.1720000058412552 180 114 110
0.08746504038572311 0.007428358308970928 0.17299999296665192 180 114 110
0.08787183463573456 0.007428358308970928 0.17299999296665192 180 109 102
0.0882786214351654 0.007428358308970928 0.17299999296665192 177 106 99
0.09001633524894714 0.007471296936273575 0.17399999499320984 169 98 91
0.09042547643184662 0.007471296936273575 0.17399999499320984 176 105 98
0.09135665744543076 0.0075142355635762215 0.17499999701976776 175 104 97
0.09176815301179886 0.0075142355635762215 0.17499999701976776 176 105 98
0.09217964857816696 0.0075142355635762215 0.17499999701976776 181 109 102
0.09312023222446442 0.007557173725217581 0.17599999904632568 185 113 106
0.09353407472372055 0.007557173725217581 0.17599999904632568 185 109 106
0.09394792467355728 0.007557173725217581 0.17599999904632568 180 104 101
0.09489791095256805 0.007600112352520227 0.1770000010728836 176 99 103
0.09531410783529282 0.007600112352520227 0.1770000010728836 175 98 102
0.04759747162461281 0.008333338424563408 0.18400000035762787 248 198 177
0.048030126839876175 0.008333338424563408 0.18400000035762787 255 221 200
0.048199400305747986 0.008288048207759857 0.18299999833106995 255 251 228
0.04862970486283302 0.008288048207759857 0.18299999833106995 255 252 229
0.04879192262887955 0.008242758922278881 0.18199999630451202 255 255 243
0.048949435353279114 0.00819746870547533 0.1809999942779541 255 255 243
0.04937503859400749 0.00819746870547533 0.1809999942779541 254 255 249
0.04952549934387207 0.00815217848867178 0.18000000715255737 254 255 249
0.04994875192642212 0.00815217848867178 0.18000000715255737 254 255 249
0.05073864758014679 0.007880439050495625 0.17399999499320984 254 255 249
0.051147788763046265 0.007880439050495625 0.17399999499320984 254 255 249
0.05155693367123604 0.007880439050495625 0.17399999499320984 254 255 249
0.05166741833090782 0.007835149765014648 0.17299999296665192 254 255 249
0.052074212580919266 0.007835149765014648 0.17299999296665192 254 255 249
0.05217764526605606 0.007789859548211098 0.1720000058412552 254 255 249
0.05258208513259888 0.007789859548211098 0.1720000058412552 254 255 249
0.05298652499914169 0.007789859548211098 0.1720000058412552 254 255 249
0.05308055132627487 0.007744569797068834 0.17100000381469727 254 255 249
0.05348264053463936 0.007744569797068834 0.17100000381469727 254 255 249
0.05388472601771355 0.007744569797068834 0.17100000381469727 239 240 234
0.05428681522607803 0.007744569797068834 0.17100000381469727 230 231 225
0.05468890443444252 0.007744569797068834 0.17100000381469727 247 247 241
0.05509099364280701 0.007744569797068834 0.17100000381469727 254 254 248
0.055493079125881195 0.007744569797068834 0.17100000381469727 254 255 249
0.05556829646229744 0.007699280045926571 0.17000000178813934 254 255 249
0.0559680350124836 0.007699280045926571 0.17000000178813934 254 255 249
0.056367769837379456 0.007699280045926571 0.17000000178813934 254 255 249
0.05676750838756561 0.007699280045926571 0.17000000178813934 254 255 249
0.05683096498250961 0.00765398982912302 0.16899999976158142 254 255 249
0.05688972398638725 0.007608700077980757 0.1679999977350235 255 254 249
0.05728475749492645 0.007608700077980757 0.1679999977350235 254 251 246
0.057336460798978806 0.007563410326838493 0.16699999570846558 253 217 217
0.057729143649339676 0.007563410326838493 0.16699999570846558 225 189 189
0.058121826499700546 0.007563410326838493 0.16699999570846558 224 174 171
0.05851450935006142 0.007563410326838493 0.16699999570846558 242 192 189
0.05890719220042229 0.007563410326838493 0.16699999570846558 255 248 235
0.05929987505078316 0.007563410326838493 0.16699999570846558 255 249 236
0.05969255790114403 0.007563410326838493 0.16699999570846558 255 252 237
0.0600852407515049 0.007563410326838493 0.16699999570846558 249 243 228
0.06047792360186577 0.007563410326838493 0.16699999570846558 251 226 219
0.06087060645222664 0.007563410326838493 0.16699999570846558 249 224 217
0.06089644134044647 0.00751812057569623 0.16599999368190765 247 188 193
0.06128677353262901 0.00751812057569623 0.16599999368190765 241 182 187
0.061677105724811554 0.00751812057569623 0.16599999368190765 243 173 177
0.062067434191703796 0.00751812057569623 0.16599999368190765 245 175 179
0.06208151578903198 0.007472830358892679 0.16500000655651093 225 152 150
0.062469497323036194 0.007472830358892679 0.16500000655651093 218 145 143
0.06440939754247665 0.007472830358892679 0.16500000655651093 237 165 163
0.06479737907648087 0.007472830358892679 0.16500000655651093 237 165 163
0.06518535315990448 0.007472830358892679 0.16500000655651093 232 165 168
0.06557333469390869 0.007472830358892679 0.16500000655651093 228 161 164
0.0659613162279129 0.007472830358892679 0.16500000655651093 226 159 160
0.06634929776191711 0.007472830358892679 0.16500000655651093 221 154 155
0.06673727929592133 0.007472830358892679 0.16500000655651093 214 147 146
0.06712525337934494 0.007472830358892679 0.16500000655651093 212 145 144
0.06710406392812729 0.007427540607750416 0.164000004529953 204 142 139
0.06748969107866287 0.007427540607750416 0.164000004529953 199 137 134
0.06787531822919846 0.007427540607750416 0.164000004529953 192 134 122
0.06826095283031464 0.007427540607750416 0.164000004529953 190 132 120
0.06864657998085022 0.007427540607750416 0.164000004529953 197 134 120
0.0690322071313858 0.007427540607750416 0.164000004529953 191 128 114
0.06941783428192139 0.007427540607750416 0.164000004529953 221 159 142
0.06980346143245697 0.007427540607750416 0.164000004529953 253 191 174
0.07018909603357315 0.007427540607750416 0.164000004529953 255 220 216
0.07057472318410873 0.007427540607750416 0.164000004529953 255 216 212
0.07096035033464432 0.007427540607750416 0.164000004529953 251 203 207
0.0713459774851799 0.007427540607750416 0.164000004529953 236 188 192
0.07173160463571548 0.007427540607750416 0.164000004529953 235 179 183
0.07211723923683167 0.007427540607750416 0.164000004529953 228 172 176
0.07250286638736725 0.007427540607750416 0.164000004529953 222 161 164
0.07288849353790283 0.007427540607750416 0.164000004529953 216 155 158
0.07327412068843842 0.007427540607750416 0.164000004529953 203 141 142
0.073659747838974 0.007427540607750416 0.164000004529953 193 131 132
0.07404538244009018 0.007427540607750416 0.164000004529953 191 130 124
0.07443100959062576 0.007427540607750416 0.164000004529953 181 120 114
0.07481663674116135 0.007427540607750416 0.164000004529953 179 115 108
0.0756608173251152 0.007472830358892679 0.16500000655651093 177 113 106
0.07604879885911942 0.007472830358892679 0.16500000655651093 173 108 99
0.07643677294254303 0.007472830358892679 0.16500000655651093 187 122 113
0.07682475447654724 0.007472830358892679 0.16500000655651093 193 121 117
0.07721273601055145 0.007472830358892679 0.16500000655651093 208 136 132
0.07760071754455566 0.007472830358892679 0.16500000655651093 206 137 132
0.07798869907855988 0.007472830358892679 0.16500000655651093 204 135 130
0.07885168492794037 0.00751812057569623 0.16599999368190765 196 135 127
0.07924202084541321 0.00751812057569623 0.16599999368190765 196 135 127
0.07963234931230545 0.00751812057569623 0.16599999368190765 196 137 128
0.08002267777919769 0.00751812057569623 0.16599999368190765 193 134 125
0.08089742809534073 0.007563410326838493 0.16699999570846558 194 133 127
0.0812901109457016 0.007563410326838493 0.16699999570846558 186 125 119
0.08217190951108932 0.007608700077980757 0.1679999977350235 185 111 114
0.08256694674491882 0.007608700077980757 0.1679999977350235 170 96 99
0.08345580101013184 0.00765398982912302 0.16899999976158142 176 99 101
0.08434935659170151 0.007699280045926571 0.17000000178813934 175 98 100
0.08524762094020844 0.007744569797068834 0.17100000381469727 178 109 106
0.08564970642328262 0.007744569797068834 0.17100000381469727 192 123 120
0.08655502647161484 0.007789859548211098 0.1720000058412552 182 116 112
0.08746504038572311 0.007835149765014648 0.17299999296665192 178 112 108
0.08787183463573456 0.007835149765014648 0.17299999296665192 183 112 105
0.0882786214351654 0.007835149765014648 0.17299999296665192 176 105 98
0.09135665744543076 0.007925729267299175 0.17499999701976776 171 99 92
0.09176815301179886 0.007925729267299175 0.17499999701976776 175 103 96
0.09353407472372055 0.007971019484102726 0.17599999904632568 184 106 106
0.09394792467355728 0.007971019484102726 0.17599999904632568 183 105 105
0.09436176717281342 0.007971019484102726 0.17599999904632568 178 101 107
0.09477560967206955 0.007971019484102726 0.17599999904632568 177 100 106
0.09573030471801758 0.008016308769583702 0.1770000010728836 176 98 107
0.09614650160074234 0.008016308769583702 0.1770000010728836 173 95 104
0.0965626984834671 0.008016308769583702 0.1770000010728836 171 92 99
0.09697889536619186 0.008016308769583702 0.1770000010728836 169 90 97
0.04759747162461281 0.00876599457114935 0.18400000035762787 255 193 182
0.048030126839876175 0.00876599457114935 0.18400000035762787 255 212 201
0.048199400305747986 0.008718353696167469 0.18299999833106995 254 230 216
0.04836396872997284 0.008670711889863014 0.18199999630451202 255 246 232
0.04879192262887955 0.008670711889863014 0.18199999630451202 255 255 245
0.048949435353279114 0.008623071014881134 0.1809999942779541 255 255 245
0.04937503859400749 0.008623071014881134 0.1809999942779541 254 255 249
0.04952549934387207 0.00857542920857668 0.18000000715255737 254 255 249
0.04994875192642212 0.00857542920857668 0.18000000715255737 254 255 249
0.05037200078368187 0.00857542920857668 0.18000000715255737 254 255 249
0.05049416050314903 0.008384864777326584 0.17599999904632568 254 255 249
0.05061875656247139 0.008337222971022129 0.17499999701976776 254 255 249
0.05073864758014679 0.008289582096040249 0.17399999499320984 254 255 249
0.051147788763046265 0.008289582096040249 0.17399999499320984 254 255 249
0.05155693367123604 0.008289582096040249 0.17399999499320984 254 255 249
0.05166741833090782 0.008241940289735794 0.17299999296665192 254 255 249
0.052074212580919266 0.008241940289735794 0.17299999296665192 254 255 249
0.05248100310564041 0.008241940289735794 0.17299999296665192 254 255 249
0.05258208513259888 0.008194299414753914 0.1720000058412552 254 255 249
0.05298652499914169 0.008194299414753914 0.1720000058412552 254 255 249
0.05308055132627487 0.008146658539772034 0.17100000381469727 254 255 249
0.05348264053463936 0.008146658539772034 0.17100000381469727 254 255 249
0.05388472601771355 0.008146658539772034 0.17100000381469727 230 230 224
0.05428681522607803 0.008146658539772034 0.17100000381469727 225 225 219
0.05468890443444252 0.008146658539772034 0.17100000381469727 254 250 243
0.05509099364280701 0.008146658539772034 0.17100000381469727 255 254 247
0.055493079125881195 0.008146658539772034 0.17100000381469727 254 255 247
0.05589516833424568 0.008146658539772034 0.17100000381469727 254 255 247
0.0559680350124836 0.008099016733467579 0.17000000178813934 254 255 249
0.056367769837379456 0.008099016733467579 0.17000000178813934 254 255 249
0.056433580815792084 0.008051375858485699 0.16899999976158142 254 255 249
0.05683096498250961 0.008051375858485699 0.16899999976158142 254 255 249
0.05688972398638725 0.008003734052181244 0.1679999977350235 255 253 251
0.05728475749492645 0.008003734052181244 0.1679999977350235 246 241 239
0.057336460798978806 0.007956093177199364 0.16699999570846558 251 209 208
0.057729143649339676 0.007956093177199364 0.16699999570846558 225 183 182
0.058121826499700546 0.007956093177199364 0.16699999570846558 229 170 163
0.05851450935006142 0.007956093177199364 0.16699999570846558 232 173 166
0.05890719220042229 0.007956093177199364 0.16699999570846558 255 246 232
0.05929987505078316 0.007956093177199364 0.16699999570846558 255 249 235
0.05969255790114403 0.007956093177199364 0.16699999570846558 255 254 236
0.0600852407515049 0.007956093177199364 0.16699999570846558 255 253 235
0.06047792360186577 0.007956093177199364 0.16699999570846558 242 217 210
0.06087060645222664 0.007956093177199364 0.16699999570846558 225 200 193
0.06126328930258751 0.007956093177199364 0.16699999570846558 237 176 181
0.06128677353262901 0.007908451370894909 0.16599999368190765 244 183 188
0.061677105724811554 0.007908451370894909 0.16599999368190765 245 172 177
0.062067434191703796 0.007908451370894909 0.16599999368190765 239 166 171
0.06208151578903198 0.007860810495913029 0.16500000655651093 223 151 149
0.062469497323036194 0.007860810495913029 0.16500000655651093 212 140 138
0.06440939754247665 0.007860810495913029 0.16500000655651093 240 162 162
0.06479737907648087 0.007860810495913029 0.16500000655651093 238 160 160
0.06518535315990448 0.007860810495913029 0.16500000655651093 235 160 168
0.06557333469390869 0.007860810495913029 0.16500000655651093 238 163 171
0.0659613162279129 0.007860810495913029 0.16500000655651093 235 158 164
0.06634929776191711 0.007860810495913029 0.16500000655651093 233 156 162
0.06673727929592133 0.007860810495913029 0.16500000655651093 224 150 151
0.06712525337934494 0.007860810495913029 0.16500000655651093 209 135 136
0.06710406392812729 0.007813169620931149 0.164000004529953 201 135 131
0.06748969107866287 0.007813169620931149 0.164000004529953 198 132 128
0.06787531822919846 0.007813169620931149 0.164000004529953 190 127 115
0.06826095283031464 0.007813169620931149 0.164000004529953 189 126 114
0.06941783428192139 0.007813169620931149 0.164000004529953 199 137 120
0.06980346143245697 0.007813169620931149 0.164000004529953 250 188 171
0.07018909603357315 0.007813169620931149 0.164000004529953 255 216 212
0.07057472318410873 0.007813169620931149 0.164000004529953 255 213 209
0.07096035033464432 0.007813169620931149 0.164000004529953 254 206 210
0.0713459774851799 0.007813169620931149 0.164000004529953 240 192 196
0.07173160463571548 0.007813169620931149 0.164000004529953 237 183 186
0.07211723923683167 0.007813169620931149 0.164000004529953 225 171 174
0.07250286638736725 0.007813169620931149 0.164000004529953 221 160 165
0.07288849353790283 0.007813169620931149 0.164000004529953 209 148 153
0.07327412068843842 0.007813169620931149 0.164000004529953 196 134 133
0.073659747838974 0.007813169620931149 0.164000004529953 188 126 125
0.07404538244009018 0.007813169620931149 0.164000004529953 180 120 109
0.07443100959062576 0.007813169620931149 0.164000004529953 179 119 108
0.07481663674116135 0.007813169620931149 0.164000004529953 175 115 102
0.07520226389169693 0.007813169620931149 0.164000004529953 172 112 99
0.07604879885911942 0.007860810495913029 0.16500000655651093 170 110 97
0.07643677294254303 0.007860810495913029 0.16500000655651093 173 113 100
0.07682475447654724 0.007860810495913029 0.16500000655651093 188 120 112
0.07721273601055145 0.007860810495913029 0.16500000655651093 201 133 125
0.07760071754455566 0.007860810495913029 0.16500000655651093 202 134 126
0.07798869907855988 0.007860810495913029 0.16500000655651093 202 134 126
0.07885168492794037 0.007908451370894909 0.16599999368190765 195 135 124
0.07924202084541321 0.007908451370894909 0.16599999368190765 196 136 125
0.07963234931230545 0.007908451370894909 0.16599999368190765 193 134 125
0.08002267777919769 0.007908451370894909 0.16599999368190765 194 135 126
0.08041301369667053 0.007908451370894909 0.16599999368190765 199 138 132
0.0812901109457016 0.007956093177199364 0.16699999570846558 172 111 105
0.08168279379606247 0.007956093177199364 0.16699999570846558 176 104 102
0.08256694674491882 0.008003734052181244 0.1679999977350235 155 83 81
0.08345580101013184 0.008051375858485699 0.16899999976158142 166 93 91
0.08434935659170151 0.008099016733467579 0.17000000178813934 169 96 94
0.08474909514188766 0.008099016733467579 0.17000000178813934 157 88 85
0.08564970642328262 0.008146658539772034 0.17100000381469727 185 116 113
0.08655502647161484 0.008194299414753914 0.1720000058412552 180 112 104
0.08695946633815765 0.008194299414753914 0.1720000058412552 177 109 101
0.09217964857816696 0.008337222971022129 0.17499999701976776 177 105 98
0.09259113669395447 0.008337222971022129 0.17499999701976776 180 108 101
0.09353407472372055 0.008384864777326584 0.17599999904632568 180 106 107
0.09394792467355728 0.008384864777326584 0.17599999904632568 170 96 97
0.09436176717281342 0.008384864777326584 0.17599999904632568 164 90 95
0.09477560967206955 0.008384864777326584 0.17599999904632568 171 97 102
0.09518945962190628 0.008384864777326584 0.17599999904632568 171 93 102
0.09614650160074234 0.008432505652308464 0.1770000010728836 169 91 100
0.04759747162461281 0.009198651649057865 0.18400000035762787 255 185 178
0.048030126839876175 0.009198651649057865 0.18400000035762787 255 191 184
0.048199400305747986 0.009148658253252506 0.18299999833106995 239 198 190
0.04836396872997284 0.009098665788769722 0.18199999630451202 255 228 220
0.04879192262887955 0.009098665788769722 0.18199999630451202 255 254 245
0.048949435353279114 0.009048673324286938 0.1809999942779541 255 254 245
0.04937503859400749 0.009048673324286938 0.1809999942779541 254 255 247
0.04952549934387207 0.008998680859804153 0.18000000715255737 254 255 247
0.04967125877737999 0.008948687463998795 0.17900000512599945 254 255 249
0.05009215697646141 0.008948687463998795 0.17900000512599945 254 255 249
0.0500803142786026 0.008798710070550442 0.17599999904632568 254 255 249
0.05049416050314903 0.008798710070550442 0.17599999904632568 254 255 249
0.05061875656247139 0.008748717606067657 0.17499999701976776 254 255 249
0.051030248403549194 0.008748717606067657 0.17499999701976776 253 255 246
0.051147788763046265 0.008698724210262299 0.17399999499320984 254 255 247
0.05155693367123604 0.008698724210262299 0.17399999499320984 254 255 247
0.05166741833090782 0.008648731745779514 0.17299999296665192 254 255 247
0.052074212580919266 0.008648731745779514 0.17299999296665192 254 255 249
0.05248100310564041 0.008648731745779514 0.17299999296665192 254 255 249
0.05258208513259888 0.00859873928129673 0.1720000058412552 254 255 249
0.05298652499914169 0.00859873928129673 0.1720000058412552 254 255 249
0.05308055132627487 0.008548746816813946 0.17100000381469727 254 255 249
0.05348264053463936 0.008548746816813946 0.17100000381469727 253 254 248
0.05388472601771355 0.008548746816813946 0.17100000381469727 233 222 217
0.05428681522607803 0.008548746816813946 0.17100000381469727 226 215 210
0.05468890443444252 0.008548746816813946 0.17100000381469727 230 222 210
0.05509099364280701 0.008548746816813946 0.17100000381469727 255 253 241
0.055493079125881195 0.008548746816813946 0.17100000381469727 254 255 247
0.05556829646229744 0.008498753421008587 0.17000000178813934 254 255 247
0.0559680350124836 0.008498753421008587 0.17000000178813934 254 255 249
0.056367769837379456 0.008498753421008587 0.17000000178813934 254 255 249
0.056433580815792084 0.008448760956525803 0.16899999976158142 254 255 249
0.05683096498250961 0.008448760956525803 0.16899999976158142 254 255 249
0.05688972398638725 0.008398768492043018 0.1679999977350235 255 252 249
0.05728475749492645 0.008398768492043018 0.1679999977350235 243 235 232
0.057336460798978806 0.008348776027560234 0.16699999570846558 251 205 201
0.057729143649339676 0.008348776027560234 0.16699999570846558 225 179 175
0.058121826499700546 0.008348776027560234 0.16699999570846558 227 162 153
0.05851450935006142 0.008348776027560234 0.16699999570846558 225 160 151
0.05890719220042229 0.008348776027560234 0.16699999570846558 255 236 222
0.05929987505078316 0.008348776027560234 0.16699999570846558 255 247 233
0.05969255790114403 0.008348776027560234 0.16699999570846558 255 253 236
0.0600852407515049 0.008348776027560234 0.16699999570846558 255 249 232
0.06047792360186577 0.008348776027560234 0.16699999570846558 240 210 205
0.06087060645222664 0.008348776027560234 0.16699999570846558 235 205 200
0.06126328930258751 0.008348776027560234 0.16699999570846558 249 187 195
0.06128677353262901 0.00829878356307745 0.16599999368190765 246 184 192
0.061677105724811554 0.00829878356307745 0.16599999368190765 239 168 177
0.062067434191703796 0.00829878356307745 0.16599999368190765 227 156 165
0.06208151578903198 0.008248790167272091 0.16500000655651093 225 152 153
0.062469497323036194 0.008248790167272091 0.16500000655651093 206 133 134
0.06673727929592133 0.008248790167272091 0.16500000655651093 214 137 139
0.06712525337934494 0.008248790167272091 0.16500000655651093 208 131 133
0.06751323491334915 0.008248790167272091 0.16500000655651093 203 131 127
0.06748969107866287 0.008198797702789307 0.164000004529953 201 129 125
0.07018909603357315 0.008198797702789307 0.164000004529953 248 190 186
0.07057472318410873 0.008198797702789307 0.164000004529953 255 213 209
0.07096035033464432 0.008198797702789307 0.164000004529953 252 201 203
0.0713459774851799 0.008198797702789307 0.164000004529953 247 196 198
0.07173160463571548 0.008198797702789307 0.164000004529953 247 191 195
0.07211723923683167 0.008198797702789307 0.164000004529953 229 173 177
0.07250286638736725 0.008198797702789307 0.164000004529953 219 158 163
0.07288849353790283 0.008198797702789307 0.164000004529953 211 150 155
0.07327412068843842 0.008198797702789307 0.164000004529953 203 141 142
0.073659747838974 0.008198797702789307 0.164000004529953 193 131 132
0.07404538244009018 0.008198797702789307 0.164000004529953 182 122 111
0.07443100959062576 0.008198797702789307 0.164000004529953 180 120 109
0.07481663674116135 0.008198797702789307 0.164000004529953 179 119 106
0.07520226389169693 0.008198797702789307 0.164000004529953 176 116 103
0.07558789104223251 0.008198797702789307 0.164000004529953 176 116 103
0.07643677294254303 0.008248790167272091 0.16500000655651093 176 116 103
0.07760071754455566 0.008248790167272091 0.16500000655651093 196 128 118
0.07798869907855988 0.008248790167272091 0.16500000655651093 194 126 116
0.07837667316198349 0.008248790167272091 0.16500000655651093 192 127 118
0.07924202084541321 0.00829878356307745 0.16599999368190765 198 133 124
0.07963234931230545 0.00829878356307745 0.16599999368190765 185 121 114
0.08002267777919769 0.00829878356307745 0.16599999368190765 197 133 126
0.08041301369667053 0.00829878356307745 0.16599999368190765 201 135 131
0.0812901109457016 0.008348776027560234 0.16699999570846558 185 119 115
0.08168279379606247 0.008348776027560234 0.16699999570846558 178 105 103
0.08256694674491882 0.008398768492043018 0.1679999977350235 166 93 91
0.08296198397874832 0.008398768492043018 0.1679999977350235 166 90 87
0.08385318517684937 0.008448760956525803 0.16899999976158142 168 92 89
0.08474909514188766 0.008498753421008587 0.17000000178813934 162 90 83
0.08564970642328262 0.008548746816813946 0.17100000381469727 175 103 96
0.08605179935693741 0.008548746816813946 0.17100000381469727 177 106 99
0.08695946633815765 0.00859873928129673 0.1720000058412552 180 109 102
0.0908346176147461 0.008698724210262299 0.17399999499320984 161 88 84
0.09124375879764557 0.008698724210262299 0.17399999499320984 167 94 90
0.09217964857816696 0.008748717606067657 0.17499999701976776 169 96 92
0.09259113669395447 0.008748717606067657 0.17499999701976776 170 97 93
0.09300263226032257 0.008748717606067657 0.17499999701976776 172 99 102
0.09394792467355728 0.008798710070550442 0.17599999904632568 173 100 103
0.09436176717281342 0.008798710070550442 0.17599999904632568 167 93 96
0.09477560967206955 0.008798710070550442 0.17599999904632568 167 93 96
0.09518945962190628 0.008798710070550442 0.17599999904632568 163 84 91
0.09560330212116241 0.008798710070550442 0.17599999904632568 160 81 88
0.048199400305747986 0.009578963741660118 0.18299999833106995 235 176 167
0.04836396872997284 0.00952661968767643 0.18199999630451202 255 207 198
0.04879192262887955 0.00952661968767643 0.18199999630451202 255 251 242
0.048949435353279114 0.009474275633692741 0.1809999942779541 255 252 243
0.04937503859400749 0.009474275633692741 0.1809999942779541 254 255 247
0.04952549934387207 0.009421931579709053 0.18000000715255737 254 255 247
0.04967125877737999 0.009369587525725365 0.17900000512599945 254 255 249
0.05009215697646141 0.009369587525725365 0.17900000512599945 254 255 249
0.05023086071014404 0.009317243471741676 0.17800000309944153 254 255 249
0.0500803142786026 0.0092125553637743 0.17599999904632568 254 255 249
0.05049416050314903 0.0092125553637743 0.17599999904632568 253 255 242
0.05061875656247139 0.009160211309790611 0.17499999701976776 249 251 238
0.051030248403549194 0.009160211309790611 0.17499999701976776 250 253 232
0.051147788763046265 0.009107867255806923 0.17399999499320984 252 255 234
0.05155693367123604 0.009107867255806923 0.17399999499320984 254 255 243
0.05166741833090782 0.009055523201823235 0.17299999296665192 254 255 243
0.052074212580919266 0.009055523201823235 0.17299999296665192 254 255 249
0.05248100310564041 0.009055523201823235 0.17299999296665192 254 255 249
0.05258208513259888 0.009003179147839546 0.1720000058412552 254 255 249
0.05298652499914169 0.009003179147839546 0.1720000058412552 254 255 249
0.05339096114039421 0.009003179147839546 0.1720000058412552 255 255 249
0.05348264053463936 0.008950835093855858 0.17100000381469727 250 250 244
0.05388472601771355 0.008950835093855858 0.17100000381469727 237 215 207
0.05428681522607803 0.008950835093855858 0.17100000381469727 220 198 190
0.05468890443444252 0.008950835093855858 0.17100000381469727 216 199 185
0.05509099364280701 0.008950835093855858 0.17100000381469727 255 250 236
0.055493079125881195 0.008950835093855858 0.17100000381469727 254 255 243
0.05556829646229744 0.00889849103987217 0.17000000178813934 254 255 243
0.0559680350124836 0.00889849103987217 0.17000000178813934 254 255 249
0.056367769837379456 0.00889849103987217 0.17000000178813934 254 255 249
0.056433580815792084 0.008846146985888481 0.16899999976158142 254 255 249
0.05683096498250961 0.008846146985888481 0.16899999976158142 254 255 249
0.05688972398638725 0.008793802931904793 0.1679999977350235 255 252 245
0.05728475749492645 0.008793802931904793 0.1679999977350235 251 240 233
0.05767979100346565 0.008793802931904793 0.1679999977350235 255 202 197
0.05807482451200485 0.008793802931904793 0.1679999977350235 222 167 162
0.05890719220042229 0.008741458877921104 0.16699999570846558 241 203 192
0.05929987505078316 0.008741458877921104 0.16699999570846558 255 244 233
0.05969255790114403 0.008741458877921104 0.16699999570846558 255 253 239
0.0600852407515049 0.008741458877921104 0.16699999570846558 255 251 237
0.06047792360186577 0.008741458877921104 0.16699999570846558 252 222 217
0.06087060645222664 0.008741458877921104 0.16699999570846558 231 201 196
0.06126328930258751 0.008741458877921104 0.16699999570846558 240 177 183
0.06128677353262901 0.008689114823937416 0.16599999368190765 224 161 167
0.061677105724811554 0.008689114823937416 0.16599999368190765 224 150 160
0.062067434191703796 0.008689114823937416 0.16599999368190765 230 156 166
0.06208151578903198 0.008636770769953728 0.16500000655651093 218 145 148
0.062469497323036194 0.008636770769953728 0.16500000655651093 211 138 141
0.06673727929592133 0.008636770769953728 0.16500000655651093 212 138 139
0.06712525337934494 0.008636770769953728 0.16500000655651093 209 135 136
0.06751323491334915 0.008636770769953728 0.16500000655651093 202 130 123
0.06748969107866287 0.00858442671597004 0.164000004529953 201 129 122
0.07018909603357315 0.00858442671597004 0.164000004529953 255 197 192
0.07057472318410873 0.00858442671597004 0.164000004529953 255 206 201
0.07096035033464432 0.00858442671597004 0.164000004529953 255 198 198
