0.022014189511537552 0.022965962067246437 0.18000000715255737 255 252 231
0.02243744023144245 0.022965962067246437 0.18000000715255737 234 218 197
0.02286069095134735 0.022965962067246437 0.18000000715255737 255 245 218
0.02328394167125225 0.022965962067246437 0.18000000715255737 255 252 225
0.02370719239115715 0.022965962067246437 0.18000000715255737 255 254 232
0.02413044311106205 0.022965962067246437 0.18000000715255737 255 254 232
0.02455369383096695 0.022965962067246437 0.18000000715255737 255 254 238
0.024976946413517 0.022965962067246437 0.18000000715255737 255 254 238
0.025400197133421898 0.022965962067246437 0.18000000715255737 255 255 241
0.025823447853326797 0.022965962067246437 0.18000000715255737 255 254 240
0.026392513886094093 0.02309354953467846 0.1809999942779541 255 254 240
0.026818115264177322 0.02309354953467846 0.1809999942779541 255 254 240
0.0272437185049057 0.02309354953467846 0.1809999942779541 255 254 234
0.02766931988298893 0.02309354953467846 0.1809999942779541 255 255 235
0.028094923123717308 0.02309354953467846 0.1809999942779541 255 255 240
0.028520524501800537 0.02309354953467846 0.1809999942779541 255 255 241
0.028946127742528915 0.02309354953467846 0.1809999942779541 254 255 247
0.029371729120612144 0.02309354953467846 0.1809999942779541 254 255 247
0.029797332361340523 0.02309354953467846 0.1809999942779541 254 255 249
0.03038991242647171 0.02322113886475563 0.18199999630451202 254 255 249
0.030817866325378418 0.02322113886475563 0.18199999630451202 254 255 249
0.031245820224285126 0.02322113886475563 0.18199999630451202 254 255 249
0.031673774123191833 0.02322113886475563 0.18199999630451202 254 255 251
0.03210172802209854 0.02322113886475563 0.18199999630451202 254 255 251
0.03252968192100525 0.02322113886475563 0.18199999630451202 255 255 243
0.03295763581991196 0.02322113886475563 0.18199999630451202 255 255 243
0.033385589718818665 0.02322113886475563 0.18199999630451202 255 242 216
0.033813539892435074 0.02322113886475563 0.18199999630451202 222 207 181
0.03424149379134178 0.02322113886475563 0.18199999630451202 255 251 219
0.03466944769024849 0.02322113886475563 0.18199999630451202 255 253 221
0.0350974015891552 0.02322113886475563 0.18199999630451202 255 255 236
0.035525355488061905 0.02322113886475563 0.18199999630451202 255 255 237
0.03595330938696861 0.02322113886475563 0.18199999630451202 254 255 249
0.03658116236329079 0.023348728194832802 0.18299999833106995 254 255 249
0.037011466920375824 0.023348728194832802 0.18299999833106995 254 255 249
0.03744177147746086 0.023348728194832802 0.18299999833106995 254 255 249
0.0378720760345459 0.023348728194832802 0.18299999833106995 255 255 245
0.03851168230175972 0.023476315662264824 0.18400000035762787 255 255 245
0.039805006235837936 0.023731492459774017 0.1860000044107437 243 222 209
0.04024236649274826 0.023731492459774017 0.1860000044107437 251 216 188
0.041117142885923386 0.02398667111992836 0.18799999356269836 255 224 196
0.04155920445919037 0.02398667111992836 0.18799999356269836 255 247 216
0.04222467914223671 0.024114258587360382 0.1889999955892563 255 250 219
0.04289485514163971 0.024241847917437553 0.1899999976158142 255 255 235
0.04334161803126335 0.024241847917437553 0.1899999976158142 255 255 235
0.04401884973049164 0.024369437247514725 0.19099999964237213 255 252 243
0.044700782746076584 0.024497024714946747 0.19200000166893005 255 252 243
0.04515225067734718 0.024497024714946747 0.19200000166893005 255 237 235
0.04584123566746712 0.024624614045023918 0.19300000369548798 245 214 212
0.046295054256916046 0.024624614045023918 0.19300000369548798 255 241 242
0.04699109494686127 0.02475220337510109 0.1940000057220459 255 244 245
0.047691840678453445 0.02487979084253311 0.19499999284744263 255 247 247
0.04815036430954933 0.02487979084253311 0.19499999284744263 255 245 245
0.04860888421535492 0.02487979084253311 0.19499999284744263 255 232 241
0.049319032579660416 0.025007380172610283 0.19599999487400055 238 199 208
0.05003388598561287 0.025134969502687454 0.19699999690055847 255 219 228
0.050497110933065414 0.025134969502687454 0.19699999690055847 255 242 251
0.051219016313552856 0.025262556970119476 0.1979999989271164 255 244 253
0.05168459191918373 0.025262556970119476 0.1979999989271164 255 241 250
0.05241355299949646 0.025390146300196648 0.19900000095367432 255 232 241
0.053147219121456146 0.02551773563027382 0.20000000298023224 255 218 227
0.05388558283448219 0.02564532309770584 0.20100000500679016 236 172 183
0.054358214139938354 0.02564532309770584 0.20100000500679016 237 173 184
0.005479585845023394 0.025208372622728348 0.1940000057220459 255 255 192
0.005935756489634514 0.025208372622728348 0.1940000057220459 255 255 190
0.006358978804200888 0.025078432634472847 0.19300000369548798 255 255 225
0.006812797859311104 0.025078432634472847 0.19300000369548798 255 255 225
0.007228965871036053 0.024948492646217346 0.19200000166893005 254 255 243
0.007640431635081768 0.024818552657961845 0.19099999964237213 254 255 243
0.008047194220125675 0.024688612669706345 0.1899999976158142 254 255 247
0.008449253626167774 0.024558672681450844 0.1889999955892563 254 255 247
0.00884661078453064 0.024428732693195343 0.18799999356269836 254 255 249
0.009239264763891697 0.024298792704939842 0.18700000643730164 254 255 249
0.00967897567898035 0.024298792704939842 0.18700000643730164 254 255 249
0.01006457582116127 0.02416885271668434 0.1860000044107437 254 255 249
0.01050193514674902 0.02416885271668434 0.1860000044107437 254 255 249
0.010880481451749802 0.02403891272842884 0.1850000023841858 254 255 249
0.011315489187836647 0.02403891272842884 0.1850000023841858 254 255 251
0.011750496923923492 0.02403891272842884 0.1850000023841858 254 255 251
0.012185504660010338 0.02403891272842884 0.1850000023841858 254 255 251
0.012620512396097183 0.02403891272842884 0.1850000023841858 254 255 251
0.013055521063506603 0.02403891272842884 0.1850000023841858 254 255 251
0.013490528799593449 0.02403891272842884 0.1850000023841858 254 255 251
0.013925536535680294 0.02403891272842884 0.1850000023841858 254 255 251
0.01436054427176714 0.02403891272842884 0.1850000023841858 254 255 251
0.01471557654440403 0.02390897274017334 0.18400000035762787 254 255 251
0.015148232690989971 0.02390897274017334 0.18400000035762787 254 255 251
0.015580888837575912 0.02390897274017334 0.18400000035762787 254 255 251
0.01592651568353176 0.02377903275191784 0.18299999833106995 254 255 251
0.0163568202406168 0.02377903275191784 0.18299999833106995 254 255 251
0.016787126660346985 0.02377903275191784 0.18299999833106995 254 255 251
0.017217431217432022 0.02377903275191784 0.18299999833106995 254 255 251
0.017551301047205925 0.023649092763662338 0.18199999630451202 254 255 251
0.017979254946112633 0.023649092763662338 0.18199999630451202 254 255 251
0.01840720698237419 0.023649092763662338 0.18199999630451202 254 255 251
0.018731672316789627 0.023519152775406837 0.1809999942779541 254 255 251
0.019157273694872856 0.023519152775406837 0.1809999942779541 254 255 251
0.019582876935601234 0.023519152775406837 0.1809999942779541 254 255 251
0.019897934049367905 0.023389212787151337 0.18000000715255737 254 255 251
0.020321184769272804 0.023389212787151337 0.18000000715255737 254 255 251
0.020744435489177704 0.023389212787151337 0.18000000715255737 254 255 251
0.021167688071727753 0.023389212787151337 0.18000000715255737 254 255 249
0.021590938791632652 0.023389212787151337 0.18000000715255737 254 255 249
0.022014189511537552 0.023389212787151337 0.18000000715255737 254 255 241
0.02243744023144245 0.023389212787151337 0.18000000715255737 254 255 241
0.02286069095134735 0.023389212787151337 0.18000000715255737 255 255 239
0.02328394167125225 0.023389212787151337 0.18000000715255737 255 255 239
0.02370719239115715 0.023389212787151337 0.18000000715255737 255 255 243
0.02413044311106205 0.023389212787151337 0.18000000715255737 255 255 243
0.02455369383096695 0.023389212787151337 0.18000000715255737 255 255 247
0.024976946413517 0.023389212787151337 0.18000000715255737 255 255 247
0.025400197133421898 0.023389212787151337 0.18000000715255737 255 255 247
0.025823447853326797 0.023389212787151337 0.18000000715255737 255 255 247
0.026392513886094093 0.023519152775406837 0.1809999942779541 255 255 247
0.026818115264177322 0.023519152775406837 0.1809999942779541 255 255 247
0.0272437185049057 0.023519152775406837 0.1809999942779541 255 255 245
0.02766931988298893 0.023519152775406837 0.1809999942779541 255 255 245
0.028094923123717308 0.023519152775406837 0.1809999942779541 255 255 245
0.028520524501800537 0.023519152775406837 0.1809999942779541 255 255 245
0.028946127742528915 0.023519152775406837 0.1809999942779541 254 255 247
0.029371729120612144 0.023519152775406837 0.1809999942779541 254 255 247
0.029797332361340523 0.023519152775406837 0.1809999942779541 254 255 249
0.030222933739423752 0.023519152775406837 0.1809999942779541 254 255 249
0.030817866325378418 0.023649092763662338 0.18199999630451202 254 255 249
0.031245820224285126 0.023649092763662338 0.18199999630451202 254 255 249
0.031673774123191833 0.023649092763662338 0.18199999630451202 254 255 249
0.03210172802209854 0.023649092763662338 0.18199999630451202 254 255 249
0.03252968192100525 0.023649092763662338 0.18199999630451202 254 255 245
0.03295763581991196 0.023649092763662338 0.18199999630451202 253 255 244
0.033385589718818665 0.023649092763662338 0.18199999630451202 255 254 234
0.033813539892435074 0.023649092763662338 0.18199999630451202 255 252 232
0.03424149379134178 0.023649092763662338 0.18199999630451202 255 255 233
0.03466944769024849 0.023649092763662338 0.18199999630451202 255 255 233
0.0350974015891552 0.023649092763662338 0.18199999630451202 254 255 245
0.035525355488061905 0.023649092763662338 0.18199999630451202 254 255 245
0.03595330938696861 0.023649092763662338 0.18199999630451202 254 255 249
0.03658116236329079 0.02377903275191784 0.18299999833106995 254 255 249
0.037011466920375824 0.02377903275191784 0.18299999833106995 254 255 249
0.03744177147746086 0.02377903275191784 0.18299999833106995 254 255 249
0.0378720760345459 0.02377903275191784 0.18299999833106995 254 255 247
0.03851168230175972 0.02390897274017334 0.18400000035762787 254 255 247
0.038944341242313385 0.02390897274017334 0.18400000035762787 255 251 240
0.039805006235837936 0.02416885271668434 0.1860000044107437 244 231 220
0.04024236649274826 0.02416885271668434 0.1860000044107437 255 233 214
0.040898434817790985 0.024298792704939842 0.18700000643730164 255 232 213
0.04155920445919037 0.024428732693195343 0.18799999356269836 255 253 228
0.04200126603245735 0.024428732693195343 0.18799999356269836 255 254 229
0.04266909137368202 0.024558672681450844 0.1889999955892563 255 255 243
0.043113503605127335 0.024558672681450844 0.1889999955892563 255 255 243
0.04378838464617729 0.024688612669706345 0.1899999976158142 255 254 249
0.044235147535800934 0.024688612669706345 0.1899999976158142 255 254 249
0.044681914150714874 0.024688612669706345 0.1899999976158142 255 245 247
0.04536619782447815 0.024818552657961845 0.19099999964237213 238 214 216
0.04605518653988838 0.024948492646217346 0.19200000166893005 242 213 217
0.046748872846364975 0.025078432634472847 0.19300000369548798 255 245 249
0.0472026951611042 0.025078432634472847 0.19300000369548798 255 246 249
0.04790343716740608 0.025208372622728348 0.1940000057220459 255 234 237
0.04860888421535492 0.02533831261098385 0.19499999284744263 247 209 222
0.049319032579660416 0.02546825259923935 0.19599999487400055 240 202 215
0.05003388598561287 0.02559819258749485 0.19699999690055847 236 196 209
0.050497110933065414 0.02559819258749485 0.19699999690055847 255 239 252
0.051219016313552856 0.02572813257575035 0.1979999989271164 255 242 253
0.05168459191918373 0.02572813257575035 0.1979999989271164 249 221 232
0.05241355299949646 0.025858072564005852 0.19900000095367432 250 217 230
0.053147219121456146 0.025988014414906502 0.20000000298023224 245 212 225
0.05388558283448219 0.026117954403162003 0.20100000500679016 255 203 215
0.054358214139938354 0.026117954403162003 0.20100000500679016 217 155 167
0.005479585845023394 0.025664543733000755 0.1940000057220459 255 255 186
0.0059051597490906715 0.025532251223921776 0.19300000369548798 255 255 188
0.006358978804200888 0.025532251223921776 0.19300000369548798 255 255 218
0.006777498405426741 0.025399960577487946 0.19200000166893005 255 255 219
0.007191315293312073 0.025267669931054115 0.19099999964237213 254 255 241
0.007600429002195597 0.025135377421975136 0.1899999976158142 254 255 241
0.008047194220125675 0.025135377421975136 0.1899999976158142 254 255 245
0.008449253626167774 0.025003086775541306 0.1889999955892563 254 255 245
0.00884661078453064 0.024870794266462326 0.18799999356269836 254 255 249
0.009239264763891697 0.024738503620028496 0.18700000643730164 254 255 249
0.00967897567898035 0.024738503620028496 0.18700000643730164 254 255 249
0.01006457582116127 0.024606211110949516 0.1860000044107437 254 255 249
0.01050193514674902 0.024606211110949516 0.1860000044107437 254 255 251
0.010880481451749802 0.024473920464515686 0.1850000023841858 254 255 251
0.011315489187836647 0.024473920464515686 0.1850000023841858 254 255 251
0.011750496923923492 0.024473920464515686 0.1850000023841858 254 255 251
0.012185504660010338 0.024473920464515686 0.1850000023841858 254 255 251
0.012620512396097183 0.024473920464515686 0.1850000023841858 254 255 251
0.013055521063506603 0.024473920464515686 0.1850000023841858 254 255 251
0.013490528799593449 0.024473920464515686 0.1850000023841858 254 255 251
0.013925536535680294 0.024473920464515686 0.1850000023841858 254 255 251
0.01436054427176714 0.024473920464515686 0.1850000023841858 254 255 251
0.01471557654440403 0.024341629818081856 0.18400000035762787 254 255 251
0.015148232690989971 0.024341629818081856 0.18400000035762787 254 255 251
0.015580888837575912 0.024341629818081856 0.18400000035762787 254 255 251
0.01592651568353176 0.024209337309002876 0.18299999833106995 254 255 251
0.0163568202406168 0.024209337309002876 0.18299999833106995 254 255 251
0.016787126660346985 0.024209337309002876 0.18299999833106995 254 255 251
0.017217431217432022 0.024209337309002876 0.18299999833106995 254 255 251
0.017551301047205925 0.024077046662569046 0.18199999630451202 254 255 251
0.017979254946112633 0.024077046662569046 0.18199999630451202 254 255 251
0.01840720698237419 0.024077046662569046 0.18199999630451202 254 255 251
0.018731672316789627 0.023944754153490067 0.1809999942779541 254 255 251
0.019157273694872856 0.023944754153490067 0.1809999942779541 254 255 251
0.019582876935601234 0.023944754153490067 0.1809999942779541 254 255 251
0.019897934049367905 0.023812463507056236 0.18000000715255737 254 255 251
0.020321184769272804 0.023812463507056236 0.18000000715255737 254 255 251
0.020744435489177704 0.023812463507056236 0.18000000715255737 254 255 251
0.021167688071727753 0.023812463507056236 0.18000000715255737 254 255 251
0.021590938791632652 0.023812463507056236 0.18000000715255737 254 255 251
0.022014189511537552 0.023812463507056236 0.18000000715255737 254 255 249
0.02243744023144245 0.023812463507056236 0.18000000715255737 254 255 249
0.02286069095134735 0.023812463507056236 0.18000000715255737 254 255 247
0.02328394167125225 0.023812463507056236 0.18000000715255737 254 255 247
0.02370719239115715 0.023812463507056236 0.18000000715255737 254 255 249
0.02413044311106205 0.023812463507056236 0.18000000715255737 254 255 249
0.02455369383096695 0.023812463507056236 0.18000000715255737 254 255 249
0.024976946413517 0.023812463507056236 0.18000000715255737 254 255 249
0.025400197133421898 0.023812463507056236 0.18000000715255737 254 255 249
0.025823447853326797 0.023812463507056236 0.18000000715255737 254 255 249
0.026246698573231697 0.023812463507056236 0.18000000715255737 254 255 247
0.026818115264177322 0.023944754153490067 0.1809999942779541 254 255 247
0.0272437185049057 0.023944754153490067 0.1809999942779541 254 255 247
0.02766931988298893 0.023944754153490067 0.1809999942779541 254 255 247
0.028094923123717308 0.023944754153490067 0.1809999942779541 254 255 245
0.028520524501800537 0.023944754153490067 0.1809999942779541 254 255 245
0.028946127742528915 0.023944754153490067 0.1809999942779541 254 255 245
0.029371729120612144 0.023944754153490067 0.1809999942779541 254 255 245
0.029797332361340523 0.023944754153490067 0.1809999942779541 254 255 247
0.030222933739423752 0.023944754153490067 0.1809999942779541 254 255 247
0.03064853698015213 0.023944754153490067 0.1809999942779541 254 255 249
0.03107413835823536 0.023944754153490067 0.1809999942779541 254 255 249
0.03149973973631859 0.023944754153490067 0.1809999942779541 254 255 249
0.03192534297704697 0.023944754153490067 0.1809999942779541 254 255 249
0.032350946217775345 0.023944754153490067 0.1809999942779541 254 255 247
0.03277654945850372 0.023944754153490067 0.1809999942779541 253 255 246
0.0332021489739418 0.023944754153490067 0.1809999942779541 255 255 235
0.03362775221467018 0.023944754153490067 0.1809999942779541 253 253 233
0.03405335545539856 0.023944754153490067 0.1809999942779541 255 255 237
0.03466944769024849 0.024077046662569046 0.18199999630451202 255 255 237
0.0350974015891552 0.024077046662569046 0.18199999630451202 254 255 247
0.035525355488061905 0.024077046662569046 0.18199999630451202 254 255 247
0.03595330938696861 0.024077046662569046 0.18199999630451202 254 255 249
0.03638126328587532 0.024077046662569046 0.18199999630451202 254 255 249
0.037011466920375824 0.024209337309002876 0.18299999833106995 254 255 249
0.03744177147746086 0.024209337309002876 0.18299999833106995 254 255 249
0.0378720760345459 0.024209337309002876 0.18299999833106995 254 255 247
0.03851168230175972 0.024341629818081856 0.18400000035762787 253 255 246
0.038944341242313385 0.024341629818081856 0.18400000035762787 255 252 243
0.03959100320935249 0.024473920464515686 0.1850000023841858 242 231 222
0.04024236649274826 0.024606211110949516 0.1860000044107437 243 223 213
0.040679726749658585 0.024606211110949516 0.1860000044107437 255 239 229
0.04133814573287964 0.024738503620028496 0.18700000643730164 255 252 238
0.04177785664796829 0.024738503620028496 0.18700000643730164 255 255 241
0.042443327605724335 0.024870794266462326 0.18799999356269836 254 255 247
0.042885392904281616 0.024870794266462326 0.18799999356269836 254 255 247
0.043557919561862946 0.025003086775541306 0.1889999955892563 254 255 249
0.04400233179330826 0.025003086775541306 0.1889999955892563 254 255 249
0.04444674402475357 0.025003086775541306 0.1889999955892563 255 247 245
0.045128677040338516 0.025135377421975136 0.1899999976158142 233 221 219
0.04581531509757042 0.025267669931054115 0.19099999964237213 232 206 206
0.04626442864537239 0.025267669931054115 0.19099999964237213 255 240 240
0.04695811867713928 0.025399960577487946 0.19200000166893005 255 246 249
0.04765651375055313 0.025532251223921776 0.19300000369548798 255 230 233
0.04835960641503334 0.025664543733000755 0.1940000057220459 244 210 218
0.049067407846450806 0.025796834379434586 0.19499999284744263 238 204 212
0.04952592775225639 0.025796834379434586 0.19499999284744263 235 195 208
0.05024078115820885 0.025929126888513565 0.19599999487400055 248 208 221
0.05096033588051796 0.026061417534947395 0.19699999690055847 255 239 251
0.05168459191918373 0.026193710044026375 0.1979999989271164 255 239 251
0.052150171250104904 0.026193710044026375 0.1979999989271164 255 229 242
0.05288148298859596 0.026326000690460205 0.19900000095367432 255 235 248
0.05361749604344368 0.026458293199539185 0.20000000298023224 255 201 211
0.054358214139938354 0.026590583845973015 0.20100000500679016 218 163 173
0.005479585845023394 0.026120714843273163 0.1940000057220459 255 255 180
0.0059051597490906715 0.025986071676015854 0.19300000369548798 255 255 183
0.006326030939817429 0.025851428508758545 0.19200000166893005 255 255 207
0.006777498405426741 0.025851428508758545 0.19200000166893005 255 255 208
0.007191315293312073 0.025716785341501236 0.19099999964237213 254 255 232
0.007600429002195597 0.025582142174243927 0.1899999976158142 255 255 233
0.008004840463399887 0.025447499006986618 0.1889999955892563 254 255 243
0.008449253626167774 0.025447499006986618 0.1889999955892563 254 255 243
0.00884661078453064 0.02531285770237446 0.18799999356269836 254 255 247
0.009239264763891697 0.02517821453511715 0.18700000643730164 254 255 247
0.00967897567898035 0.02517821453511715 0.18700000643730164 254 255 249
0.01006457582116127 0.02504357136785984 0.1860000044107437 254 255 249
0.01050193514674902 0.02504357136785984 0.1860000044107437 254 255 249
0.010880481451749802 0.02490892820060253 0.1850000023841858 254 255 249
0.011315489187836647 0.02490892820060253 0.1850000023841858 254 255 251
0.011750496923923492 0.02490892820060253 0.1850000023841858 254 255 251
0.012185504660010338 0.02490892820060253 0.1850000023841858 254 255 251
0.012620512396097183 0.02490892820060253 0.1850000023841858 254 255 251
0.013055521063506603 0.02490892820060253 0.1850000023841858 254 255 251
0.013490528799593449 0.02490892820060253 0.1850000023841858 254 255 251
0.013925536535680294 0.02490892820060253 0.1850000023841858 254 255 251
0.01436054427176714 0.02490892820060253 0.1850000023841858 254 255 251
0.01471557654440403 0.024774285033345222 0.18400000035762787 254 255 251
0.015148232690989971 0.024774285033345222 0.18400000035762787 254 255 251
0.015580888837575912 0.024774285033345222 0.18400000035762787 254 255 251
0.01592651568353176 0.024639641866087914 0.18299999833106995 254 255 251
0.0163568202406168 0.024639641866087914 0.18299999833106995 254 255 251
0.016787126660346985 0.024639641866087914 0.18299999833106995 254 255 251
0.017123347148299217 0.024505000561475754 0.18199999630451202 254 255 251
0.017551301047205925 0.024505000561475754 0.18199999630451202 254 255 251
0.017979254946112633 0.024505000561475754 0.18199999630451202 254 255 251
0.01840720698237419 0.024505000561475754 0.18199999630451202 254 255 251
0.018731672316789627 0.024370357394218445 0.1809999942779541 254 255 251
0.019157273694872856 0.024370357394218445 0.1809999942779541 254 255 251
0.019582876935601234 0.024370357394218445 0.1809999942779541 254 255 251
0.019897934049367905 0.024235714226961136 0.18000000715255737 254 255 251
0.020321184769272804 0.024235714226961136 0.18000000715255737 254 255 251
0.020744435489177704 0.024235714226961136 0.18000000715255737 254 255 251
0.021167688071727753 0.024235714226961136 0.18000000715255737 254 255 251
0.021590938791632652 0.024235714226961136 0.18000000715255737 254 255 251
0.022014189511537552 0.024235714226961136 0.18000000715255737 254 255 249
0.02243744023144245 0.024235714226961136 0.18000000715255737 247 248 242
0.02286069095134735 0.024235714226961136 0.18000000715255737 252 254 245
0.02328394167125225 0.024235714226961136 0.18000000715255737 254 255 247
0.02370719239115715 0.024235714226961136 0.18000000715255737 254 255 249
0.02413044311106205 0.024235714226961136 0.18000000715255737 254 255 249
0.02455369383096695 0.024235714226961136 0.18000000715255737 254 255 249
0.024976946413517 0.024235714226961136 0.18000000715255737 254 255 249
0.025400197133421898 0.024235714226961136 0.18000000715255737 254 255 249
0.025823447853326797 0.024235714226961136 0.18000000715255737 254 255 249
0.026246698573231697 0.024235714226961136 0.18000000715255737 254 255 247
0.026818115264177322 0.024370357394218445 0.1809999942779541 254 255 247
0.0272437185049057 0.024370357394218445 0.1809999942779541 254 255 245
0.02766931988298893 0.024370357394218445 0.1809999942779541 250 252 241
0.028094923123717308 0.024370357394218445 0.1809999942779541 251 253 242
0.028520524501800537 0.024370357394218445 0.1809999942779541 254 255 245
0.028946127742528915 0.024370357394218445 0.1809999942779541 254 255 245
0.029371729120612144 0.024370357394218445 0.1809999942779541 254 255 245
0.029797332361340523 0.024370357394218445 0.1809999942779541 254 255 247
0.030222933739423752 0.024370357394218445 0.1809999942779541 254 255 247
0.03064853698015213 0.024370357394218445 0.1809999942779541 254 255 249
0.03107413835823536 0.024370357394218445 0.1809999942779541 254 255 249
0.03149973973631859 0.024370357394218445 0.1809999942779541 254 255 249
0.03192534297704697 0.024370357394218445 0.1809999942779541 254 255 249
0.032350946217775345 0.024370357394218445 0.1809999942779541 254 255 247
0.03277654945850372 0.024370357394218445 0.1809999942779541 254 255 247
0.0332021489739418 0.024370357394218445 0.1809999942779541 247 246 231
0.03362775221467018 0.024370357394218445 0.1809999942779541 245 244 229
0.03405335545539856 0.024370357394218445 0.1809999942779541 255 255 243
0.03447895869612694 0.024370357394218445 0.1809999942779541 255 255 243
0.0350974015891552 0.024505000561475754 0.18199999630451202 254 255 249
0.035525355488061905 0.024505000561475754 0.18199999630451202 254 255 249
0.03595330938696861 0.024505000561475754 0.18199999630451202 254 255 249
0.03638126328587532 0.024505000561475754 0.18199999630451202 254 255 249
0.037011466920375824 0.024639641866087914 0.18299999833106995 254 255 249
0.03744177147746086 0.024639641866087914 0.18299999833106995 254 255 249
0.0378720760345459 0.024639641866087914 0.18299999833106995 254 255 247
0.03851168230175972 0.024774285033345222 0.18400000035762787 253 255 246
0.038944341242313385 0.024774285033345222 0.18400000035762787 255 250 243
0.03959100320935249 0.02490892820060253 0.1850000023841858 240 229 222
0.04002600908279419 0.02490892820060253 0.1850000023841858 242 226 221
0.040679726749658585 0.02504357136785984 0.1860000044107437 255 249 244
0.04133814573287964 0.02517821453511715 0.18700000643730164 255 254 247
0.04177785664796829 0.02517821453511715 0.18700000643730164 255 254 247
0.042217567563056946 0.02517821453511715 0.18700000643730164 254 255 249
0.042885392904281616 0.02531285770237446 0.18799999356269836 254 255 249
0.0433274544775486 0.02531285770237446 0.18799999356269836 254 255 249
0.04400233179330826 0.025447499006986618 0.1889999955892563 254 255 249
0.04444674402475357 0.025447499006986618 0.1889999955892563 255 251 246
0.04489115998148918 0.025447499006986618 0.1889999955892563 239 228 223
0.04557544365525246 0.025582142174243927 0.1899999976158142 235 207 206
0.0460222065448761 0.025582142174243927 0.1899999976158142 253 225 224
0.04671354591846466 0.025716785341501236 0.19099999964237213 255 244 245
0.04740958660840988 0.025851428508758545 0.19200000166893005 255 235 236
0.04811033234000206 0.025986071676015854 0.19300000369548798 255 238 242
0.0488157793879509 0.026120714843273163 0.1940000057220459 241 212 216
0.04952592775225639 0.026255356147885323 0.19499999284744263 241 204 213
0.05024078115820885 0.02638999931514263 0.19599999487400055 249 212 221
0.05096033588051796 0.02652464248239994 0.19699999690055847 255 229 242
0.051423560827970505 0.02652464248239994 0.19699999690055847 255 234 247
0.052150171250104904 0.02665928564965725 0.1979999989271164 255 231 246
0.05288148298859596 0.02679392881691456 0.19900000095367432 255 218 233
0.05334940925240517 0.02679392881691456 0.19900000095367432 248 193 203
0.05408777669072151 0.026928571984171867 0.20000000298023224 238 183 193
0.0059051597490906715 0.026439890265464783 0.19300000369548798 255 255 176
0.006326030939817429 0.026302896440029144 0.19200000166893005 254 255 193
0.006777498405426741 0.026302896440029144 0.19200000166893005 254 255 193
0.007191315293312073 0.026165902614593506 0.19099999964237213 255 255 218
0.007600429002195597 0.026028906926512718 0.1899999976158142 255 255 219
0.008004840463399887 0.02589191310107708 0.1889999955892563 253 255 238
0.008449253626167774 0.02589191310107708 0.1889999955892563 254 255 239
0.00884661078453064 0.02575491927564144 0.18799999356269836 254 255 247
0.009239264763891697 0.025617925450205803 0.18700000643730164 254 255 247
0.00967897567898035 0.025617925450205803 0.18700000643730164 254 255 249
0.01006457582116127 0.025480929762125015 0.1860000044107437 254 255 249
0.01050193514674902 0.025480929762125015 0.1860000044107437 254 255 249
0.010939294472336769 0.025480929762125015 0.1860000044107437 254 255 249
0.011315489187836647 0.025343935936689377 0.1850000023841858 254 255 251
0.011750496923923492 0.025343935936689377 0.1850000023841858 254 255 251
0.012185504660010338 0.025343935936689377 0.1850000023841858 254 255 251
0.012620512396097183 0.025343935936689377 0.1850000023841858 254 255 251
0.013055521063506603 0.025343935936689377 0.1850000023841858 254 255 251
0.013490528799593449 0.025343935936689377 0.1850000023841858 254 255 251
0.013925536535680294 0.025343935936689377 0.1850000023841858 254 255 251
0.01436054427176714 0.025343935936689377 0.1850000023841858 254 255 251
0.01471557654440403 0.02520694211125374 0.18400000035762787 254 255 251
0.015148232690989971 0.02520694211125374 0.18400000035762787 254 255 251
0.015580888837575912 0.02520694211125374 0.18400000035762787 254 255 251
0.01592651568353176 0.0250699482858181 0.18299999833106995 254 255 251
0.0163568202406168 0.0250699482858181 0.18299999833106995 254 255 251
0.016787126660346985 0.0250699482858181 0.18299999833106995 254 255 251
0.017123347148299217 0.024932952597737312 0.18199999630451202 254 255 249
0.017551301047205925 0.024932952597737312 0.18199999630451202 254 255 249
0.017979254946112633 0.024932952597737312 0.18199999630451202 254 255 249
0.01840720698237419 0.024932952597737312 0.18199999630451202 254 255 249
0.018731672316789627 0.024795958772301674 0.1809999942779541 254 255 249
0.019157273694872856 0.024795958772301674 0.1809999942779541 254 255 249
0.019582876935601234 0.024795958772301674 0.1809999942779541 254 255 249
0.019897934049367905 0.024658964946866035 0.18000000715255737 254 255 249
0.020321184769272804 0.024658964946866035 0.18000000715255737 254 255 249
0.020744435489177704 0.024658964946866035 0.18000000715255737 254 255 249
0.021167688071727753 0.024658964946866035 0.18000000715255737 254 255 249
0.021590938791632652 0.024658964946866035 0.18000000715255737 254 255 249
0.022014189511537552 0.024658964946866035 0.18000000715255737 254 255 245
0.02243744023144245 0.024658964946866035 0.18000000715255737 251 253 242
0.02286069095134735 0.024658964946866035 0.18000000715255737 253 255 244
0.02328394167125225 0.024658964946866035 0.18000000715255737 254 255 245
0.02370719239115715 0.024658964946866035 0.18000000715255737 254 255 247
0.02413044311106205 0.024658964946866035 0.18000000715255737 254 255 247
0.02455369383096695 0.024658964946866035 0.18000000715255737 254 255 249
0.024976946413517 0.024658964946866035 0.18000000715255737 254 255 249
0.025400197133421898 0.024658964946866035 0.18000000715255737 254 255 247
0.025823447853326797 0.024658964946866035 0.18000000715255737 254 255 247
0.026246698573231697 0.024658964946866035 0.18000000715255737 254 255 245
0.026669949293136597 0.024658964946866035 0.18000000715255737 254 255 245
0.0272437185049057 0.024795958772301674 0.1809999942779541 253 255 239
0.02766931988298893 0.024795958772301674 0.1809999942779541 250 252 236
0.028094923123717308 0.024795958772301674 0.1809999942779541 248 247 232
0.028520524501800537 0.024795958772301674 0.1809999942779541 254 253 238
0.028946127742528915 0.024795958772301674 0.1809999942779541 253 255 240
0.029371729120612144 0.024795958772301674 0.1809999942779541 254 255 241
0.029797332361340523 0.024795958772301674 0.1809999942779541 254 255 247
0.030222933739423752 0.024795958772301674 0.1809999942779541 254 255 247
0.03064853698015213 0.024795958772301674 0.1809999942779541 254 255 249
0.03107413835823536 0.024795958772301674 0.1809999942779541 254 255 249
0.03149973973631859 0.024795958772301674 0.1809999942779541 254 255 249
0.03192534297704697 0.024795958772301674 0.1809999942779541 254 255 249
0.032350946217775345 0.024795958772301674 0.1809999942779541 254 255 247
0.03277654945850372 0.024795958772301674 0.1809999942779541 251 253 244
0.0332021489739418 0.024795958772301674 0.1809999942779541 232 234 218
0.03362775221467018 0.024795958772301674 0.1809999942779541 241 243 227
0.03405335545539856 0.024795958772301674 0.1809999942779541 255 255 241
0.03447895869612694 0.024795958772301674 0.1809999942779541 255 255 241
0.0350974015891552 0.024932952597737312 0.18199999630451202 254 255 245
0.035525355488061905 0.024932952597737312 0.18199999630451202 254 255 245
0.03595330938696861 0.024932952597737312 0.18199999630451202 254 255 249
0.03638126328587532 0.024932952597737312 0.18199999630451202 254 255 249
0.037011466920375824 0.0250699482858181 0.18299999833106995 254 255 249
0.03744177147746086 0.0250699482858181 0.18299999833106995 254 255 249
0.0378720760345459 0.0250699482858181 0.18299999833106995 254 255 249
0.03851168230175972 0.02520694211125374 0.18400000035762787 253 254 248
0.038944341242313385 0.02520694211125374 0.18400000035762787 255 249 243
0.03959100320935249 0.025343935936689377 0.1850000023841858 250 236 230
0.04002600908279419 0.025343935936689377 0.1850000023841858 243 227 222
0.040679726749658585 0.025480929762125015 0.1860000044107437 245 229 224
0.04111708700656891 0.025480929762125015 0.1860000044107437 255 252 248
0.04177785664796829 0.025617925450205803 0.18700000643730164 255 253 249
0.042217567563056946 0.025617925450205803 0.18700000643730164 254 255 251
0.042885392904281616 0.02575491927564144 0.18799999356269836 254 255 251
0.0433274544775486 0.02575491927564144 0.18799999356269836 254 255 249
0.04400233179330826 0.02589191310107708 0.1889999955892563 254 255 249
0.04444674402475357 0.02589191310107708 0.1889999955892563 255 252 247
0.04489115998148918 0.02589191310107708 0.1889999955892563 243 234 229
0.045335572212934494 0.02589191310107708 0.1889999955892563 234 206 203
0.0460222065448761 0.026028906926512718 0.1899999976158142 242 214 211
0.04671354591846466 0.026165902614593506 0.19099999964237213 255 229 229
0.04716266319155693 0.026165902614593506 0.19099999964237213 255 236 236
0.04786105453968048 0.026302896440029144 0.19200000166893005 255 238 240
0.04856415092945099 0.026439890265464783 0.19300000369548798 255 224 226
0.049271948635578156 0.02657688409090042 0.1940000057220459 244 205 212
0.04998445138335228 0.02671387791633606 0.19499999284744263 243 204 211
0.05070165544748306 0.026850873604416847 0.19599999487400055 252 206 218
0.051423560827970505 0.026987867429852486 0.19699999690055847 255 216 228
0.052150171250104904 0.027124861255288124 0.1979999989271164 255 217 232
0.05288148298859596 0.027261855080723763 0.19900000095367432 255 217 232
0.05334940925240517 0.027261855080723763 0.19900000095367432 255 210 222
0.05408777669072151 0.02739885076880455 0.20000000298023224 254 194 206
0.006326030939817429 0.026754364371299744 0.19200000166893005 254 255 184
0.0067421989515423775 0.026615018025040627 0.19099999964237213 255 255 186
0.007191315293312073 0.026615018025040627 0.19099999964237213 255 255 205
0.007600429002195597 0.02647567167878151 0.1899999976158142 252 252 201
0.008004840463399887 0.02633632719516754 0.1889999955892563 254 255 232
0.008449253626167774 0.02633632719516754 0.1889999955892563 255 255 233
0.00884661078453064 0.026196980848908424 0.18799999356269836 254 255 245
0.009239264763891697 0.026057634502649307 0.18700000643730164 254 255 245
0.00967897567898035 0.026057634502649307 0.18700000643730164 254 255 249
0.01006457582116127 0.02591829001903534 0.1860000044107437 254 255 249
0.01050193514674902 0.02591829001903534 0.1860000044107437 254 255 249
0.010939294472336769 0.02591829001903534 0.1860000044107437 254 255 249
0.011315489187836647 0.025778943672776222 0.1850000023841858 254 255 251
0.011750496923923492 0.025778943672776222 0.1850000023841858 254 255 251
0.012185504660010338 0.025778943672776222 0.1850000023841858 254 255 251
0.012620512396097183 0.025778943672776222 0.1850000023841858 254 255 251
0.013055521063506603 0.025778943672776222 0.1850000023841858 254 255 251
0.013490528799593449 0.025778943672776222 0.1850000023841858 254 255 251
0.013925536535680294 0.025778943672776222 0.1850000023841858 254 255 251
0.01436054427176714 0.025778943672776222 0.1850000023841858 254 255 251
0.01471557654440403 0.025639599189162254 0.18400000035762787 254 255 251
0.015148232690989971 0.025639599189162254 0.18400000035762787 254 255 251
0.015580888837575912 0.025639599189162254 0.18400000035762787 254 255 251
0.01592651568353176 0.025500252842903137 0.18299999833106995 254 255 251
0.0163568202406168 0.025500252842903137 0.18299999833106995 254 255 251
0.016787126660346985 0.025500252842903137 0.18299999833106995 254 255 251
0.017123347148299217 0.02536090649664402 0.18199999630451202 244 246 233
0.017551301047205925 0.02536090649664402 0.18199999630451202 245 247 234
0.017979254946112633 0.02536090649664402 0.18199999630451202 253 255 242
0.01840720698237419 0.02536090649664402 0.18199999630451202 254 255 243
0.018731672316789627 0.025221562013030052 0.1809999942779541 254 255 247
0.019157273694872856 0.025221562013030052 0.1809999942779541 254 255 247
0.019582876935601234 0.025221562013030052 0.1809999942779541 254 255 249
0.019897934049367905 0.025082215666770935 0.18000000715255737 254 255 249
0.020321184769272804 0.025082215666770935 0.18000000715255737 254 255 249
0.020744435489177704 0.025082215666770935 0.18000000715255737 254 255 249
0.021167688071727753 0.025082215666770935 0.18000000715255737 254 255 249
0.021590938791632652 0.025082215666770935 0.18000000715255737 254 255 249
0.022014189511537552 0.025082215666770935 0.18000000715255737 253 255 237
0.02243744023144245 0.025082215666770935 0.18000000715255737 222 224 206
0.02286069095134735 0.025082215666770935 0.18000000715255737 250 253 235
0.02328394167125225 0.025082215666770935 0.18000000715255737 254 255 239
0.02370719239115715 0.025082215666770935 0.18000000715255737 254 255 245
0.02413044311106205 0.025082215666770935 0.18000000715255737 254 255 245
0.02455369383096695 0.025082215666770935 0.18000000715255737 254 255 247
0.024976946413517 0.025082215666770935 0.18000000715255737 254 255 247
0.025400197133421898 0.025082215666770935 0.18000000715255737 254 255 245
0.025823447853326797 0.025082215666770935 0.18000000715255737 254 255 245
0.026246698573231697 0.025082215666770935 0.18000000715255737 253 255 240
0.026669949293136597 0.025082215666770935 0.18000000715255737 253 255 240
0.0272437185049057 0.025221562013030052 0.1809999942779541 253 251 230
0.02766931988298893 0.025221562013030052 0.1809999942779541 248 246 225
0.028094923123717308 0.025221562013030052 0.1809999942779541 238 231 210
0.028520524501800537 0.025221562013030052 0.1809999942779541 251 244 223
0.028946127742528915 0.025221562013030052 0.1809999942779541 254 255 236
0.029371729120612144 0.025221562013030052 0.1809999942779541 255 255 237
0.029797332361340523 0.025221562013030052 0.1809999942779541 254 255 245
0.030222933739423752 0.025221562013030052 0.1809999942779541 254 255 245
0.03064853698015213 0.025221562013030052 0.1809999942779541 254 255 247
0.03107413835823536 0.025221562013030052 0.1809999942779541 254 255 247
0.03149973973631859 0.025221562013030052 0.1809999942779541 254 255 249
0.03192534297704697 0.025221562013030052 0.1809999942779541 254 255 249
0.032350946217775345 0.025221562013030052 0.1809999942779541 254 255 245
0.03277654945850372 0.025221562013030052 0.1809999942779541 254 255 245
0.0332021489739418 0.025221562013030052 0.1809999942779541 248 247 232
0.03362775221467018 0.025221562013030052 0.1809999942779541 240 239 224
0.03405335545539856 0.025221562013030052 0.1809999942779541 255 255 237
0.03447895869612694 0.025221562013030052 0.1809999942779541 255 255 237
0.0350974015891552 0.02536090649664402 0.18199999630451202 254 255 243
0.035525355488061905 0.02536090649664402 0.18199999630451202 254 255 243
0.03595330938696861 0.02536090649664402 0.18199999630451202 254 255 247
0.03638126328587532 0.02536090649664402 0.18199999630451202 254 255 247
0.037011466920375824 0.025500252842903137 0.18299999833106995 254 255 249
0.03744177147746086 0.025500252842903137 0.18299999833106995 254 255 249
0.0378720760345459 0.025500252842903137 0.18299999833106995 254 255 249
0.03851168230175972 0.025639599189162254 0.18400000035762787 246 247 241
0.038944341242313385 0.025639599189162254 0.18400000035762787 242 228 222
0.03959100320935249 0.025778943672776222 0.1850000023841858 243 229 223
0.04002600908279419 0.025778943672776222 0.1850000023841858 243 227 222
0.040679726749658585 0.02591829001903534 0.1860000044107437 255 241 236
0.04111708700656891 0.02591829001903534 0.1860000044107437 255 254 247
0.041554443538188934 0.02591829001903534 0.1860000044107437 255 254 247
0.042217567563056946 0.026057634502649307 0.18700000643730164 254 255 249
0.0426572784781456 0.026057634502649307 0.18700000643730164 254 255 249
0.0433274544775486 0.026196980848908424 0.18799999356269836 254 255 251
0.04376951605081558 0.026196980848908424 0.18799999356269836 254 255 251
0.044211577624082565 0.026196980848908424 0.18799999356269836 255 251 249
0.04489115998148918 0.02633632719516754 0.1889999955892563 247 237 235
0.045335572212934494 0.02633632719516754 0.1889999955892563 237 209 206
0.0460222065448761 0.02647567167878151 0.1899999976158142 246 218 215
0.04646897315979004 0.02647567167878151 0.1899999976158142 253 222 222
0.04716266319155693 0.026615018025040627 0.19099999964237213 255 228 228
0.04786105453968048 0.026754364371299744 0.19200000166893005 255 233 235
0.04856415092945099 0.02689370885491371 0.19300000369548798 255 230 232
0.049271948635578156 0.02703305520117283 0.1940000057220459 245 202 208
0.04998445138335228 0.027172399684786797 0.19499999284744263 227 184 190
0.05070165544748306 0.027311746031045914 0.19599999487400055 238 182 195
0.051423560827970505 0.02745109237730503 0.19699999690055847 240 184 197
0.05188678577542305 0.02745109237730503 0.19699999690055847 255 201 217
0.05261574685573578 0.027590436860919 0.1979999989271164 255 214 230
0.05334940925240517 0.027729783207178116 0.19900000095367432 255 197 209
0.05408777669072151 0.027869129553437233 0.20000000298023224 255 195 207
0.006326030939817429 0.027205830439925194 0.19200000166893005 255 253 180
0.007191315293312073 0.027064133435487747 0.19099999964237213 255 248 187
0.007600429002195597 0.0269224364310503 0.1899999976158142 237 227 166
0.008004840463399887 0.026780739426612854 0.1889999955892563 255 255 222
0.008449253626167774 0.026780739426612854 0.1889999955892563 255 255 225
0.00884661078453064 0.026639042422175407 0.18799999356269836 254 255 243
0.009239264763891697 0.02649734541773796 0.18700000643730164 254 255 243
0.00967897567898035 0.02649734541773796 0.18700000643730164 254 255 249
0.01006457582116127 0.026355648413300514 0.1860000044107437 254 255 249
0.01050193514674902 0.026355648413300514 0.1860000044107437 254 255 249
0.010939294472336769 0.026355648413300514 0.1860000044107437 254 255 249
0.011315489187836647 0.026213951408863068 0.1850000023841858 254 255 251
0.011750496923923492 0.026213951408863068 0.1850000023841858 254 255 251
0.012185504660010338 0.026213951408863068 0.1850000023841858 254 255 251
0.012620512396097183 0.026213951408863068 0.1850000023841858 254 255 251
0.013055521063506603 0.026213951408863068 0.1850000023841858 254 255 251
0.013490528799593449 0.026213951408863068 0.1850000023841858 254 255 251
0.013925536535680294 0.026213951408863068 0.1850000023841858 254 255 251
0.01436054427176714 0.026213951408863068 0.1850000023841858 254 255 251
0.014795552007853985 0.026213951408863068 0.1850000023841858 254 255 251
0.015148232690989971 0.02607225440442562 0.18400000035762787 254 255 251
0.015580888837575912 0.02607225440442562 0.18400000035762787 254 255 251
0.01592651568353176 0.025930557399988174 0.18299999833106995 254 255 251
0.0163568202406168 0.025930557399988174 0.18299999833106995 254 255 249
0.016787126660346985 0.025930557399988174 0.18299999833106995 254 255 249
0.017123347148299217 0.025788860395550728 0.18199999630451202 253 255 233
0.017551301047205925 0.025788860395550728 0.18199999630451202 250 253 230
0.017979254946112633 0.025788860395550728 0.18199999630451202 254 255 239
0.01840720698237419 0.025788860395550728 0.18199999630451202 254 255 239
0.018731672316789627 0.02564716339111328 0.1809999942779541 254 255 247
0.019157273694872856 0.02564716339111328 0.1809999942779541 254 255 247
0.019582876935601234 0.02564716339111328 0.1809999942779541 254 255 249
0.020008478313684464 0.02564716339111328 0.1809999942779541 254 255 249
0.020321184769272804 0.025505466386675835 0.18000000715255737 254 255 249
0.020744435489177704 0.025505466386675835 0.18000000715255737 254 255 249
0.021167688071727753 0.025505466386675835 0.18000000715255737 254 255 245
0.021590938791632652 0.025505466386675835 0.18000000715255737 254 255 245
0.022014189511537552 0.025505466386675835 0.18000000715255737 255 253 228
0.02243744023144245 0.025505466386675835 0.18000000715255737 210 206 181
0.02286069095134735 0.025505466386675835 0.18000000715255737 233 234 207
0.02328394167125225 0.025505466386675835 0.18000000715255737 255 255 231
0.02370719239115715 0.025505466386675835 0.18000000715255737 254 255 241
0.02413044311106205 0.025505466386675835 0.18000000715255737 254 255 241
0.02455369383096695 0.025505466386675835 0.18000000715255737 254 255 243
0.024976946413517 0.025505466386675835 0.18000000715255737 253 255 242
0.025400197133421898 0.025505466386675835 0.18000000715255737 253 255 240
0.025823447853326797 0.025505466386675835 0.18000000715255737 253 255 240
0.026246698573231697 0.025505466386675835 0.18000000715255737 253 255 234
0.026669949293136597 0.025505466386675835 0.18000000715255737 253 255 234
0.0272437185049057 0.02564716339111328 0.1809999942779541 249 248 222
0.02766931988298893 0.02564716339111328 0.1809999942779541 229 228 202
0.028094923123717308 0.02564716339111328 0.1809999942779541 233 221 194
0.028520524501800537 0.02564716339111328 0.1809999942779541 248 236 209
0.028946127742528915 0.02564716339111328 0.1809999942779541 255 255 231
0.029371729120612144 0.02564716339111328 0.1809999942779541 255 255 231
0.029797332361340523 0.02564716339111328 0.1809999942779541 254 255 239
0.030222933739423752 0.02564716339111328 0.1809999942779541 254 255 239
0.03064853698015213 0.02564716339111328 0.1809999942779541 254 255 245
0.03107413835823536 0.02564716339111328 0.1809999942779541 254 255 245
0.03149973973631859 0.02564716339111328 0.1809999942779541 254 255 245
0.03192534297704697 0.02564716339111328 0.1809999942779541 254 255 245
0.032350946217775345 0.02564716339111328 0.1809999942779541 254 255 242
0.03277654945850372 0.02564716339111328 0.1809999942779541 255 255 243
0.0332021489739418 0.02564716339111328 0.1809999942779541 242 237 219
0.03362775221467018 0.02564716339111328 0.1809999942779541 222 217 199
0.03405335545539856 0.02564716339111328 0.1809999942779541 255 253 227
0.03466944769024849 0.025788860395550728 0.18199999630451202 255 254 228
0.0350974015891552 0.025788860395550728 0.18199999630451202 254 255 239
0.035525355488061905 0.025788860395550728 0.18199999630451202 254 255 239
0.03595330938696861 0.025788860395550728 0.18199999630451202 254 255 247
0.03658116236329079 0.025930557399988174 0.18299999833106995 254 255 247
0.037011466920375824 0.025930557399988174 0.18299999833106995 254 255 249
0.03744177147746086 0.025930557399988174 0.18299999833106995 254 255 249
0.03807902708649635 0.02607225440442562 0.18400000035762787 255 255 249
0.03851168230175972 0.02607225440442562 0.18400000035762787 254 254 248
0.038944341242313385 0.02607225440442562 0.18400000035762787 247 228 222
0.03959100320935249 0.026213951408863068 0.1850000023841858 239 220 214
0.04002600908279419 0.026213951408863068 0.1850000023841858 250 224 220
0.040679726749658585 0.026355648413300514 0.1860000044107437 255 239 235
