0.060529597103595734 0.005144950468093157 0.16500000655651093 255 69 74
0.06128677353262901 0.005176132079213858 0.16599999368190765 253 66 71
0.061677105724811554 0.005176132079213858 0.16599999368190765 250 66 70
0.062067434191703796 0.005176132079213858 0.16599999368190765 247 63 67
0.06245776638388634 0.005176132079213858 0.16599999368190765 254 79 80
0.06284809857606888 0.005176132079213858 0.16599999368190765 249 74 75
0.06323842704296112 0.005176132079213858 0.16599999368190765 250 92 96
0.06324545294046402 0.005144950468093157 0.16500000655651093 255 97 101
0.06363343447446823 0.005144950468093157 0.16500000655651093 255 103 115
0.06363340467214584 0.005113768856972456 0.164000004529953 255 102 114
0.06401903927326202 0.005113768856972456 0.164000004529953 255 115 128
0.06440466642379761 0.005113768856972456 0.164000004529953 236 93 106
0.06518535315990448 0.005144950468093157 0.16500000655651093 206 75 84
0.0834689661860466 0.004240686539560556 0.13600000739097595 229 164 155
0.08378876000642776 0.004240686539560556 0.13600000739097595 216 164 153
0.08349010348320007 0.004209504928439856 0.13500000536441803 216 164 153
0.08380754292011261 0.004209504928439856 0.13500000536441803 212 167 156
0.08412497490644455 0.004209504928439856 0.13500000536441803 207 162 151
0.10812654346227646 0.005176132079213858 0.16599999368190765 208 159 160
0.08890539407730103 0.004240686539560556 0.13600000739097595 206 157 158
0.08922518044710159 0.004240686539560556 0.13600000739097595 207 158 159
0.08954496681690216 0.004240686539560556 0.13600000739097595 210 159 159
0.09052553027868271 0.00427186768501997 0.13699999451637268 202 151 151
0.0908476710319519 0.00427186768501997 0.13699999451637268 202 149 147
0.06014161556959152 0.005532930605113506 0.16500000655651093 255 71 73
0.060529597103595734 0.005532930605113506 0.16500000655651093 255 68 73
0.06128677353262901 0.005566463340073824 0.16599999368190765 254 67 72
0.061677105724811554 0.005566463340073824 0.16599999368190765 255 72 73
0.062067434191703796 0.005566463340073824 0.16599999368190765 255 72 73
0.06170526519417763 0.005499397404491901 0.164000004529953 255 79 78
0.06171229109168053 0.005465864669531584 0.16300000250339508 252 76 75
0.06209556758403778 0.005465864669531584 0.16300000250339508 246 85 90
0.062478844076395035 0.005465864669531584 0.16300000250339508 255 95 100
0.06247646361589432 0.005432331468909979 0.16200000047683716 254 100 112
0.06285738945007324 0.005432331468909979 0.16200000047683716 251 97 109
0.06284795701503754 0.005398798733949661 0.16099999845027924 250 107 122
0.06322652846574783 0.005398798733949661 0.16099999845027924 251 108 123
0.06400016695261002 0.005432331468909979 0.16200000047683716 208 77 86
0.0667608454823494 0.0055999960750341415 0.16699999570846558 208 87 93
0.06715352833271027 0.0055999960750341415 0.16699999570846558 214 93 99
0.06795068085193634 0.0056335292756557465 0.1679999977350235 210 94 100
0.06488853693008423 0.004895804915577173 0.1459999978542328 255 248 227
0.06523183733224869 0.004895804915577173 0.1459999978542328 255 251 236
0.06557514518499374 0.004895804915577173 0.1459999978542328 255 251 236
0.0659184455871582 0.004895804915577173 0.1459999978542328 255 245 245
0.06626175343990326 0.004895804915577173 0.1459999978542328 255 230 230
0.06660505384206772 0.004895804915577173 0.1459999978542328 250 198 205
0.06694836169481277 0.004895804915577173 0.1459999978542328 218 166 173
0.0825095996260643 0.004560476168990135 0.13600000739097595 255 213 207
0.08282938599586487 0.004560476168990135 0.13600000739097595 245 192 186
0.08314917981624603 0.004560476168990135 0.13600000739097595 240 190 183
0.0834689661860466 0.004560476168990135 0.13600000739097595 232 182 175
0.08378876000642776 0.004560476168990135 0.13600000739097595 223 183 170
0.08349010348320007 0.00452694296836853 0.13500000536441803 216 176 163
0.08380754292011261 0.00452694296836853 0.13500000536441803 202 166 154
0.08858560025691986 0.004560476168990135 0.13600000739097595 201 161 164
0.08890539407730103 0.004560476168990135 0.13600000739097595 207 159 167
0.09313325583934784 0.00462754163891077 0.1379999965429306 207 146 149
0.09345774352550507 0.00462754163891077 0.1379999965429306 207 156 158
0.06089644134044647 0.00595679460093379 0.16599999368190765 255 75 80
0.06128677353262901 0.00595679460093379 0.16599999368190765 255 72 77
0.06170526519417763 0.005885025952011347 0.164000004529953 255 75 78
0.06095508486032486 0.005777372978627682 0.16099999845027924 255 78 81
0.06095270439982414 0.00574148865416646 0.1599999964237213 244 83 88
0.06132892519235611 0.00574148865416646 0.1599999964237213 255 97 102
0.061705149710178375 0.00574148865416646 0.1599999964237213 255 105 116
0.06208137422800064 0.00574148865416646 0.1599999964237213 255 105 116
0.06284795701503754 0.005777372978627682 0.16099999845027924 252 107 123
0.06204839423298836 0.005669720470905304 0.15800000727176666 255 110 126
0.062419917434453964 0.005669720470905304 0.15800000727176666 254 119 133
0.06279143691062927 0.005669720470905304 0.15800000727176666 255 128 142
0.06152389198541641 0.0054902988485991955 0.15299999713897705 255 133 143
0.061883654445409775 0.0054902988485991955 0.15299999713897705 249 128 134
0.0630570575594902 0.005562067497521639 0.1550000011920929 226 105 111
0.06342152506113052 0.005562067497521639 0.1550000011920929 208 95 100
0.06454523652791977 0.005239108577370644 0.1459999978542328 255 255 241
0.06488853693008423 0.005239108577370644 0.1459999978542328 255 254 240
0.06523183733224869 0.005239108577370644 0.1459999978542328 255 253 246
0.06557514518499374 0.005239108577370644 0.1459999978542328 255 254 247
0.0659184455871582 0.005239108577370644 0.1459999978542328 255 252 249
0.06626175343990326 0.005239108577370644 0.1459999978542328 255 252 249
0.06660505384206772 0.005239108577370644 0.1459999978542328 255 241 241
0.0664898082613945 0.005203224252909422 0.14499999582767487 250 219 219
0.06683076173067093 0.005203224252909422 0.14499999582767487 244 195 196
0.06717171519994736 0.005203224252909422 0.14499999582767487 210 161 162
0.06994394958019257 0.0051314556039869785 0.14300000667572021 255 254 249
0.07028020173311234 0.0051314556039869785 0.14300000667572021 255 254 249
0.07061644643545151 0.0051314556039869785 0.14300000667572021 255 254 251
0.06994853913784027 0.004987918306142092 0.13899999856948853 255 253 245
0.06976979970932007 0.00495203398168087 0.1379999965429306 255 253 245
0.07009429484605789 0.00495203398168087 0.1379999965429306 255 246 239
0.07041878998279572 0.00495203398168087 0.1379999965429306 255 230 223
0.07074327766895294 0.00495203398168087 0.1379999965429306 241 186 192
0.081550233066082 0.004880265332758427 0.13600000739097595 212 159 155
0.08187001943588257 0.004880265332758427 0.13600000739097595 255 232 221
0.08218980580568314 0.004880265332758427 0.13600000739097595 255 241 230
0.0825095996260643 0.004880265332758427 0.13600000739097595 255 232 223
0.08282938599586487 0.004880265332758427 0.13600000739097595 234 196 187
0.08314917981624603 0.004880265332758427 0.13600000739097595 218 180 171
0.0834689661860466 0.004880265332758427 0.13600000739097595 206 168 159
0.08317266404628754 0.004844381473958492 0.13500000536441803 210 169 159
0.0873064398765564 0.004880265332758427 0.13600000739097595 207 158 148
0.08762623369693756 0.004880265332758427 0.13600000739097595 225 178 177
0.08794602006673813 0.004880265332758427 0.13600000739097595 215 168 167
0.08858560025691986 0.004880265332758427 0.13600000739097595 203 163 164
0.08890539407730103 0.004880265332758427 0.13600000739097595 204 161 165
0.09020338952541351 0.004916149657219648 0.13699999451637268 202 155 156
0.09052553027868271 0.004916149657219648 0.13699999451637268 201 154 155
0.0908476710319519 0.004916149657219648 0.13699999451637268 202 152 149
0.05977712199091911 0.006270654499530792 0.164000004529953 250 61 69
0.06095508486032486 0.0061559476889669895 0.16099999845027924 250 73 77
0.06095270439982414 0.006117711775004864 0.1599999964237213 251 90 95
0.060562316328287125 0.0060412404127418995 0.15800000727176666 255 99 104
0.06093383580446243 0.0060412404127418995 0.15800000727176666 255 109 119
0.06208137422800064 0.006117711775004864 0.1599999964237213 255 108 118
0.06126297265291214 0.005964769050478935 0.15600000321865082 255 114 131
0.0612347275018692 0.005926533602178097 0.1550000011920929 255 122 140
0.061201781034469604 0.005888297688215971 0.15399999916553497 255 126 144
0.06116412952542305 0.0058500622399151325 0.15299999713897705 255 130 142
0.061121776700019836 0.005811826325953007 0.15199999511241913 255 140 152
0.06147918850183487 0.005811826325953007 0.15199999511241913 255 144 149
0.0618366003036499 0.005811826325953007 0.15199999511241913 223 104 109
0.06178484112024307 0.005773590411990881 0.1509999930858612 216 105 107
0.062139902263879776 0.005773590411990881 0.1509999930858612 215 104 106
0.06249495968222618 0.005773590411990881 0.1509999930858612 201 94 95
0.06360470503568649 0.0056206476874649525 0.1469999998807907 255 237 216
0.0635153204202652 0.005582412239164114 0.1459999978542328 255 246 225
0.06385862827301025 0.005582412239164114 0.1459999978542328 255 255 238
0.06420192867517471 0.005582412239164114 0.1459999978542328 255 255 239
0.06454523652791977 0.005582412239164114 0.1459999978542328 255 255 247
0.06488853693008423 0.005582412239164114 0.1459999978542328 255 255 247
0.06523183733224869 0.005582412239164114 0.1459999978542328 255 255 249
0.06557514518499374 0.005582412239164114 0.1459999978542328 255 255 249
0.0659184455871582 0.005582412239164114 0.1459999978542328 255 255 249
0.06626175343990326 0.005582412239164114 0.1459999978542328 255 255 249
0.06660505384206772 0.005582412239164114 0.1459999978542328 255 251 246
0.0664898082613945 0.005544176325201988 0.14499999582767487 248 237 232
0.06683076173067093 0.005544176325201988 0.14499999582767487 255 229 228
0.06717171519994736 0.005544176325201988 0.14499999582767487 251 223 222
0.06751266121864319 0.005544176325201988 0.14499999582767487 251 201 207
0.06945483386516571 0.0054294695146381855 0.1420000046491623 254 255 249
0.06978873163461685 0.0054294695146381855 0.1420000046491623 254 255 249
0.070122629404068 0.0054294695146381855 0.1420000046491623 254 255 249
0.07045652717351913 0.0054294695146381855 0.1420000046491623 254 255 249
0.07079042494297028 0.0054294695146381855 0.1420000046491623 254 255 249
0.07012256979942322 0.005352998152375221 0.14000000059604645 254 255 249
0.06994853913784027 0.0053147622384130955 0.13899999856948853 254 255 249
0.06976979970932007 0.00527652632445097 0.1379999965429306 254 255 249
0.07009429484605789 0.00527652632445097 0.1379999965429306 255 251 249
0.07041878998279572 0.00527652632445097 0.1379999965429306 255 251 249
0.07074327766895294 0.00527652632445097 0.1379999965429306 255 224 231
0.07055278867483139 0.005238290876150131 0.13699999451637268 226 181 188
0.07151921093463898 0.005238290876150131 0.13699999451637268 249 222 216
0.07236573845148087 0.00527652632445097 0.1379999965429306 255 243 237
0.07269023358821869 0.00527652632445097 0.1379999965429306 255 249 241
0.07714133709669113 0.005161819513887167 0.13500000536441803 239 177 174
0.07745877653360367 0.005161819513887167 0.13500000536441803 244 182 179
0.0777762159705162 0.005161819513887167 0.13500000536441803 248 186 183
0.07809365540742874 0.005161819513887167 0.13500000536441803 252 193 186
0.07841108739376068 0.005161819513887167 0.13500000536441803 255 198 191
0.07872852683067322 0.005161819513887167 0.13500000536441803 244 196 192
0.07904596626758575 0.005161819513887167 0.13500000536441803 238 190 186
0.07936340570449829 0.005161819513887167 0.13500000536441803 227 188 186
0.08027107268571854 0.0052000549621880054 0.13600000739097595 222 183 181
0.0805908590555191 0.0052000549621880054 0.13600000739097595 218 179 177
0.08091065287590027 0.0052000549621880054 0.13600000739097595 211 172 170
0.08123043924570084 0.0052000549621880054 0.13600000739097595 211 170 162
0.081550233066082 0.0052000549621880054 0.13600000739097595 209 168 160
0.08187001943588257 0.0052000549621880054 0.13600000739097595 255 216 201
0.08218980580568314 0.0052000549621880054 0.13600000739097595 255 230 215
0.0825095996260643 0.0052000549621880054 0.13600000739097595 253 218 203
0.08282938599586487 0.0052000549621880054 0.13600000739097595 219 184 169
0.08314917981624603 0.0052000549621880054 0.13600000739097595 216 175 165
0.082855224609375 0.005161819513887167 0.13500000536441803 204 163 153
0.08698665350675583 0.0052000549621880054 0.13600000739097595 214 165 155
0.0873064398765564 0.0052000549621880054 0.13600000739097595 217 168 158
0.08762623369693756 0.0052000549621880054 0.13600000739097595 221 175 171
0.08794602006673813 0.0052000549621880054 0.13600000739097595 215 169 165
0.0882658138871193 0.0052000549621880054 0.13600000739097595 213 170 172
0.08858560025691986 0.0052000549621880054 0.13600000739097595 213 170 172
0.08890539407730103 0.0052000549621880054 0.13600000739097595 203 159 168
0.08922518044710159 0.0052000549621880054 0.13600000739097595 201 157 166
0.09020338952541351 0.005238290876150131 0.13699999451637268 202 157 160
0.05977712199091911 0.006656283512711525 0.164000004529953 247 58 64
0.060529597103595734 0.0066968705505132675 0.16500000655651093 255 74 73
0.058666978031396866 0.006250412203371525 0.15399999916553497 255 101 108
0.05902909114956856 0.006250412203371525 0.15399999916553497 255 101 108
0.05977686494588852 0.006290999706834555 0.1550000011920929 254 107 119
0.06014132872223854 0.006290999706834555 0.1550000011920929 254 107 119
0.06011543422937393 0.006250412203371525 0.15399999916553497 250 110 126
0.06047755107283592 0.006250412203371525 0.15399999916553497 255 115 131
0.06044460088014603 0.006209825165569782 0.15299999713897705 254 118 135
0.06080436706542969 0.006209825165569782 0.15299999713897705 255 120 137
0.06116412952542305 0.006209825165569782 0.15299999713897705 255 133 144
0.061121776700019836 0.00616923812776804 0.15199999511241913 255 138 149
0.06147918850183487 0.00616923812776804 0.15199999511241913 255 150 156
0.06142977997660637 0.006128651089966297 0.1509999930858612 255 140 146
0.06178484112024307 0.006128651089966297 0.1509999930858612 244 135 137
0.062139902263879776 0.006128651089966297 0.1509999930858612 220 111 113
0.06208108738064766 0.006088064052164555 0.15000000596046448 208 104 104
0.06243379786610603 0.006088064052164555 0.15000000596046448 206 102 102
0.06360470503568649 0.005966302938759327 0.1469999998807907 255 250 229
0.0635153204202652 0.005925715435296297 0.1459999978542328 255 251 230
0.06385862827301025 0.005925715435296297 0.1459999978542328 254 255 243
0.06420192867517471 0.005925715435296297 0.1459999978542328 254 255 243
0.06454523652791977 0.005925715435296297 0.1459999978542328 254 255 249
0.06488853693008423 0.005925715435296297 0.1459999978542328 254 255 249
0.06523183733224869 0.005925715435296297 0.1459999978542328 254 255 249
0.06557514518499374 0.005925715435296297 0.1459999978542328 254 255 249
0.0659184455871582 0.005925715435296297 0.1459999978542328 254 255 249
0.06626175343990326 0.005925715435296297 0.1459999978542328 254 255 249
0.06660505384206772 0.005925715435296297 0.1459999978542328 255 255 249
0.0664898082613945 0.0058851283974945545 0.14499999582767487 255 255 249
0.06683076173067093 0.0058851283974945545 0.14499999582767487 255 250 244
0.06717171519994736 0.0058851283974945545 0.14499999582767487 255 250 244
0.06704705953598022 0.005844541359692812 0.14399999380111694 255 228 227
0.06738565862178802 0.005844541359692812 0.14399999380111694 255 222 221
0.0672539547085762 0.005803954321891069 0.14300000667572021 247 200 201
0.06759020686149597 0.005803954321891069 0.14300000667572021 202 155 156
0.0677853375673294 0.005763367284089327 0.1420000046491623 255 242 240
0.06811923533678055 0.005763367284089327 0.1420000046491623 255 255 249
0.06845313310623169 0.005763367284089327 0.1420000046491623 255 255 249
0.06878703087568283 0.005763367284089327 0.1420000046491623 254 255 249
0.06912093609571457 0.005763367284089327 0.1420000046491623 254 255 249
0.06945483386516571 0.005763367284089327 0.1420000046491623 254 255 249
0.06978873163461685 0.005763367284089327 0.1420000046491623 254 255 249
0.070122629404068 0.005763367284089327 0.1420000046491623 254 255 251
0.07045652717351913 0.005763367284089327 0.1420000046491623 254 255 251
0.07079042494297028 0.005763367284089327 0.1420000046491623 254 255 251
0.07012256979942322 0.005682193208485842 0.14000000059604645 254 255 251
0.06994853913784027 0.005641606170684099 0.13899999856948853 254 255 251
0.06976979970932007 0.005601019132882357 0.1379999965429306 254 255 251
0.07009429484605789 0.005601019132882357 0.1379999965429306 255 253 249
0.07041878998279572 0.005601019132882357 0.1379999965429306 255 252 248
0.07074327766895294 0.005601019132882357 0.1379999965429306 255 219 223
0.07055278867483139 0.005560431629419327 0.13699999451637268 234 196 200
0.07119707018136978 0.005560431629419327 0.13699999451637268 222 175 176
0.07151921093463898 0.005560431629419327 0.13699999451637268 255 249 242
0.07236573845148087 0.005601019132882357 0.1379999965429306 255 250 243
0.07269023358821869 0.005601019132882357 0.1379999965429306 255 252 245
0.07301472872495651 0.005601019132882357 0.1379999965429306 255 251 244
0.07366371154785156 0.005601019132882357 0.1379999965429306 255 237 236
0.07345205545425415 0.005560431629419327 0.13699999451637268 248 212 214
0.07377419620752335 0.005560431629419327 0.13699999451637268 255 220 222
0.07409633696079254 0.005560431629419327 0.13699999451637268 255 226 228
0.07441847771406174 0.005560431629419327 0.13699999451637268 241 205 207
0.07474061846733093 0.005560431629419327 0.13699999451637268 233 203 198
0.07451485842466354 0.005519844591617584 0.13600000739097595 231 201 196
0.07483465224504471 0.005519844591617584 0.13600000739097595 230 203 195
0.07515443861484528 0.005519844591617584 0.13600000739097595 236 209 201
0.07547422498464584 0.005519844591617584 0.13600000739097595 231 190 182
0.07579401880502701 0.005519844591617584 0.13600000739097595 218 177 169
0.07611380517482758 0.005519844591617584 0.13600000739097595 206 159 148
0.0768238976597786 0.005479257553815842 0.13500000536441803 255 214 211
0.07714133709669113 0.005479257553815842 0.13500000536441803 255 210 207
0.07803254574537277 0.005519844591617584 0.13600000739097595 255 204 211
0.0777762159705162 0.005479257553815842 0.13500000536441803 255 205 212
0.07809365540742874 0.005479257553815842 0.13500000536441803 252 201 201
0.07841108739376068 0.005479257553815842 0.13500000536441803 244 193 193
0.07872852683067322 0.005479257553815842 0.13500000536441803 236 186 183
0.07904596626758575 0.005479257553815842 0.13500000536441803 228 178 175
0.07936340570449829 0.005479257553815842 0.13500000536441803 219 177 174
0.08027107268571854 0.005519844591617584 0.13600000739097595 215 173 170
0.0805908590555191 0.005519844591617584 0.13600000739097595 211 170 164
0.08091065287590027 0.005519844591617584 0.13600000739097595 205 164 158
0.08123043924570084 0.005519844591617584 0.13600000739097595 202 161 153
0.08218980580568314 0.005519844591617584 0.13600000739097595 226 186 173
0.0825095996260643 0.005519844591617584 0.13600000739097595 228 186 174
0.08282938599586487 0.005519844591617584 0.13600000739097595 214 172 160
0.08314917981624603 0.005519844591617584 0.13600000739097595 221 171 164
0.082855224609375 0.005479257553815842 0.13500000536441803 202 152 145
0.08762623369693756 0.005519844591617584 0.13600000739097595 218 172 166
0.08794602006673813 0.005519844591617584 0.13600000739097595 212 166 160
0.0882658138871193 0.005519844591617584 0.13600000739097595 211 167 167
0.08858560025691986 0.005519844591617584 0.13600000739097595 204 160 160
0.06014161556959152 0.007084850687533617 0.16500000655651093 254 67 72
0.060529597103595734 0.007084850687533617 0.16500000655651093 255 74 71
0.058666978031396866 0.006612527184188366 0.15399999916553497 255 107 118
0.05902909114956856 0.006612527184188366 0.15399999916553497 255 105 116
0.05939120799303055 0.006612527184188366 0.15399999916553497 254 109 123
0.05936531350016594 0.006569588556885719 0.15299999713897705 255 110 124
0.0597250759601593 0.006569588556885719 0.15299999713897705 254 117 130
0.060084838420152664 0.006569588556885719 0.15299999713897705 253 116 129
0.06044460088014603 0.006569588556885719 0.15299999713897705 253 118 130
0.06040695309638977 0.006526649929583073 0.15199999511241913 255 123 135
0.0607643648982048 0.006526649929583073 0.15199999511241913 255 138 149
0.061121776700019836 0.006526649929583073 0.15199999511241913 255 138 149
0.061074718832969666 0.006483711767941713 0.1509999930858612 255 148 153
0.06142977997660637 0.006483711767941713 0.1509999930858612 255 148 153
0.06178484112024307 0.006483711767941713 0.1509999930858612 255 151 152
0.061728376895189285 0.006440773140639067 0.15000000596046448 255 155 156
0.06208108738064766 0.006440773140639067 0.15000000596046448 234 131 128
0.06243379786610603 0.006440773140639067 0.15000000596046448 212 109 106
0.06236792728304863 0.00639783451333642 0.14900000393390656 212 117 111
0.06271828711032867 0.00639783451333642 0.14900000393390656 213 118 112
0.06264536082744598 0.006354896351695061 0.14800000190734863 215 127 119
0.0629933699965477 0.006354896351695061 0.14800000190734863 213 125 117
0.0632590502500534 0.006311957724392414 0.1469999998807907 255 224 213
0.06360470503568649 0.006311957724392414 0.1469999998807907 255 255 237
0.0635153204202652 0.0062690190970897675 0.1459999978542328 255 255 237
0.06385862827301025 0.0062690190970897675 0.1459999978542328 254 255 247
0.06420192867517471 0.0062690190970897675 0.1459999978542328 254 255 247
0.06454523652791977 0.0062690190970897675 0.1459999978542328 254 255 249
0.06488853693008423 0.0062690190970897675 0.1459999978542328 254 255 249
0.06523183733224869 0.0062690190970897675 0.1459999978542328 254 255 249
0.06557514518499374 0.0062690190970897675 0.1459999978542328 254 255 249
0.0659184455871582 0.0062690190970897675 0.1459999978542328 254 255 249
0.06626175343990326 0.0062690190970897675 0.1459999978542328 254 255 249
0.06660505384206772 0.0062690190970897675 0.1459999978542328 254 255 249
0.0664898082613945 0.006226080935448408 0.14499999582767487 254 255 249
0.06683076173067093 0.006226080935448408 0.14499999582767487 255 255 249
0.06670846045017242 0.0061831423081457615 0.14399999380111694 255 255 249
0.06704705953598022 0.0061831423081457615 0.14399999380111694 255 245 238
0.06691770255565643 0.006140203680843115 0.14300000667572021 255 234 227
0.0672539547085762 0.006140203680843115 0.14300000667572021 251 208 199
0.06759020686149597 0.006140203680843115 0.14300000667572021 237 194 185
0.06745143979787827 0.006097265053540468 0.1420000046491623 255 242 236
0.0677853375673294 0.006097265053540468 0.1420000046491623 255 246 240
0.06811923533678055 0.006097265053540468 0.1420000046491623 255 255 247
0.06845313310623169 0.006097265053540468 0.1420000046491623 255 255 247
0.06878703087568283 0.006097265053540468 0.1420000046491623 254 255 249
0.06912093609571457 0.006097265053540468 0.1420000046491623 254 255 249
0.06945483386516571 0.006097265053540468 0.1420000046491623 254 255 249
0.06978873163461685 0.006097265053540468 0.1420000046491623 254 255 249
0.070122629404068 0.006097265053540468 0.1420000046491623 254 255 249
0.07045652717351913 0.006097265053540468 0.1420000046491623 254 255 249
0.07079042494297028 0.006097265053540468 0.1420000046491623 254 255 249
0.06994853913784027 0.005968449637293816 0.13899999856948853 254 255 249
0.06976979970932007 0.005925511475652456 0.1379999965429306 254 255 249
0.07009429484605789 0.005925511475652456 0.1379999965429306 255 253 251
0.07041878998279572 0.005925511475652456 0.1379999965429306 255 251 249
0.07074327766895294 0.005925511475652456 0.1379999965429306 241 205 209
0.07055278867483139 0.00588257284834981 0.13699999451637268 232 196 200
0.07119707018136978 0.00588257284834981 0.13699999451637268 240 198 195
0.07151921093463898 0.00588257284834981 0.13699999451637268 255 250 243
0.07184135168790817 0.00588257284834981 0.13699999451637268 255 250 243
0.07269023358821869 0.005925511475652456 0.1379999965429306 255 252 247
0.07301472872495651 0.005925511475652456 0.1379999965429306 253 242 237
0.07333921641111374 0.005925511475652456 0.1379999965429306 253 222 222
0.07366371154785156 0.005925511475652456 0.1379999965429306 255 229 229
0.07345205545425415 0.00588257284834981 0.13699999451637268 244 202 201
0.07377419620752335 0.00588257284834981 0.13699999451637268 241 199 198
0.07409633696079254 0.00588257284834981 0.13699999451637268 244 207 204
0.07441847771406174 0.00588257284834981 0.13699999451637268 229 192 189
0.07419507205486298 0.005839634221047163 0.13600000739097595 227 195 191
0.07451485842466354 0.005839634221047163 0.13600000739097595 217 185 181
0.07483465224504471 0.005839634221047163 0.13600000739097595 227 195 189
0.07515443861484528 0.005839634221047163 0.13600000739097595 225 193 187
0.07547422498464584 0.005839634221047163 0.13600000739097595 227 184 175
0.07523670792579651 0.005796696059405804 0.13500000536441803 211 168 159
0.07618902623653412 0.005796696059405804 0.13500000536441803 227 180 167
0.07650645822286606 0.005796696059405804 0.13500000536441803 255 219 206
0.0768238976597786 0.005796696059405804 0.13500000536441803 255 220 216
0.07714133709669113 0.005796696059405804 0.13500000536441803 255 217 213
0.07745877653360367 0.005796696059405804 0.13500000536441803 251 200 211
0.0777762159705162 0.005796696059405804 0.13500000536441803 230 179 190
0.07809365540742874 0.005796696059405804 0.13500000536441803 220 171 170
0.07841108739376068 0.005796696059405804 0.13500000536441803 230 181 180
0.07872852683067322 0.005796696059405804 0.13500000536441803 240 187 185
0.07904596626758575 0.005796696059405804 0.13500000536441803 221 168 166
0.07936340570449829 0.005796696059405804 0.13500000536441803 215 167 161
0.08027107268571854 0.005839634221047163 0.13600000739097595 211 163 157
0.0825095996260643 0.005839634221047163 0.13600000739097595 218 169 159
0.08282938599586487 0.005839634221047163 0.13600000739097595 210 161 151
0.08314917981624603 0.005839634221047163 0.13600000739097595 206 148 144
0.082855224609375 0.005796696059405804 0.13500000536441803 205 147 143
0.08762623369693756 0.005839634221047163 0.13600000739097595 218 170 164
0.08794602006673813 0.005839634221047163 0.13600000739097595 210 162 156
0.0882658138871193 0.005839634221047163 0.13600000739097595 209 164 167
0.057942748069763184 0.00697464169934392 0.15399999916553497 255 88 92
0.058304861187934875 0.00697464169934392 0.15399999916553497 255 87 91
0.058286022394895554 0.006929351948201656 0.15299999713897705 248 92 107
0.058645784854888916 0.006929351948201656 0.15299999713897705 255 103 118
0.05900555104017258 0.006929351948201656 0.15299999713897705 255 112 128
0.05897730588912964 0.006884062197059393 0.15199999511241913 255 115 131
0.05933471769094467 0.006884062197059393 0.15199999511241913 255 119 130
0.059692129492759705 0.006884062197059393 0.15199999511241913 254 117 128
0.06004954129457474 0.006884062197059393 0.15199999511241913 251 116 126
0.06040695309638977 0.006884062197059393 0.15199999511241913 253 118 128
0.0607643648982048 0.006884062197059393 0.15199999511241913 252 127 136
0.061121776700019836 0.006884062197059393 0.15199999511241913 255 136 145
0.061074718832969666 0.006838771980255842 0.1509999930858612 255 145 151
0.06142977997660637 0.006838771980255842 0.1509999930858612 255 149 155
0.06178484112024307 0.006838771980255842 0.1509999930858612 254 150 152
0.061728376895189285 0.006793482229113579 0.15000000596046448 254 150 152
0.06208108738064766 0.006793482229113579 0.15000000596046448 255 156 154
0.06243379786610603 0.006793482229113579 0.15000000596046448 249 150 148
0.06236792728304863 0.006748192477971315 0.14900000393390656 235 141 135
0.06271828711032867 0.006748192477971315 0.14900000393390656 232 138 132
0.06264536082744598 0.006702902726829052 0.14800000190734863 222 134 126
0.0629933699965477 0.006702902726829052 0.14800000190734863 213 125 117
0.06291339546442032 0.006657612510025501 0.1469999998807907 221 169 158
0.0632590502500534 0.006657612510025501 0.1469999998807907 255 240 229
0.06360470503568649 0.006657612510025501 0.1469999998807907 255 255 243
0.0635153204202652 0.006612322758883238 0.1459999978542328 255 255 243
0.06385862827301025 0.006612322758883238 0.1459999978542328 254 255 249
0.06420192867517471 0.006612322758883238 0.1459999978542328 254 255 249
0.06454523652791977 0.006612322758883238 0.1459999978542328 254 255 249
0.06488853693008423 0.006612322758883238 0.1459999978542328 254 255 249
0.06523183733224869 0.006612322758883238 0.1459999978542328 254 255 249
0.06557514518499374 0.006612322758883238 0.1459999978542328 254 255 249
0.0659184455871582 0.006612322758883238 0.1459999978542328 254 255 249
0.06626175343990326 0.006612322758883238 0.1459999978542328 254 255 249
0.06660505384206772 0.006612322758883238 0.1459999978542328 254 255 249
0.0664898082613945 0.006567033007740974 0.14499999582767487 254 255 249
0.06683076173067093 0.006567033007740974 0.14499999582767487 255 255 249
0.06670846045017242 0.006521742790937424 0.14399999380111694 255 255 249
0.06704705953598022 0.006521742790937424 0.14399999380111694 255 246 238
0.06691770255565643 0.00647645303979516 0.14300000667572021 247 225 217
0.0672539547085762 0.00647645303979516 0.14300000667572021 248 208 195
0.06759020686149597 0.00647645303979516 0.14300000667572021 233 193 180
0.06745143979787827 0.006431163288652897 0.1420000046491623 255 246 236
0.0677853375673294 0.006431163288652897 0.1420000046491623 255 249 239
0.06811923533678055 0.006431163288652897 0.1420000046491623 254 255 247
0.06845313310623169 0.006431163288652897 0.1420000046491623 254 255 247
0.06878703087568283 0.006431163288652897 0.1420000046491623 254 255 249
0.06912093609571457 0.006431163288652897 0.1420000046491623 254 255 249
0.06945483386516571 0.006431163288652897 0.1420000046491623 254 255 249
0.06978873163461685 0.006431163288652897 0.1420000046491623 254 255 249
0.070122629404068 0.006431163288652897 0.1420000046491623 254 255 249
0.07045652717351913 0.006431163288652897 0.1420000046491623 254 255 249
0.0702918991446495 0.0063858735375106335 0.14100000262260437 254 255 249
0.07012256979942322 0.006340583320707083 0.14000000059604645 254 255 249
0.06994853913784027 0.006295293569564819 0.13899999856948853 254 255 249
0.06976979970932007 0.006250003818422556 0.1379999965429306 254 255 249
0.07009429484605789 0.006250003818422556 0.1379999965429306 255 253 249
0.07041878998279572 0.006250003818422556 0.1379999965429306 253 248 244
0.07074327766895294 0.006250003818422556 0.1379999965429306 240 202 202
0.07055278867483139 0.006204713601619005 0.13699999451637268 222 184 184
0.07087492942810059 0.006204713601619005 0.13699999451637268 213 169 167
0.07119707018136978 0.006204713601619005 0.13699999451637268 244 200 198
0.07151921093463898 0.006204713601619005 0.13699999451637268 255 249 238
0.07184135168790817 0.006204713601619005 0.13699999451637268 255 250 239
0.07269023358821869 0.006250003818422556 0.1379999965429306 255 247 240
0.07301472872495651 0.006250003818422556 0.1379999965429306 238 227 220
0.07333921641111374 0.006250003818422556 0.1379999965429306 247 211 211
0.07366371154785156 0.006250003818422556 0.1379999965429306 243 207 207
0.07345205545425415 0.006204713601619005 0.13699999451637268 242 195 196
0.07377419620752335 0.006204713601619005 0.13699999451637268 243 196 197
0.07409633696079254 0.006204713601619005 0.13699999451637268 246 201 204
0.07441847771406174 0.006204713601619005 0.13699999451637268 234 189 192
0.07419507205486298 0.006159423850476742 0.13600000739097595 228 188 189
0.07451485842466354 0.006159423850476742 0.13600000739097595 221 181 182
0.07483465224504471 0.006159423850476742 0.13600000739097595 226 189 184
0.07515443861484528 0.006159423850476742 0.13600000739097595 222 185 180
0.07547422498464584 0.006159423850476742 0.13600000739097595 225 179 171
0.07523670792579651 0.006114134099334478 0.13500000536441803 211 165 157
0.07618902623653412 0.006114134099334478 0.13500000536441803 223 174 162
0.07650645822286606 0.006114134099334478 0.13500000536441803 255 215 203
0.0768238976597786 0.006114134099334478 0.13500000536441803 255 215 211
0.07714133709669113 0.006114134099334478 0.13500000536441803 255 207 203
0.07745877653360367 0.006114134099334478 0.13500000536441803 219 167 172
0.0777762159705162 0.006114134099334478 0.13500000536441803 219 167 172
0.07809365540742874 0.006114134099334478 0.13500000536441803 218 168 165
0.07841108739376068 0.006114134099334478 0.13500000536441803 224 174 171
0.07872852683067322 0.006114134099334478 0.13500000536441803 223 173 166
0.07904596626758575 0.006114134099334478 0.13500000536441803 204 154 147
0.07995127886533737 0.006159423850476742 0.13600000739097595 207 157 152
0.0825095996260643 0.006159423850476742 0.13600000739097595 201 151 144
0.08762623369693756 0.006159423850476742 0.13600000739097595 201 151 144
0.08794602006673813 0.006159423850476742 0.13600000739097595 210 160 153
0.0882658138871193 0.006159423850476742 0.13600000739097595 205 158 159
0.08858560025691986 0.006159423850476742 0.13600000739097595 201 154 155
0.057942748069763184 0.007336756680160761 0.15399999916553497 255 90 95
0.058304861187934875 0.007336756680160761 0.15399999916553497 254 88 93
0.05790506675839424 0.007241473998874426 0.15199999511241913 245 94 107
0.058262478560209274 0.007241473998874426 0.15199999511241913 255 111 124
0.05861989036202431 0.007241473998874426 0.15199999511241913 255 113 127
0.05897730588912964 0.007241473998874426 0.15199999511241913 255 114 128
0.05933471769094467 0.007241473998874426 0.15199999511241913 254 118 124
0.059692129492759705 0.007241473998874426 0.15199999511241913 255 120 126
0.06004954129457474 0.007241473998874426 0.15199999511241913 255 121 126
0.06040695309638977 0.007241473998874426 0.15199999511241913 251 117 122
0.06036459654569626 0.007193832658231258 0.1509999930858612 251 128 136
0.06071965768933296 0.007193832658231258 0.1509999930858612 255 141 149
0.061074718832969666 0.007193832658231258 0.1509999930858612 255 146 151
0.06142977997660637 0.007193832658231258 0.1509999930858612 255 149 154
0.06137567013502121 0.007146191317588091 0.15000000596046448 254 153 156
0.061728376895189285 0.007146191317588091 0.15000000596046448 255 156 159
0.06208108738064766 0.007146191317588091 0.15000000596046448 255 160 159
0.062017571181058884 0.007098549976944923 0.14900000393390656 254 158 157
0.06236792728304863 0.007098549976944923 0.14900000393390656 255 162 156
0.06271828711032867 0.007098549976944923 0.14900000393390656 255 161 155
0.06264536082744598 0.007050908636301756 0.14800000190734863 246 155 146
0.0629933699965477 0.007050908636301756 0.14800000190734863 223 132 123
0.06291339546442032 0.007003267761319876 0.1469999998807907 244 197 184
0.0632590502500534 0.007003267761319876 0.1469999998807907 255 242 229
0.06360470503568649 0.007003267761319876 0.1469999998807907 255 255 245
0.06395035982131958 0.007003267761319876 0.1469999998807907 255 255 245
0.06385862827301025 0.006955626420676708 0.1459999978542328 254 255 249
0.06420192867517471 0.006955626420676708 0.1459999978542328 254 255 249
0.06454523652791977 0.006955626420676708 0.1459999978542328 254 255 249
0.06488853693008423 0.006955626420676708 0.1459999978542328 254 255 249
0.06523183733224869 0.006955626420676708 0.1459999978542328 254 255 249
0.06557514518499374 0.006955626420676708 0.1459999978542328 254 255 249
0.0659184455871582 0.006955626420676708 0.1459999978542328 254 255 249
0.06626175343990326 0.006955626420676708 0.1459999978542328 254 255 249
0.06660505384206772 0.006955626420676708 0.1459999978542328 254 255 249
0.0664898082613945 0.006907985080033541 0.14499999582767487 254 255 249
0.06683076173067093 0.006907985080033541 0.14499999582767487 255 255 249
0.06670846045017242 0.006860343739390373 0.14399999380111694 255 255 249
0.06704705953598022 0.006860343739390373 0.14399999380111694 255 234 226
0.06691770255565643 0.006812702398747206 0.14300000667572021 239 217 209
0.0672539547085762 0.006812702398747206 0.14300000667572021 249 214 197
0.06759020686149597 0.006812702398747206 0.14300000667572021 240 205 188
0.06745143979787827 0.006765061058104038 0.1420000046491623 255 248 233
0.0677853375673294 0.006765061058104038 0.1420000046491623 255 249 234
0.06811923533678055 0.006765061058104038 0.1420000046491623 254 255 245
0.06845313310623169 0.006765061058104038 0.1420000046491623 254 255 245
0.06878703087568283 0.006765061058104038 0.1420000046491623 254 255 249
0.06912093609571457 0.006765061058104038 0.1420000046491623 254 255 249
0.06945483386516571 0.006765061058104038 0.1420000046491623 254 255 249
0.06978873163461685 0.006765061058104038 0.1420000046491623 254 255 249
0.070122629404068 0.006765061058104038 0.1420000046491623 254 255 249
0.07045652717351913 0.006765061058104038 0.1420000046491623 254 255 249
0.0702918991446495 0.006717419717460871 0.14100000262260437 254 255 249
0.07012256979942322 0.006669778376817703 0.14000000059604645 254 255 249
0.06994853913784027 0.006622137501835823 0.13899999856948853 254 255 249
0.07027538120746613 0.006622137501835823 0.13899999856948853 254 255 249
0.07009429484605789 0.0065744961611926556 0.1379999965429306 255 252 249
0.07041878998279572 0.0065744961611926556 0.1379999965429306 250 242 239
0.07074327766895294 0.0065744961611926556 0.1379999965429306 237 198 194
0.07106777280569077 0.0065744961611926556 0.1379999965429306 223 184 180
0.07087492942810059 0.006526854820549488 0.13699999451637268 210 167 160
0.07119707018136978 0.006526854820549488 0.13699999451637268 244 201 194
0.07151921093463898 0.006526854820549488 0.13699999451637268 255 249 236
0.07236573845148087 0.0065744961611926556 0.1379999965429306 255 242 229
0.07269023358821869 0.0065744961611926556 0.1379999965429306 240 226 218
0.07301472872495651 0.0065744961611926556 0.1379999965429306 239 225 217
0.07333921641111374 0.0065744961611926556 0.1379999965429306 240 205 202
0.07366371154785156 0.0065744961611926556 0.1379999965429306 238 203 200
0.07345205545425415 0.006526854820549488 0.13699999451637268 253 200 196
0.07377419620752335 0.006526854820549488 0.13699999451637268 255 206 202
0.07409633696079254 0.006526854820549488 0.13699999451637268 236 188 184
0.07419507205486298 0.006479213479906321 0.13600000739097595 227 180 179
0.07451485842466354 0.006479213479906321 0.13600000739097595 222 175 174
0.07483465224504471 0.006479213479906321 0.13600000739097595 221 177 175
0.07515443861484528 0.006479213479906321 0.13600000739097595 220 176 174
0.07547422498464584 0.006479213479906321 0.13600000739097595 209 163 159
0.07579401880502701 0.006479213479906321 0.13600000739097595 211 165 161
0.07675338536500931 0.006479213479906321 0.13600000739097595 212 156 144
0.07650645822286606 0.006431572139263153 0.13500000536441803 251 195 183
0.0768238976597786 0.006431572139263153 0.13500000536441803 255 202 199
0.07771275192499161 0.006479213479906321 0.13600000739097595 247 185 182
0.07803254574537277 0.006479213479906321 0.13600000739097595 235 176 179
0.07835233211517334 0.006479213479906321 0.13600000739097595 215 156 159
0.0786721259355545 0.006479213479906321 0.13600000739097595 211 158 154
0.07841108739376068 0.006431572139263153 0.13500000536441803 213 160 156
0.0796314924955368 0.006479213479906321 0.13600000739097595 208 161 150
0.0873064398765564 0.006479213479906321 0.13600000739097595 209 160 150
0.08762623369693756 0.006479213479906321 0.13600000739097595 209 159 152
0.08859268575906754 0.006526854820549488 0.13699999451637268 210 160 153
0.08955910801887512 0.006526854820549488 0.13699999451637268 202 157 162
0.05754765495657921 0.007598885800689459 0.15199999511241913 255 106 114
0.05790506675839424 0.007598885800689459 0.15199999511241913 255 108 118
0.058262478560209274 0.007598885800689459 0.15199999511241913 255 110 120
0.05861989036202431 0.007598885800689459 0.15199999511241913 253 112 117
0.05897730588912964 0.007598885800689459 0.15199999511241913 255 116 121
0.05933471769094467 0.007598885800689459 0.15199999511241913 255 117 121
0.059692129492759705 0.007598885800689459 0.15199999511241913 255 119 123
0.06004954129457474 0.007598885800689459 0.15199999511241913 254 119 122
0.060009539127349854 0.007548893336206675 0.1509999930858612 254 119 122
0.06036459654569626 0.007548893336206675 0.1509999930858612 252 130 133
0.06071965768933296 0.007548893336206675 0.1509999930858612 255 138 141
0.061074718832969666 0.007548893336206675 0.1509999930858612 255 145 147
0.061022959649562836 0.007498900406062603 0.15000000596046448 255 150 152
0.06137567013502121 0.007498900406062603 0.15000000596046448 255 158 157
0.061728376895189285 0.007498900406062603 0.15000000596046448 255 158 157
0.06166721135377884 0.007448907941579819 0.14900000393390656 255 162 159
0.062017571181058884 0.007448907941579819 0.14900000393390656 255 165 162
0.06236792728304863 0.007448907941579819 0.14900000393390656 255 165 157
0.062297359108924866 0.007398915011435747 0.14800000190734863 255 162 154
0.06264536082744598 0.007398915011435747 0.14800000190734863 245 157 147
0.0629933699965477 0.007398915011435747 0.14800000190734863 227 139 129
0.06291339546442032 0.007348922546952963 0.1469999998807907 255 217 206
0.0632590502500534 0.007348922546952963 0.1469999998807907 255 241 230
0.06360470503568649 0.007348922546952963 0.1469999998807907 255 255 245
0.06395035982131958 0.007348922546952963 0.1469999998807907 255 255 245
0.06385862827301025 0.007298929616808891 0.1459999978542328 254 255 249
0.06420192867517471 0.007298929616808891 0.1459999978542328 254 255 249
0.06454523652791977 0.007298929616808891 0.1459999978542328 254 255 249
0.06488853693008423 0.007298929616808891 0.1459999978542328 254 255 249
0.06523183733224869 0.007298929616808891 0.1459999978542328 254 255 249
0.06557514518499374 0.007298929616808891 0.1459999978542328 254 255 249
0.0659184455871582 0.007298929616808891 0.1459999978542328 254 255 249
0.06626175343990326 0.007298929616808891 0.1459999978542328 254 255 249
0.06614885479211807 0.007248937152326107 0.14499999582767487 254 255 249
0.0664898082613945 0.007248937152326107 0.14499999582767487 254 255 249
0.06636986136436462 0.007198944687843323 0.14399999380111694 255 252 248
0.06670846045017242 0.007198944687843323 0.14399999380111694 254 249 245
0.06658145785331726 0.007148951757699251 0.14300000667572021 255 226 224
0.06691770255565643 0.007148951757699251 0.14300000667572021 253 222 220
0.0672539547085762 0.007148951757699251 0.14300000667572021 241 206 189
0.06759020686149597 0.007148951757699251 0.14300000667572021 238 203 186
0.06745143979787827 0.007098959293216467 0.1420000046491623 255 248 231
0.0677853375673294 0.007098959293216467 0.1420000046491623 255 249 232
0.06811923533678055 0.007098959293216467 0.1420000046491623 254 255 245
0.06845313310623169 0.007098959293216467 0.1420000046491623 254 255 245
0.06878703087568283 0.007098959293216467 0.1420000046491623 254 255 249
0.06912093609571457 0.007098959293216467 0.1420000046491623 254 255 249
0.06945483386516571 0.007098959293216467 0.1420000046491623 254 255 249
0.06978873163461685 0.007098959293216467 0.1420000046491623 254 255 249
0.070122629404068 0.007098959293216467 0.1420000046491623 254 255 249
0.07045652717351913 0.007098959293216467 0.1420000046491623 254 255 249
0.0702918991446495 0.007048966363072395 0.14100000262260437 254 255 249
0.07012256979942322 0.006998973898589611 0.14000000059604645 254 255 249
0.06994853913784027 0.0069489809684455395 0.13899999856948853 254 255 249
0.07027538120746613 0.0069489809684455395 0.13899999856948853 253 254 248
0.07009429484605789 0.006898988503962755 0.1379999965429306 255 250 246
0.07041878998279572 0.006898988503962755 0.1379999965429306 248 234 230
0.07074327766895294 0.006898988503962755 0.1379999965429306 244 197 198
0.07106777280569077 0.006898988503962755 0.1379999965429306 222 175 176
0.07087492942810059 0.006848995573818684 0.13699999451637268 202 156 148
0.07119707018136978 0.006848995573818684 0.13699999451637268 243 197 189
0.07151921093463898 0.006848995573818684 0.13699999451637268 255 250 237
0.07236573845148087 0.006898988503962755 0.1379999965429306 255 250 237
0.07269023358821869 0.006898988503962755 0.1379999965429306 255 246 239
0.07301472872495651 0.006898988503962755 0.1379999965429306 255 242 235
0.07333921641111374 0.006898988503962755 0.1379999965429306 236 201 196
0.07366371154785156 0.006898988503962755 0.1379999965429306 229 194 189
0.07345205545425415 0.006848995573818684 0.13699999451637268 246 191 186
0.07377419620752335 0.006848995573818684 0.13699999451637268 245 190 185
0.07409633696079254 0.006848995573818684 0.13699999451637268 228 179 169
0.07441847771406174 0.006848995573818684 0.13699999451637268 230 181 171
0.07419507205486298 0.006799003109335899 0.13600000739097595 227 181 173
0.07451485842466354 0.006799003109335899 0.13600000739097595 226 180 172
0.07483465224504471 0.006799003109335899 0.13600000739097595 220 174 170
0.07515443861484528 0.006799003109335899 0.13600000739097595 216 170 166
0.07547422498464584 0.006799003109335899 0.13600000739097595 214 164 159
0.07675338536500931 0.006799003109335899 0.13600000739097595 217 149 141
0.07707317918539047 0.006799003109335899 0.13600000739097595 245 177 169
0.07739296555519104 0.006799003109335899 0.13600000739097595 252 188 183
0.07771275192499161 0.006799003109335899 0.13600000739097595 228 164 159
0.07803254574537277 0.006799003109335899 0.13600000739097595 211 151 149
0.07835233211517334 0.006799003109335899 0.13600000739097595 211 151 149
0.0786721259355545 0.006799003109335899 0.13600000739097595 207 149 145
0.07899191230535507 0.006799003109335899 0.13600000739097595 209 151 147
0.07931170612573624 0.006799003109335899 0.13600000739097595 203 151 142
0.0796314924955368 0.006799003109335899 0.13600000739097595 202 150 141
0.07995127886533737 0.006799003109335899 0.13600000739097595 202 155 144
0.08762623369693756 0.006799003109335899 0.13600000739097595 216 163 157
0.08859268575906754 0.006848995573818684 0.13699999451637268 209 156 150
0.08891482651233673 0.006848995573818684 0.13699999451637268 203 153 148
0.08923696726560593 0.006848995573818684 0.13699999451637268 207 157 152
0.056846968829631805 0.008008642122149467 0.15299999713897705 255 95 98
0.05683283135294914 0.007956298068165779 0.15199999511241913 255 97 100
0.057190243154764175 0.007956298068165779 0.15199999511241913 255 111 118
0.05754765495657921 0.007956298068165779 0.15199999511241913 255 111 118
0.05790506675839424 0.007956298068165779 0.15199999511241913 255 116 122
0.058262478560209274 0.007956298068165779 0.15199999511241913 255 112 118
0.058234233409166336 0.00790395401418209 0.1509999930858612 253 112 115
0.05858929455280304 0.00790395401418209 0.1509999930858612 255 115 118
0.05894435569643974 0.00790395401418209 0.1509999930858612 255 117 118
0.05929941684007645 0.00790395401418209 0.1509999930858612 255 115 116
0.05965447798371315 0.00790395401418209 0.1509999930858612 249 114 113
0.060009539127349854 0.00790395401418209 0.1509999930858612 255 121 120
0.06036459654569626 0.00790395401418209 0.1509999930858612 255 139 137
0.06071965768933296 0.00790395401418209 0.1509999930858612 255 138 136
0.06067024916410446 0.007851609960198402 0.15000000596046448 253 143 140
0.061022959649562836 0.007851609960198402 0.15000000596046448 255 151 148
0.06137567013502121 0.007851609960198402 0.15000000596046448 255 161 157
0.06131685525178909 0.007799265440553427 0.14900000393390656 255 161 157
