0.08378876000642776 0.004560476168990135 0.13600000739097595 212 165 166
0.08410854637622833 0.004560476168990135 0.13600000739097595 202 155 156
0.059440672397613525 0.005633836146444082 0.15700000524520874 255 86 91
0.05942888557910919 0.0055979518219828606 0.15600000321865082 254 97 94
0.05979570373892784 0.0055979518219828606 0.15600000321865082 255 99 96
0.05977686494588852 0.005562067497521639 0.1550000011920929 253 101 103
0.06014132872223854 0.005562067497521639 0.1550000011920929 253 101 103
0.06284795701503754 0.005777372978627682 0.16099999845027924 252 106 113
0.06322652846574783 0.005777372978627682 0.16099999845027924 255 109 116
0.06454523652791977 0.005239108577370644 0.1459999978542328 255 254 243
0.06488853693008423 0.005239108577370644 0.1459999978542328 255 254 243
0.06523183733224869 0.005239108577370644 0.1459999978542328 255 255 247
0.06557514518499374 0.005239108577370644 0.1459999978542328 255 255 247
0.06546695530414581 0.005203224252909422 0.14499999582767487 255 254 247
0.06580790132284164 0.005203224252909422 0.14499999582767487 255 254 247
0.06569265574216843 0.0051673399284482 0.14399999380111694 255 238 234
0.06603125482797623 0.0051673399284482 0.14399999380111694 241 215 211
0.06636986136436462 0.0051673399284482 0.14399999380111694 238 194 194
0.06670846045017242 0.0051673399284482 0.14399999380111694 221 177 177
0.06704705953598022 0.0051673399284482 0.14399999380111694 208 146 154
0.06859894841909409 0.0051314556039869785 0.14300000667572021 255 232 221
0.06893520057201385 0.0051314556039869785 0.14300000667572021 255 248 237
0.06927145272493362 0.0051314556039869785 0.14300000667572021 255 253 245
0.07077167183160782 0.0051673399284482 0.14399999380111694 255 255 247
0.07111027091741562 0.0051673399284482 0.14399999380111694 255 255 247
0.07095269858837128 0.0051314556039869785 0.14300000667572021 255 255 247
0.07128894329071045 0.0051314556039869785 0.14300000667572021 255 254 249
0.07162519544363022 0.0051314556039869785 0.14300000667572021 255 254 249
0.07145822048187256 0.005095571279525757 0.1420000046491623 255 254 251
0.0717921182513237 0.005095571279525757 0.1420000046491623 255 254 251
0.07212601602077484 0.005095571279525757 0.1420000046491623 255 249 254
0.07291591167449951 0.004880265332758427 0.13600000739097595 212 168 168
0.07323569804430008 0.004880265332758427 0.13600000739097595 216 172 172
0.07355549186468124 0.004880265332758427 0.13600000739097595 227 174 172
0.07387527823448181 0.004880265332758427 0.13600000739097595 230 177 175
0.07419507205486298 0.004880265332758427 0.13600000739097595 226 168 166
0.07451485842466354 0.004880265332758427 0.13600000739097595 229 171 169
0.07483465224504471 0.004880265332758427 0.13600000739097595 228 167 170
0.07515443861484528 0.004880265332758427 0.13600000739097595 219 158 161
0.08187001943588257 0.004880265332758427 0.13600000739097595 255 229 224
0.08218980580568314 0.004880265332758427 0.13600000739097595 255 240 235
0.0825095996260643 0.004880265332758427 0.13600000739097595 245 217 214
0.08282938599586487 0.004880265332758427 0.13600000739097595 224 196 193
0.08314917981624603 0.004880265332758427 0.13600000739097595 215 177 177
0.08794840425252914 0.004916149657219648 0.13699999451637268 202 164 155
0.08762623369693756 0.004880265332758427 0.13600000739097595 213 176 171
0.08794602006673813 0.004880265332758427 0.13600000739097595 219 182 177
0.0882658138871193 0.004880265332758427 0.13600000739097595 201 167 159
0.05868346616625786 0.005926533602178097 0.1550000011920929 253 80 89
0.05904792994260788 0.005926533602178097 0.1550000011920929 252 95 95
0.05902909114956856 0.005888297688215971 0.15399999916553497 255 105 105
0.05939120799303055 0.005888297688215971 0.15399999916553497 255 114 110
0.06014132872223854 0.005926533602178097 0.1550000011920929 255 111 107
0.05933471769094467 0.005811826325953007 0.15199999511241913 255 115 119
0.059692129492759705 0.005811826325953007 0.15199999511241913 255 117 121
0.05965447798371315 0.005773590411990881 0.1509999930858612 255 120 127
0.059612125158309937 0.0057353549636900425 0.15000000596046448 255 122 129
0.05996483191847801 0.0057353549636900425 0.15000000596046448 249 129 130
0.060317542403936386 0.0057353549636900425 0.15000000596046448 255 142 143
0.06067024916410446 0.0057353549636900425 0.15000000596046448 255 147 146
0.061022959649562836 0.0057353549636900425 0.15000000596046448 232 122 121
0.06137567013502121 0.0057353549636900425 0.15000000596046448 205 106 106
0.06429601460695267 0.0056206476874649525 0.1469999998807907 255 255 243
0.06420192867517471 0.005582412239164114 0.1459999978542328 255 255 243
0.06454523652791977 0.005582412239164114 0.1459999978542328 255 255 247
0.06488853693008423 0.005582412239164114 0.1459999978542328 255 255 247
0.06523183733224869 0.005582412239164114 0.1459999978542328 255 255 249
0.06557514518499374 0.005582412239164114 0.1459999978542328 255 255 249
0.06546695530414581 0.005544176325201988 0.14499999582767487 255 255 249
0.06580790132284164 0.005544176325201988 0.14499999582767487 255 255 249
0.06569265574216843 0.00550594087690115 0.14399999380111694 255 250 248
0.06603125482797623 0.00550594087690115 0.14399999380111694 249 239 237
0.06636986136436462 0.00550594087690115 0.14399999380111694 250 224 224
0.06670846045017242 0.00550594087690115 0.14399999380111694 236 210 210
0.06658145785331726 0.005467704962939024 0.14300000667572021 244 194 202
0.06691770255565643 0.005467704962939024 0.14300000667572021 230 180 188
0.0672539547085762 0.005467704962939024 0.14300000667572021 211 147 160
0.06826270371675491 0.005467704962939024 0.14300000667572021 236 187 188
0.06859894841909409 0.005467704962939024 0.14300000667572021 255 251 242
0.06893520057201385 0.005467704962939024 0.14300000667572021 255 252 243
0.0696076974272728 0.005467704962939024 0.14300000667572021 255 255 247
0.06994394958019257 0.005467704962939024 0.14300000667572021 254 255 249
0.07028020173311234 0.005467704962939024 0.14300000667572021 254 255 249
0.07061644643545151 0.005467704962939024 0.14300000667572021 254 255 249
0.07095269858837128 0.005467704962939024 0.14300000667572021 254 255 249
0.07128894329071045 0.005467704962939024 0.14300000667572021 254 255 249
0.07112432271242142 0.0054294695146381855 0.1420000046491623 254 255 249
0.07145822048187256 0.0054294695146381855 0.1420000046491623 254 255 249
0.0717921182513237 0.0054294695146381855 0.1420000046491623 254 255 249
0.07212601602077484 0.0054294695146381855 0.1420000046491623 255 253 251
0.07194963097572327 0.00539123360067606 0.14100000262260437 255 253 251
0.07228117436170578 0.00539123360067606 0.14100000262260437 252 234 240
0.07259611785411835 0.0052000549621880054 0.13600000739097595 255 221 230
0.07291591167449951 0.0052000549621880054 0.13600000739097595 253 215 215
0.07323569804430008 0.0052000549621880054 0.13600000739097595 248 210 210
0.07355549186468124 0.0052000549621880054 0.13600000739097595 254 207 206
0.07387527823448181 0.0052000549621880054 0.13600000739097595 254 207 206
0.07419507205486298 0.0052000549621880054 0.13600000739097595 255 206 203
0.07771275192499161 0.0052000549621880054 0.13600000739097595 241 178 166
0.07803254574537277 0.0052000549621880054 0.13600000739097595 248 183 181
0.0777762159705162 0.005161819513887167 0.13500000536441803 248 183 181
0.07809365540742874 0.005161819513887167 0.13500000536441803 243 182 185
0.07841108739376068 0.005161819513887167 0.13500000536441803 244 183 186
0.07872852683067322 0.005161819513887167 0.13500000536441803 233 188 191
0.07904596626758575 0.005161819513887167 0.13500000536441803 230 185 188
0.07936340570449829 0.005161819513887167 0.13500000536441803 222 182 183
0.07968084514141083 0.005161819513887167 0.13500000536441803 215 175 176
0.0803157165646553 0.005161819513887167 0.13500000536441803 206 168 161
0.08187001943588257 0.0052000549621880054 0.13600000739097595 220 184 174
0.08218980580568314 0.0052000549621880054 0.13600000739097595 245 209 199
0.0825095996260643 0.0052000549621880054 0.13600000739097595 236 206 199
0.08282938599586487 0.0052000549621880054 0.13600000739097595 216 186 179
0.08762623369693756 0.0052000549621880054 0.13600000739097595 208 171 166
0.08794602006673813 0.0052000549621880054 0.13600000739097595 210 173 168
0.0882658138871193 0.0052000549621880054 0.13600000739097595 206 175 166
0.05795453488826752 0.006290999706834555 0.1550000011920929 255 74 89
0.05831899866461754 0.006290999706834555 0.1550000011920929 251 77 89
0.05868346616625786 0.006290999706834555 0.1550000011920929 255 83 95
0.058666978031396866 0.006250412203371525 0.15399999916553497 254 96 98
0.058645784854888916 0.006209825165569782 0.15299999713897705 255 106 108
0.05900555104017258 0.006209825165569782 0.15299999713897705 255 115 111
0.05897730588912964 0.00616923812776804 0.15199999511241913 255 110 106
0.05933471769094467 0.00616923812776804 0.15199999511241913 254 111 113
0.05929941684007645 0.006128651089966297 0.1509999930858612 255 114 116
0.05965447798371315 0.006128651089966297 0.1509999930858612 249 111 115
0.059612125158309937 0.006088064052164555 0.15000000596046448 254 116 120
0.05996483191847801 0.006088064052164555 0.15000000596046448 255 135 136
0.060317542403936386 0.006088064052164555 0.15000000596046448 255 142 143
0.06067024916410446 0.006088064052164555 0.15000000596046448 254 146 145
0.061022959649562836 0.006088064052164555 0.15000000596046448 255 147 146
0.06137567013502121 0.006088064052164555 0.15000000596046448 242 146 145
0.061728376895189285 0.006088064052164555 0.15000000596046448 206 110 109
0.06264536082744598 0.0060068899765610695 0.14800000190734863 202 119 116
0.0629933699965477 0.0060068899765610695 0.14800000190734863 202 119 116
0.06360470503568649 0.005966302938759327 0.1469999998807907 255 247 235
0.06395035982131958 0.005966302938759327 0.1469999998807907 255 249 237
0.06385862827301025 0.005925715435296297 0.1459999978542328 255 255 245
0.06420192867517471 0.005925715435296297 0.1459999978542328 255 255 245
0.06454523652791977 0.005925715435296297 0.1459999978542328 254 255 249
0.06488853693008423 0.005925715435296297 0.1459999978542328 254 255 249
0.06478504836559296 0.0058851283974945545 0.14499999582767487 254 255 249
0.06512600183486938 0.0058851283974945545 0.14499999582767487 254 255 249
0.06546695530414581 0.0058851283974945545 0.14499999582767487 254 255 249
0.06580790132284164 0.0058851283974945545 0.14499999582767487 251 252 246
0.06569265574216843 0.005844541359692812 0.14399999380111694 254 254 248
0.06603125482797623 0.005844541359692812 0.14399999380111694 255 255 249
0.06636986136436462 0.005844541359692812 0.14399999380111694 255 250 247
0.06670846045017242 0.005844541359692812 0.14399999380111694 255 248 245
0.06658145785331726 0.005803954321891069 0.14300000667572021 255 236 240
0.06691770255565643 0.005803954321891069 0.14300000667572021 243 207 211
0.0672539547085762 0.005803954321891069 0.14300000667572021 243 191 198
0.06759020686149597 0.005803954321891069 0.14300000667572021 210 158 165
0.06826270371675491 0.005803954321891069 0.14300000667572021 255 236 233
0.06859894841909409 0.005803954321891069 0.14300000667572021 255 255 245
0.06893520057201385 0.005803954321891069 0.14300000667572021 255 255 245
0.06927145272493362 0.005803954321891069 0.14300000667572021 254 255 247
0.0696076974272728 0.005803954321891069 0.14300000667572021 254 255 247
0.06994394958019257 0.005803954321891069 0.14300000667572021 254 255 249
0.07028020173311234 0.005803954321891069 0.14300000667572021 254 255 249
0.07061644643545151 0.005803954321891069 0.14300000667572021 254 255 249
0.07095269858837128 0.005803954321891069 0.14300000667572021 254 255 249
0.07128894329071045 0.005803954321891069 0.14300000667572021 254 255 249
0.07112432271242142 0.005763367284089327 0.1420000046491623 254 255 249
0.07145822048187256 0.005763367284089327 0.1420000046491623 254 255 249
0.07128653675317764 0.005722780246287584 0.14100000262260437 254 255 249
0.07161808758974075 0.005722780246287584 0.14100000262260437 255 254 251
0.07143934816122055 0.005682193208485842 0.14000000059604645 255 254 251
0.07176854461431503 0.005682193208485842 0.14000000059604645 248 232 237
0.07209774106740952 0.005682193208485842 0.14000000059604645 203 187 192
0.07259611785411835 0.005519844591617584 0.13600000739097595 247 212 224
0.07291591167449951 0.005519844591617584 0.13600000739097595 250 214 218
0.07323569804430008 0.005519844591617584 0.13600000739097595 240 204 208
0.07355549186468124 0.005519844591617584 0.13600000739097595 238 196 195
0.07387527823448181 0.005519844591617584 0.13600000739097595 237 195 194
0.07419507205486298 0.005519844591617584 0.13600000739097595 241 194 193
0.07396695762872696 0.005479257553815842 0.13500000536441803 247 200 199
0.0742843970656395 0.005479257553815842 0.13500000536441803 245 193 198
0.07460182905197144 0.005479257553815842 0.13500000536441803 242 190 195
0.07547422498464584 0.005519844591617584 0.13600000739097595 237 185 190
0.07579401880502701 0.005519844591617584 0.13600000739097595 229 177 182
0.07611380517482758 0.005519844591617584 0.13600000739097595 204 154 151
0.07675338536500931 0.005519844591617584 0.13600000739097595 201 144 135
0.07707317918539047 0.005519844591617584 0.13600000739097595 254 197 188
0.07771275192499161 0.005519844591617584 0.13600000739097595 255 209 202
0.07803254574537277 0.005519844591617584 0.13600000739097595 255 204 205
0.0777762159705162 0.005479257553815842 0.13500000536441803 252 198 199
0.07809365540742874 0.005479257553815842 0.13500000536441803 241 195 191
0.07841108739376068 0.005479257553815842 0.13500000536441803 235 189 185
0.07872852683067322 0.005479257553815842 0.13500000536441803 227 183 183
0.07904596626758575 0.005479257553815842 0.13500000536441803 219 175 175
0.07936340570449829 0.005479257553815842 0.13500000536441803 215 173 172
0.07968084514141083 0.005479257553815842 0.13500000536441803 217 175 174
0.07999828457832336 0.005479257553815842 0.13500000536441803 213 172 166
0.0803157165646553 0.005479257553815842 0.13500000536441803 203 162 156
0.08218980580568314 0.005519844591617584 0.13600000739097595 206 170 160
0.0825095996260643 0.005519844591617584 0.13600000739097595 226 190 178
0.08282938599586487 0.005519844591617584 0.13600000739097595 201 165 153
0.08762623369693756 0.005519844591617584 0.13600000739097595 210 171 167
0.08794602006673813 0.005519844591617584 0.13600000739097595 203 164 160
0.0882658138871193 0.005519844591617584 0.13600000739097595 205 168 163
0.05795453488826752 0.006655465811491013 0.1550000011920929 242 64 75
0.05831899866461754 0.006655465811491013 0.1550000011920929 255 92 101
0.058286022394895554 0.006569588556885719 0.15299999713897705 247 89 93
0.058262478560209274 0.006526649929583073 0.15199999511241913 255 105 109
0.05861989036202431 0.006526649929583073 0.15199999511241913 255 111 111
0.05858929455280304 0.006483711767941713 0.1509999930858612 255 117 117
0.05894435569643974 0.006483711767941713 0.1509999930858612 255 120 121
0.05929941684007645 0.006483711767941713 0.1509999930858612 255 120 121
0.05925941467285156 0.006440773140639067 0.15000000596046448 248 110 114
0.059612125158309937 0.006440773140639067 0.15000000596046448 252 114 118
0.05996483191847801 0.006440773140639067 0.15000000596046448 254 130 134
0.060317542403936386 0.006440773140639067 0.15000000596046448 255 138 142
0.06067024916410446 0.006440773140639067 0.15000000596046448 255 147 146
0.061022959649562836 0.006440773140639067 0.15000000596046448 255 149 148
0.06137567013502121 0.006440773140639067 0.15000000596046448 255 161 160
0.061728376895189285 0.006440773140639067 0.15000000596046448 248 152 151
0.06208108738064766 0.006440773140639067 0.15000000596046448 212 123 120
0.06243379786610603 0.006440773140639067 0.15000000596046448 215 126 123
0.06236792728304863 0.00639783451333642 0.14900000393390656 202 119 114
0.06271828711032867 0.00639783451333642 0.14900000393390656 204 121 116
0.06264536082744598 0.006354896351695061 0.14800000190734863 210 130 126
0.0629933699965477 0.006354896351695061 0.14800000190734863 214 134 130
0.0632590502500534 0.006311957724392414 0.1469999998807907 255 215 208
0.06360470503568649 0.006311957724392414 0.1469999998807907 255 253 239
0.06395035982131958 0.006311957724392414 0.1469999998807907 255 253 239
0.06385862827301025 0.0062690190970897675 0.1459999978542328 254 255 247
0.06420192867517471 0.0062690190970897675 0.1459999978542328 254 255 247
0.06454523652791977 0.0062690190970897675 0.1459999978542328 254 255 249
0.06488853693008423 0.0062690190970897675 0.1459999978542328 254 255 249
0.06478504836559296 0.006226080935448408 0.14499999582767487 254 255 249
0.06512600183486938 0.006226080935448408 0.14499999582767487 254 255 249
0.06546695530414581 0.006226080935448408 0.14499999582767487 254 255 249
0.06580790132284164 0.006226080935448408 0.14499999582767487 247 248 242
0.06569265574216843 0.0061831423081457615 0.14399999380111694 253 254 248
0.06603125482797623 0.0061831423081457615 0.14399999380111694 254 255 249
0.06636986136436462 0.0061831423081457615 0.14399999380111694 255 254 249
0.06624520570039749 0.006140203680843115 0.14300000667572021 255 253 248
0.06658145785331726 0.006140203680843115 0.14300000667572021 255 244 246
0.06691770255565643 0.006140203680843115 0.14300000667572021 251 220 222
0.0672539547085762 0.006140203680843115 0.14300000667572021 255 208 209
0.06759020686149597 0.006140203680843115 0.14300000667572021 241 194 195
0.06792645156383514 0.006140203680843115 0.14300000667572021 245 218 210
0.06826270371675491 0.006140203680843115 0.14300000667572021 255 247 239
0.06859894841909409 0.006140203680843115 0.14300000667572021 255 255 243
0.06893520057201385 0.006140203680843115 0.14300000667572021 255 255 243
0.06927145272493362 0.006140203680843115 0.14300000667572021 254 255 249
0.0696076974272728 0.006140203680843115 0.14300000667572021 254 255 249
0.06994394958019257 0.006140203680843115 0.14300000667572021 254 255 249
0.07028020173311234 0.006140203680843115 0.14300000667572021 254 255 249
0.07061644643545151 0.006140203680843115 0.14300000667572021 254 255 249
0.07095269858837128 0.006140203680843115 0.14300000667572021 254 255 249
0.07128894329071045 0.006140203680843115 0.14300000667572021 254 255 249
0.07112432271242142 0.006097265053540468 0.1420000046491623 254 255 249
0.07095499336719513 0.006054326891899109 0.14100000262260437 254 255 249
0.07128653675317764 0.006054326891899109 0.14100000262260437 254 255 249
0.07161808758974075 0.006054326891899109 0.14100000262260437 255 253 254
0.07143934816122055 0.006011388264596462 0.14000000059604645 253 249 250
0.07125591486692429 0.005968449637293816 0.13899999856948853 235 220 221
0.07158275693655014 0.005968449637293816 0.13899999856948853 204 189 190
0.07280777394771576 0.00588257284834981 0.13699999451637268 250 217 228
0.07259611785411835 0.005839634221047163 0.13600000739097595 235 202 213
0.07291591167449951 0.005839634221047163 0.13600000739097595 238 201 208
0.07323569804430008 0.005839634221047163 0.13600000739097595 235 198 205
0.07355549186468124 0.005839634221047163 0.13600000739097595 232 189 191
0.07387527823448181 0.005839634221047163 0.13600000739097595 227 184 186
0.07419507205486298 0.005839634221047163 0.13600000739097595 230 183 184
0.07396695762872696 0.005796696059405804 0.13500000536441803 240 193 194
0.0742843970656395 0.005796696059405804 0.13500000536441803 248 193 199
0.07460182905197144 0.005796696059405804 0.13500000536441803 238 183 189
0.07547422498464584 0.005839634221047163 0.13600000739097595 218 163 171
0.07579401880502701 0.005839634221047163 0.13600000739097595 212 157 165
0.07675338536500931 0.005839634221047163 0.13600000739097595 226 171 166
0.07707317918539047 0.005839634221047163 0.13600000739097595 255 205 200
0.07739296555519104 0.005839634221047163 0.13600000739097595 255 217 216
0.07771275192499161 0.005839634221047163 0.13600000739097595 254 199 198
0.07803254574537277 0.005839634221047163 0.13600000739097595 226 182 182
0.0777762159705162 0.005796696059405804 0.13500000536441803 224 180 180
0.07809365540742874 0.005796696059405804 0.13500000536441803 223 182 176
0.07841108739376068 0.005796696059405804 0.13500000536441803 222 181 175
0.07872852683067322 0.005796696059405804 0.13500000536441803 223 180 175
0.07904596626758575 0.005796696059405804 0.13500000536441803 214 171 166
0.07936340570449829 0.005796696059405804 0.13500000536441803 211 164 163
0.07968084514141083 0.005796696059405804 0.13500000536441803 206 159 158
0.0825095996260643 0.005839634221047163 0.13600000739097595 205 170 155
0.08794602006673813 0.005839634221047163 0.13600000739097595 201 160 154
0.0882658138871193 0.005839634221047163 0.13600000739097595 202 164 157
0.08858560025691986 0.005839634221047163 0.13600000739097595 211 173 166
0.05754765495657921 0.006884062197059393 0.15199999511241913 246 73 80
0.05790506675839424 0.006884062197059393 0.15199999511241913 239 80 87
0.05787917599081993 0.006838771980255842 0.1509999930858612 255 99 106
0.058234233409166336 0.006838771980255842 0.1509999930858612 255 114 121
0.05858929455280304 0.006838771980255842 0.1509999930858612 255 115 122
0.05894435569643974 0.006838771980255842 0.1509999930858612 255 122 128
0.05890670418739319 0.006793482229113579 0.15000000596046448 255 116 122
0.05925941467285156 0.006793482229113579 0.15000000596046448 249 110 117
0.059612125158309937 0.006793482229113579 0.15000000596046448 252 113 120
0.05996483191847801 0.006793482229113579 0.15000000596046448 251 127 131
0.060317542403936386 0.006793482229113579 0.15000000596046448 255 142 146
0.06067024916410446 0.006793482229113579 0.15000000596046448 255 151 150
0.061022959649562836 0.006793482229113579 0.15000000596046448 255 154 153
0.06137567013502121 0.006793482229113579 0.15000000596046448 255 162 156
0.061728376895189285 0.006793482229113579 0.15000000596046448 255 167 161
0.06208108738064766 0.006793482229113579 0.15000000596046448 253 164 159
0.06243379786610603 0.006793482229113579 0.15000000596046448 241 152 147
0.06236792728304863 0.006748192477971315 0.14900000393390656 216 136 128
0.06271828711032867 0.006748192477971315 0.14900000393390656 215 135 127
0.06264536082744598 0.006702902726829052 0.14800000190734863 205 128 123
0.06291339546442032 0.006657612510025501 0.1469999998807907 207 154 148
0.0632590502500534 0.006657612510025501 0.1469999998807907 255 236 230
0.06360470503568649 0.006657612510025501 0.1469999998807907 255 254 245
0.06395035982131958 0.006657612510025501 0.1469999998807907 255 254 245
0.06385862827301025 0.006612322758883238 0.1459999978542328 254 255 249
0.06420192867517471 0.006612322758883238 0.1459999978542328 254 255 249
0.06454523652791977 0.006612322758883238 0.1459999978542328 254 255 249
0.06488853693008423 0.006612322758883238 0.1459999978542328 254 255 249
0.06478504836559296 0.006567033007740974 0.14499999582767487 254 255 249
0.06512600183486938 0.006567033007740974 0.14499999582767487 254 255 249
0.06546695530414581 0.006567033007740974 0.14499999582767487 254 255 249
0.06580790132284164 0.006567033007740974 0.14499999582767487 247 248 242
0.06569265574216843 0.006521742790937424 0.14399999380111694 252 253 247
0.06603125482797623 0.006521742790937424 0.14399999380111694 254 255 249
0.06636986136436462 0.006521742790937424 0.14399999380111694 255 255 247
0.06624520570039749 0.00647645303979516 0.14300000667572021 253 254 245
0.06658145785331726 0.00647645303979516 0.14300000667572021 255 238 236
0.06691770255565643 0.00647645303979516 0.14300000667572021 244 218 216
0.0672539547085762 0.00647645303979516 0.14300000667572021 248 204 204
0.06759020686149597 0.00647645303979516 0.14300000667572021 251 207 207
0.06745143979787827 0.006431163288652897 0.1420000046491623 255 247 237
0.0677853375673294 0.006431163288652897 0.1420000046491623 255 249 239
0.06859894841909409 0.00647645303979516 0.14300000667572021 254 255 245
0.06845313310623169 0.006431163288652897 0.1420000046491623 254 255 245
0.06878703087568283 0.006431163288652897 0.1420000046491623 254 255 249
0.0696076974272728 0.00647645303979516 0.14300000667572021 254 255 249
0.06994394958019257 0.00647645303979516 0.14300000667572021 254 255 249
0.07028020173311234 0.00647645303979516 0.14300000667572021 254 255 249
0.07061644643545151 0.00647645303979516 0.14300000667572021 254 255 249
0.07095269858837128 0.00647645303979516 0.14300000667572021 254 255 249
0.07079042494297028 0.006431163288652897 0.1420000046491623 254 255 249
0.07112432271242142 0.006431163288652897 0.1420000046491623 254 255 249
0.07095499336719513 0.0063858735375106335 0.14100000262260437 254 255 249
0.07128653675317764 0.0063858735375106335 0.14100000262260437 254 255 249
0.07111015170812607 0.006340583320707083 0.14000000059604645 255 252 250
0.07143934816122055 0.006340583320707083 0.14000000059604645 237 232 230
0.07125591486692429 0.006295293569564819 0.13899999856948853 235 215 216
0.07158275693655014 0.006295293569564819 0.13899999856948853 203 183 184
0.07216349244117737 0.006204713601619005 0.13699999451637268 255 247 248
0.07248563319444656 0.006204713601619005 0.13699999451637268 254 234 235
0.07280777394771576 0.006204713601619005 0.13699999451637268 239 205 213
0.07259611785411835 0.006159423850476742 0.13600000739097595 238 204 212
0.07291591167449951 0.006159423850476742 0.13600000739097595 242 201 209
0.07323569804430008 0.006159423850476742 0.13600000739097595 237 196 204
0.07355549186468124 0.006159423850476742 0.13600000739097595 219 172 173
0.07387527823448181 0.006159423850476742 0.13600000739097595 229 182 183
0.07419507205486298 0.006159423850476742 0.13600000739097595 236 185 185
0.07451485842466354 0.006159423850476742 0.13600000739097595 242 191 191
0.07483465224504471 0.006159423850476742 0.13600000739097595 235 179 183
0.07515443861484528 0.006159423850476742 0.13600000739097595 232 176 180
0.07547422498464584 0.006159423850476742 0.13600000739097595 213 158 164
0.07579401880502701 0.006159423850476742 0.13600000739097595 209 154 160
0.07675338536500931 0.006159423850476742 0.13600000739097595 202 152 145
0.07739296555519104 0.006159423850476742 0.13600000739097595 255 212 209
0.07771275192499161 0.006159423850476742 0.13600000739097595 243 193 190
0.07803254574537277 0.006159423850476742 0.13600000739097595 211 167 165
0.0777762159705162 0.006114134099334478 0.13500000536441803 211 167 165
0.07809365540742874 0.006114134099334478 0.13500000536441803 210 167 160
0.07841108739376068 0.006114134099334478 0.13500000536441803 212 169 162
0.07872852683067322 0.006114134099334478 0.13500000536441803 219 169 164
0.07904596626758575 0.006114134099334478 0.13500000536441803 210 160 155
0.08858560025691986 0.006159423850476742 0.13600000739097595 201 165 155
0.057169053703546524 0.007193832658231258 0.1509999930858612 255 89 92
0.05752411484718323 0.007193832658231258 0.1509999930858612 241 86 94
0.05787917599081993 0.007193832658231258 0.1509999930858612 251 96 104
0.057848576456308365 0.007146191317588091 0.15000000596046448 255 108 120
0.05820128694176674 0.007146191317588091 0.15000000596046448 255 108 120
0.05855399742722511 0.007146191317588091 0.15000000596046448 250 106 117
0.05890670418739319 0.007146191317588091 0.15000000596046448 247 103 114
0.05925941467285156 0.007146191317588091 0.15000000596046448 244 102 112
0.059612125158309937 0.007146191317588091 0.15000000596046448 250 108 118
0.05996483191847801 0.007146191317588091 0.15000000596046448 249 125 129
0.060317542403936386 0.007146191317588091 0.15000000596046448 255 134 138
0.06067024916410446 0.007146191317588091 0.15000000596046448 249 143 139
0.061022959649562836 0.007146191317588091 0.15000000596046448 255 156 152
0.06137567013502121 0.007146191317588091 0.15000000596046448 255 162 154
0.061728376895189285 0.007146191317588091 0.15000000596046448 255 163 155
0.06208108738064766 0.007146191317588091 0.15000000596046448 251 160 151
0.062017571181058884 0.007098549976944923 0.14900000393390656 255 164 155
0.06236792728304863 0.007098549976944923 0.14900000393390656 241 159 147
0.06271828711032867 0.007098549976944923 0.14900000393390656 252 170 158
0.06264536082744598 0.007050908636301756 0.14800000190734863 214 137 132
0.0629933699965477 0.007050908636301756 0.14800000190734863 209 132 127
0.06291339546442032 0.007003267761319876 0.1469999998807907 224 181 174
0.0632590502500534 0.007003267761319876 0.1469999998807907 255 242 235
0.06360470503568649 0.007003267761319876 0.1469999998807907 255 255 249
0.06395035982131958 0.007003267761319876 0.1469999998807907 255 255 249
0.06385862827301025 0.006955626420676708 0.1459999978542328 254 255 249
0.06420192867517471 0.006955626420676708 0.1459999978542328 254 255 249
0.06454523652791977 0.006955626420676708 0.1459999978542328 254 255 249
0.06488853693008423 0.006955626420676708 0.1459999978542328 254 255 249
0.06478504836559296 0.006907985080033541 0.14499999582767487 254 255 249
0.06512600183486938 0.006907985080033541 0.14499999582767487 254 255 249
0.06546695530414581 0.006907985080033541 0.14499999582767487 254 255 249
0.06580790132284164 0.006907985080033541 0.14499999582767487 249 250 244
0.06614885479211807 0.006907985080033541 0.14499999582767487 250 251 245
0.06603125482797623 0.006860343739390373 0.14399999380111694 254 255 249
0.06636986136436462 0.006860343739390373 0.14399999380111694 255 255 247
0.06624520570039749 0.006812702398747206 0.14300000667572021 254 255 246
0.06658145785331726 0.006812702398747206 0.14300000667572021 248 217 215
0.06691770255565643 0.006812702398747206 0.14300000667572021 233 202 200
0.0672539547085762 0.006812702398747206 0.14300000667572021 252 208 208
0.06711754202842712 0.006765061058104038 0.1420000046491623 239 195 195
0.06745143979787827 0.006765061058104038 0.1420000046491623 255 246 236
0.0677853375673294 0.006765061058104038 0.1420000046491623 255 249 239
0.06811923533678055 0.006765061058104038 0.1420000046491623 254 255 245
0.06845313310623169 0.006765061058104038 0.1420000046491623 254 255 245
0.06878703087568283 0.006765061058104038 0.1420000046491623 254 255 249
0.0696076974272728 0.006812702398747206 0.14300000667572021 254 255 249
0.06994394958019257 0.006812702398747206 0.14300000667572021 254 255 249
0.07028020173311234 0.006812702398747206 0.14300000667572021 254 255 249
0.07061644643545151 0.006812702398747206 0.14300000667572021 254 255 249
0.07095269858837128 0.006812702398747206 0.14300000667572021 254 255 249
0.07079042494297028 0.006765061058104038 0.1420000046491623 254 255 249
0.07112432271242142 0.006765061058104038 0.1420000046491623 254 255 249
0.07095499336719513 0.006717419717460871 0.14100000262260437 254 255 249
0.07128653675317764 0.006717419717460871 0.14100000262260437 252 253 247
0.07111015170812607 0.006669778376817703 0.14000000059604645 255 250 249
0.07143934816122055 0.006669778376817703 0.14000000059604645 243 235 234
0.07125591486692429 0.006622137501835823 0.13899999856948853 220 192 193
0.07158275693655014 0.006622137501835823 0.13899999856948853 206 178 179
0.07139226794242859 0.0065744961611926556 0.1379999965429306 208 172 164
0.07171675562858582 0.0065744961611926556 0.1379999965429306 229 193 185
0.07216349244117737 0.006526854820549488 0.13699999451637268 246 227 225
0.07248563319444656 0.006526854820549488 0.13699999451637268 245 226 224
0.07280777394771576 0.006526854820549488 0.13699999451637268 235 196 203
0.07312991470098495 0.006526854820549488 0.13699999451637268 234 195 202
0.07291591167449951 0.006479213479906321 0.13600000739097595 241 193 199
0.07323569804430008 0.006479213479906321 0.13600000739097595 236 188 194
0.07355549186468124 0.006479213479906321 0.13600000739097595 231 176 175
0.07387527823448181 0.006479213479906321 0.13600000739097595 228 173 172
0.07419507205486298 0.006479213479906321 0.13600000739097595 236 178 178
0.07451485842466354 0.006479213479906321 0.13600000739097595 236 178 178
0.07483465224504471 0.006479213479906321 0.13600000739097595 222 163 166
0.07515443861484528 0.006479213479906321 0.13600000739097595 210 151 154
0.07547422498464584 0.006479213479906321 0.13600000739097595 214 158 162
0.07579401880502701 0.006479213479906321 0.13600000739097595 208 152 156
0.07739296555519104 0.006479213479906321 0.13600000739097595 247 201 195
0.07771275192499161 0.006479213479906321 0.13600000739097595 226 180 174
0.0777762159705162 0.006431572139263153 0.13500000536441803 202 156 152
0.07809365540742874 0.006431572139263153 0.13500000536441803 203 153 146
0.07841108739376068 0.006431572139263153 0.13500000536441803 203 153 146
0.07872852683067322 0.006431572139263153 0.13500000536441803 203 148 143
0.07968084514141083 0.006431572139263153 0.13500000536441803 206 148 146
0.08827054500579834 0.006526854820549488 0.13699999451637268 202 159 150
0.08858560025691986 0.006479213479906321 0.13600000739097595 201 165 153
0.05681399255990982 0.007548893336206675 0.1509999930858612 252 94 101
0.057169053703546524 0.007548893336206675 0.1509999930858612 255 107 114
0.057143159210681915 0.007498900406062603 0.15000000596046448 255 105 114
0.05749586969614029 0.007498900406062603 0.15000000596046448 252 99 108
0.057848576456308365 0.007498900406062603 0.15000000596046448 253 105 115
0.05820128694176674 0.007498900406062603 0.15000000596046448 255 109 119
0.05855399742722511 0.007498900406062603 0.15000000596046448 255 108 120
0.05890670418739319 0.007498900406062603 0.15000000596046448 255 108 120
0.05925941467285156 0.007498900406062603 0.15000000596046448 245 101 110
0.059612125158309937 0.007498900406062603 0.15000000596046448 252 108 117
0.05996483191847801 0.007498900406062603 0.15000000596046448 249 125 127
0.060317542403936386 0.007498900406062603 0.15000000596046448 255 132 134
0.06067024916410446 0.007498900406062603 0.15000000596046448 255 148 142
0.061022959649562836 0.007498900406062603 0.15000000596046448 255 159 153
0.06137567013502121 0.007498900406062603 0.15000000596046448 255 162 152
0.061728376895189285 0.007498900406062603 0.15000000596046448 255 162 152
0.06166721135377884 0.007448907941579819 0.14900000393390656 255 165 153
0.062017571181058884 0.007448907941579819 0.14900000393390656 255 165 153
0.06236792728304863 0.007448907941579819 0.14900000393390656 250 163 150
0.06271828711032867 0.007448907941579819 0.14900000393390656 255 173 160
0.06264536082744598 0.007398915011435747 0.14800000190734863 234 152 142
0.0629933699965477 0.007398915011435747 0.14800000190734863 232 150 140
0.06291339546442032 0.007348922546952963 0.1469999998807907 241 200 192
0.0632590502500534 0.007348922546952963 0.1469999998807907 255 243 235
0.06360470503568649 0.007348922546952963 0.1469999998807907 255 255 249
0.0635153204202652 0.007298929616808891 0.1459999978542328 255 255 249
0.06385862827301025 0.007298929616808891 0.1459999978542328 254 255 249
0.06420192867517471 0.007298929616808891 0.1459999978542328 254 255 249
0.06454523652791977 0.007298929616808891 0.1459999978542328 254 255 249
0.06488853693008423 0.007298929616808891 0.1459999978542328 254 255 249
0.06478504836559296 0.007248937152326107 0.14499999582767487 254 255 249
0.06512600183486938 0.007248937152326107 0.14499999582767487 254 255 249
0.06546695530414581 0.007248937152326107 0.14499999582767487 254 255 249
0.06580790132284164 0.007248937152326107 0.14499999582767487 249 250 244
0.06569265574216843 0.007198944687843323 0.14399999380111694 250 251 245
0.06603125482797623 0.007198944687843323 0.14399999380111694 254 255 249
0.06590895354747772 0.007148951757699251 0.14300000667572021 255 253 245
0.06624520570039749 0.007148951757699251 0.14300000667572021 253 246 238
0.06658145785331726 0.007148951757699251 0.14300000667572021 252 213 211
0.06691770255565643 0.007148951757699251 0.14300000667572021 238 199 197
0.0672539547085762 0.007148951757699251 0.14300000667572021 241 192 191
0.06711754202842712 0.007098959293216467 0.1420000046491623 241 192 191
0.06745143979787827 0.007098959293216467 0.1420000046491623 255 247 234
0.0677853375673294 0.007098959293216467 0.1420000046491623 255 250 237
0.06811923533678055 0.007098959293216467 0.1420000046491623 254 255 245
0.06845313310623169 0.007098959293216467 0.1420000046491623 254 255 245
0.06878703087568283 0.007098959293216467 0.1420000046491623 254 255 249
0.06912093609571457 0.007098959293216467 0.1420000046491623 254 255 249
0.06994394958019257 0.007148951757699251 0.14300000667572021 254 255 249
0.07028020173311234 0.007148951757699251 0.14300000667572021 254 255 249
0.07061644643545151 0.007148951757699251 0.14300000667572021 254 255 249
0.07095269858837128 0.007148951757699251 0.14300000667572021 254 255 249
0.07079042494297028 0.007098959293216467 0.1420000046491623 254 255 249
0.07112432271242142 0.007098959293216467 0.1420000046491623 254 255 249
0.07095499336719513 0.007048966363072395 0.14100000262260437 253 254 248
0.07128653675317764 0.007048966363072395 0.14100000262260437 244 245 239
0.07111015170812607 0.006998973898589611 0.14000000059604645 241 227 223
0.07143934816122055 0.006998973898589611 0.14000000059604645 234 220 216
0.07125591486692429 0.0069489809684455395 0.13899999856948853 211 171 172
0.07158275693655014 0.0069489809684455395 0.13899999856948853 211 171 172
0.07139226794242859 0.006898988503962755 0.1379999965429306 211 163 159
0.07171675562858582 0.006898988503962755 0.1379999965429306 235 187 183
0.07204125076532364 0.006898988503962755 0.1379999965429306 255 248 235
0.07236573845148087 0.006898988503962755 0.1379999965429306 255 250 237
0.07216349244117737 0.006848995573818684 0.13699999451637268 255 238 236
0.07248563319444656 0.006848995573818684 0.13699999451637268 244 225 223
0.07280777394771576 0.006848995573818684 0.13699999451637268 238 199 206
0.07312991470098495 0.006848995573818684 0.13699999451637268 235 196 203
0.07291591167449951 0.006799003109335899 0.13600000739097595 232 183 182
0.07323569804430008 0.006799003109335899 0.13600000739097595 229 180 179
0.07355549186468124 0.006799003109335899 0.13600000739097595 247 187 185
0.07387527823448181 0.006799003109335899 0.13600000739097595 231 171 169
0.07419507205486298 0.006799003109335899 0.13600000739097595 236 176 174
0.07451485842466354 0.006799003109335899 0.13600000739097595 228 168 166
0.07483465224504471 0.006799003109335899 0.13600000739097595 229 170 173
0.07515443861484528 0.006799003109335899 0.13600000739097595 216 157 160
0.07547422498464584 0.006799003109335899 0.13600000739097595 212 157 156
0.07739296555519104 0.006799003109335899 0.13600000739097595 229 183 175
0.07714133709669113 0.006749010644853115 0.13500000536441803 212 166 158
0.07745877653360367 0.006749010644853115 0.13500000536441803 204 158 152
0.0777762159705162 0.006749010644853115 0.13500000536441803 201 155 149
0.055711131542921066 0.007799265440553427 0.14900000393390656 255 96 100
0.05606149137020111 0.007799265440553427 0.14900000393390656 255 107 113
0.05641184747219086 0.007799265440553427 0.14900000393390656 255 116 122
0.0567622035741806 0.007799265440553427 0.14900000393390656 255 113 125
0.05711256340146065 0.007799265440553427 0.14900000393390656 255 103 115
0.057462919503450394 0.007799265440553427 0.14900000393390656 251 100 113
0.05781327933073044 0.007799265440553427 0.14900000393390656 254 103 116
0.058163635432720184 0.007799265440553427 0.14900000393390656 255 108 118
0.05890670418739319 0.007851609960198402 0.15000000596046448 255 107 117
0.05925941467285156 0.007851609960198402 0.15000000596046448 247 103 112
0.059612125158309937 0.007851609960198402 0.15000000596046448 251 107 116
0.05996483191847801 0.007851609960198402 0.15000000596046448 253 124 125
0.060317542403936386 0.007851609960198402 0.15000000596046448 255 141 142
0.06067024916410446 0.007851609960198402 0.15000000596046448 255 147 143
0.061022959649562836 0.007851609960198402 0.15000000596046448 255 148 144
0.06137567013502121 0.007851609960198402 0.15000000596046448 255 158 150
0.061728376895189285 0.007851609960198402 0.15000000596046448 255 158 150
0.06166721135377884 0.007799265440553427 0.14900000393390656 255 161 151
0.062017571181058884 0.007799265440553427 0.14900000393390656 255 162 152
0.06236792728304863 0.007799265440553427 0.14900000393390656 255 166 153
0.062297359108924866 0.007746921386569738 0.14800000190734863 255 167 154
0.06264536082744598 0.007746921386569738 0.14800000190734863 241 151 139
0.0629933699965477 0.007746921386569738 0.14800000190734863 240 150 138
0.06291339546442032 0.00769457733258605 0.1469999998807907 238 197 189
0.0632590502500534 0.00769457733258605 0.1469999998807907 255 243 235
0.06360470503568649 0.00769457733258605 0.1469999998807907 255 255 247
0.0635153204202652 0.007642233278602362 0.1459999978542328 255 255 247
0.06385862827301025 0.007642233278602362 0.1459999978542328 254 255 249
0.06420192867517471 0.007642233278602362 0.1459999978542328 254 255 249
0.06454523652791977 0.007642233278602362 0.1459999978542328 254 255 249
0.06488853693008423 0.007642233278602362 0.1459999978542328 254 255 249
0.06478504836559296 0.007589889224618673 0.14499999582767487 254 255 249
0.06512600183486938 0.007589889224618673 0.14499999582767487 254 255 249
0.06546695530414581 0.007589889224618673 0.14499999582767487 254 255 249
0.06580790132284164 0.007589889224618673 0.14499999582767487 254 255 249
0.06569265574216843 0.007537545170634985 0.14399999380111694 254 255 249
0.06603125482797623 0.007537545170634985 0.14399999380111694 254 255 249
0.06590895354747772 0.007485201116651297 0.14300000667572021 255 248 242
0.06624520570039749 0.007485201116651297 0.14300000667572021 252 233 227
0.06658145785331726 0.007485201116651297 0.14300000667572021 244 197 198
0.06691770255565643 0.007485201116651297 0.14300000667572021 232 185 186
0.06678364425897598 0.007432857062667608 0.1420000046491623 251 193 193
0.06711754202842712 0.007432857062667608 0.1420000046491623 242 184 184
0.06745143979787827 0.007432857062667608 0.1420000046491623 255 245 235
0.0677853375673294 0.007432857062667608 0.1420000046491623 255 249 239
0.06811923533678055 0.007432857062667608 0.1420000046491623 254 255 245
0.06845313310623169 0.007432857062667608 0.1420000046491623 254 255 245
0.06878703087568283 0.007432857062667608 0.1420000046491623 254 255 249
0.06912093609571457 0.007432857062667608 0.1420000046491623 254 255 249
0.06994394958019257 0.007485201116651297 0.14300000667572021 254 255 249
0.07028020173311234 0.007485201116651297 0.14300000667572021 254 255 249
0.07061644643545151 0.007485201116651297 0.14300000667572021 254 255 249
0.07045652717351913 0.007432857062667608 0.1420000046491623 254 255 249
0.07079042494297028 0.007432857062667608 0.1420000046491623 254 255 249
0.07062344253063202 0.00738051300868392 0.14100000262260437 254 255 249
0.07095499336719513 0.00738051300868392 0.14100000262260437 255 255 247
0.07078096270561218 0.0073281689547002316 0.14000000059604645 255 255 247
0.07111015170812607 0.0073281689547002316 0.14000000059604645 255 239 234
0.07092906534671783 0.007275824900716543 0.13899999856948853 240 219 214
0.07125591486692429 0.007275824900716543 0.13899999856948853 224 173 173
0.07106777280569077 0.007223480846732855 0.1379999965429306 216 165 165
0.07139226794242859 0.007223480846732855 0.1379999965429306 206 153 149
0.07171675562858582 0.007223480846732855 0.1379999965429306 237 184 180
0.07204125076532364 0.007223480846732855 0.1379999965429306 255 246 237
0.07236573845148087 0.007223480846732855 0.1379999965429306 255 248 239
0.07216349244117737 0.0071711367927491665 0.13699999451637268 255 240 241
0.07248563319444656 0.0071711367927491665 0.13699999451637268 242 222 223
0.07280777394771576 0.0071711367927491665 0.13699999451637268 250 213 220
0.07312991470098495 0.0071711367927491665 0.13699999451637268 228 191 198
0.07345205545425415 0.0071711367927491665 0.13699999451637268 232 179 177
0.07323569804430008 0.007118792738765478 0.13600000739097595 238 185 183
0.07355549186468124 0.007118792738765478 0.13600000739097595 248 186 185
0.07387527823448181 0.007118792738765478 0.13600000739097595 237 175 174
0.07419507205486298 0.007118792738765478 0.13600000739097595 233 171 170
0.07451485842466354 0.007118792738765478 0.13600000739097595 229 167 166
0.07483465224504471 0.007118792738765478 0.13600000739097595 226 168 168
0.07515443861484528 0.007118792738765478 0.13600000739097595 227 169 169
0.07547422498464584 0.007118792738765478 0.13600000739097595 207 152 151
0.07714133709669113 0.00706644868478179 0.13500000536441803 214 169 158
0.07745877653360367 0.00706644868478179 0.13500000536441803 208 160 154
0.0777762159705162 0.00706644868478179 0.13500000536441803 204 156 150
0.07809365540742874 0.00706644868478179 0.13500000536441803 204 156 150
0.08794602006673813 0.007118792738765478 0.13600000739097595 202 150 141
0.05533723160624504 0.008094928227365017 0.14800000190734863 255 110 121
0.05568523705005646 0.008094928227365017 0.14800000190734863 255 114 126
0.05603324621915817 0.008094928227365017 0.14800000190734863 255 104 116
0.05638125166296959 0.008094928227365017 0.14800000190734863 254 99 116
0.056729257106781006 0.008094928227365017 0.14800000190734863 255 101 118
0.057462919503450394 0.008149622939527035 0.14900000393390656 253 99 113
0.05781327933073044 0.008149622939527035 0.14900000393390656 255 104 118
0.058163635432720184 0.008149622939527035 0.14900000393390656 255 106 117
0.05851399526000023 0.008149622939527035 0.14900000393390656 255 105 116
0.05925941467285156 0.008204318583011627 0.15000000596046448 255 108 118
0.059612125158309937 0.008204318583011627 0.15000000596046448 255 109 119
0.05996483191847801 0.008204318583011627 0.15000000596046448 255 124 129
0.060317542403936386 0.008204318583011627 0.15000000596046448 255 128 133
0.06067024916410446 0.008204318583011627 0.15000000596046448 250 130 131
0.061022959649562836 0.008204318583011627 0.15000000596046448 255 135 136
0.06137567013502121 0.008204318583011627 0.15000000596046448 254 144 141
0.061728376895189285 0.008204318583011627 0.15000000596046448 255 147 144
0.06166721135377884 0.008149622939527035 0.14900000393390656 255 150 146
0.062017571181058884 0.008149622939527035 0.14900000393390656 253 147 143
0.06236792728304863 0.008149622939527035 0.14900000393390656 249 147 139
0.062297359108924866 0.008094928227365017 0.14800000190734863 249 147 139
0.06264536082744598 0.008094928227365017 0.14800000190734863 243 149 138
0.0629933699965477 0.008094928227365017 0.14800000190734863 240 146 135
0.06291339546442032 0.008040232583880424 0.1469999998807907 240 197 188
0.0632590502500534 0.008040232583880424 0.1469999998807907 255 242 233
0.06360470503568649 0.008040232583880424 0.1469999998807907 255 255 245
0.0635153204202652 0.007985536940395832 0.1459999978542328 255 255 245
0.06385862827301025 0.007985536940395832 0.1459999978542328 254 255 249
0.06420192867517471 0.007985536940395832 0.1459999978542328 254 255 249
0.06454523652791977 0.007985536940395832 0.1459999978542328 254 255 249
0.06444409489631653 0.00793084129691124 0.14499999582767487 254 255 249
0.06478504836559296 0.00793084129691124 0.14499999582767487 254 255 249
0.06512600183486938 0.00793084129691124 0.14499999582767487 254 255 249
0.06546695530414581 0.00793084129691124 0.14499999582767487 254 255 249
0.06580790132284164 0.00793084129691124 0.14499999582767487 254 255 249
0.06569265574216843 0.007876145653426647 0.14399999380111694 255 254 245
0.06603125482797623 0.007876145653426647 0.14399999380111694 247 243 234
0.06590895354747772 0.00782145094126463 0.14300000667572021 255 224 220
0.06624520570039749 0.00782145094126463 0.14300000667572021 245 213 209
0.06658145785331726 0.00782145094126463 0.14300000667572021 245 189 193
0.06691770255565643 0.00782145094126463 0.14300000667572021 235 179 183
0.06678364425897598 0.00776675483211875 0.1420000046491623 255 189 194
