0.09181409329175949 0.006526854820549488 0.13699999451637268 105 74 72
0.09280876070261002 0.0065744961611926556 0.1379999965429306 101 64 61
0.09313325583934784 0.0065744961611926556 0.1379999965429306 101 64 61
0.09345774352550507 0.0065744961611926556 0.1379999965429306 106 70 62
0.09378223866224289 0.0065744961611926556 0.1379999965429306 109 73 65
0.09410673379898071 0.0065744961611926556 0.1379999965429306 109 75 67
0.09443122148513794 0.0065744961611926556 0.1379999965429306 109 75 67
0.09475571662187576 0.0065744961611926556 0.1379999965429306 109 75 67
0.09576919674873352 0.006622137501835823 0.13899999856948853 105 71 63
0.09609603881835938 0.006622137501835823 0.13899999856948853 104 60 58
0.09642288088798523 0.006622137501835823 0.13899999856948853 97 53 51
0.09674973040819168 0.006622137501835823 0.13899999856948853 96 46 41
0.11772499233484268 0.008003734052181244 0.1679999977350235 99 44 41
0.06249495968222618 0.007548893336206675 0.1509999930858612 172 104 94
0.06243379786610603 0.007498900406062603 0.15000000596046448 171 103 93
0.06278650462627411 0.007498900406062603 0.15000000596046448 167 104 94
0.06271828711032867 0.007448907941579819 0.14900000393390656 164 101 91
0.06306864321231842 0.007448907941579819 0.14900000393390656 159 98 90
0.0629933699965477 0.007398915011435747 0.14800000190734863 153 92 84
0.06334137916564941 0.007398915011435747 0.14800000190734863 218 157 151
0.06368938088417053 0.007398915011435747 0.14800000190734863 255 194 188
0.06360470503568649 0.007348922546952963 0.1469999998807907 254 201 197
0.06395035982131958 0.007348922546952963 0.1469999998807907 255 209 205
0.06385862827301025 0.007298929616808891 0.1459999978542328 255 225 233
0.06420192867517471 0.007298929616808891 0.1459999978542328 255 220 228
0.06454523652791977 0.007298929616808891 0.1459999978542328 240 202 215
0.06488853693008423 0.007298929616808891 0.1459999978542328 220 182 195
0.06523183733224869 0.007298929616808891 0.1459999978542328 215 177 181
0.06557514518499374 0.007298929616808891 0.1459999978542328 200 162 166
0.0659184455871582 0.007298929616808891 0.1459999978542328 190 157 160
0.06626175343990326 0.007298929616808891 0.1459999978542328 180 147 150
0.06614885479211807 0.007248937152326107 0.14499999582767487 188 155 156
0.0664898082613945 0.007248937152326107 0.14499999582767487 187 154 155
0.06636986136436462 0.007198944687843323 0.14399999380111694 189 156 155
0.06670846045017242 0.007198944687843323 0.14399999380111694 174 141 140
0.06658145785331726 0.007148951757699251 0.14300000667572021 160 124 116
0.06691770255565643 0.007148951757699251 0.14300000667572021 167 131 123
0.06678364425897598 0.007098959293216467 0.1420000046491623 165 124 116
0.06711754202842712 0.007098959293216467 0.1420000046491623 159 118 110
0.06745143979787827 0.007098959293216467 0.1420000046491623 246 203 194
0.0677853375673294 0.007098959293216467 0.1420000046491623 244 201 192
0.06811923533678055 0.007098959293216467 0.1420000046491623 236 200 190
0.06845313310623169 0.007098959293216467 0.1420000046491623 238 202 192
0.06830261647701263 0.007048966363072395 0.14100000262260437 223 190 193
0.06863416731357574 0.007048966363072395 0.14100000262260437 202 169 172
0.06896571069955826 0.007048966363072395 0.14100000262260437 202 170 175
0.06880579143762589 0.006998973898589611 0.14000000059604645 201 169 174
0.06913498044013977 0.006998973898589611 0.14000000059604645 195 164 164
0.06946417689323425 0.006998973898589611 0.14000000059604645 190 159 159
0.06929484754800797 0.0069489809684455395 0.13899999856948853 190 159 157
0.06962169706821442 0.0069489809684455395 0.13899999856948853 186 155 153
0.06994853913784027 0.0069489809684455395 0.13899999856948853 181 151 146
0.06976979970932007 0.006898988503962755 0.1379999965429306 176 146 141
0.07009429484605789 0.006898988503962755 0.1379999965429306 181 148 149
0.07041878998279572 0.006898988503962755 0.1379999965429306 156 123 124
0.07074327766895294 0.006898988503962755 0.1379999965429306 149 112 109
0.07106777280569077 0.006898988503962755 0.1379999965429306 143 106 103
0.07139226794242859 0.006898988503962755 0.1379999965429306 143 106 101
0.07171675562858582 0.006898988503962755 0.1379999965429306 169 132 127
0.07204125076532364 0.006898988503962755 0.1379999965429306 187 155 149
0.07184135168790817 0.006848995573818684 0.13699999451637268 178 146 140
0.07216349244117737 0.006848995573818684 0.13699999451637268 176 145 145
0.07248563319444656 0.006848995573818684 0.13699999451637268 168 137 137
0.07280777394771576 0.006848995573818684 0.13699999451637268 159 128 126
0.07312991470098495 0.006848995573818684 0.13699999451637268 154 123 121
0.07345205545425415 0.006848995573818684 0.13699999451637268 151 121 116
0.07377419620752335 0.006848995573818684 0.13699999451637268 147 117 112
0.07409633696079254 0.006848995573818684 0.13699999451637268 144 112 106
0.07441847771406174 0.006848995573818684 0.13699999451637268 142 110 104
0.07474061846733093 0.006848995573818684 0.13699999451637268 144 109 104
0.07506275922060013 0.006848995573818684 0.13699999451637268 146 111 106
0.07538489997386932 0.006848995573818684 0.13699999451637268 144 109 104
0.07570704072713852 0.006848995573818684 0.13699999451637268 142 107 102
0.07602918893098831 0.006848995573818684 0.13699999451637268 137 100 95
0.07635132968425751 0.006848995573818684 0.13699999451637268 129 92 87
0.07611380517482758 0.006799003109335899 0.13600000739097595 127 91 83
0.07643359899520874 0.006799003109335899 0.13600000739097595 128 92 84
0.07675338536500931 0.006799003109335899 0.13600000739097595 142 106 96
0.07707317918539047 0.006799003109335899 0.13600000739097595 148 112 102
0.07739296555519104 0.006799003109335899 0.13600000739097595 148 117 108
0.07771275192499161 0.006799003109335899 0.13600000739097595 142 111 102
0.07803254574537277 0.006799003109335899 0.13600000739097595 138 107 98
0.07835233211517334 0.006799003109335899 0.13600000739097595 134 103 94
0.0786721259355545 0.006799003109335899 0.13600000739097595 133 98 93
0.07899191230535507 0.006799003109335899 0.13600000739097595 130 95 90
0.07931170612573624 0.006799003109335899 0.13600000739097595 128 91 86
0.0796314924955368 0.006799003109335899 0.13600000739097595 128 91 86
0.07995127886533737 0.006799003109335899 0.13600000739097595 125 89 81
0.07968084514141083 0.006749010644853115 0.13500000536441803 125 89 81
0.07999828457832336 0.006749010644853115 0.13500000536441803 121 87 79
0.0803157165646553 0.006749010644853115 0.13500000536441803 125 91 83
0.08063315600156784 0.006749010644853115 0.13500000536441803 120 86 78
0.08095059543848038 0.006749010644853115 0.13500000536441803 113 79 71
0.08126803487539291 0.006749010644853115 0.13500000536441803 112 78 70
0.08158547431230545 0.006749010644853115 0.13500000536441803 114 80 72
0.08190291374921799 0.006749010644853115 0.13500000536441803 121 88 73
0.08222034573554993 0.006749010644853115 0.13500000536441803 123 90 75
0.08253778517246246 0.006749010644853115 0.13500000536441803 121 87 75
0.082855224609375 0.006749010644853115 0.13500000536441803 123 89 77
0.08317266404628754 0.006749010644853115 0.13500000536441803 126 92 82
0.08349010348320007 0.006749010644853115 0.13500000536441803 125 91 81
0.0844283327460289 0.006799003109335899 0.13600000739097595 125 91 81
0.08474812656641006 0.006799003109335899 0.13600000739097595 123 89 79
0.08506791293621063 0.006799003109335899 0.13600000739097595 122 88 80
0.0853877067565918 0.006799003109335899 0.13600000739097595 115 81 73
0.08570749312639236 0.006799003109335899 0.13600000739097595 107 73 65
0.08602728694677353 0.006799003109335899 0.13600000739097595 108 74 66
0.0863470733165741 0.006799003109335899 0.13600000739097595 110 74 62
0.08730412274599075 0.006848995573818684 0.13699999451637268 113 77 65
0.08762626349925995 0.006848995573818684 0.13699999451637268 123 86 72
0.08794840425252914 0.006848995573818684 0.13699999451637268 130 93 79
0.08827054500579834 0.006848995573818684 0.13699999451637268 137 101 89
0.08859268575906754 0.006848995573818684 0.13699999451637268 132 96 84
0.08891482651233673 0.006848995573818684 0.13699999451637268 132 101 90
0.08923696726560593 0.006848995573818684 0.13699999451637268 133 102 91
0.08955910801887512 0.006848995573818684 0.13699999451637268 124 97 89
0.08988124877214432 0.006848995573818684 0.13699999451637268 122 95 87
0.09020338952541351 0.006848995573818684 0.13699999451637268 122 95 89
0.09052553027868271 0.006848995573818684 0.13699999451637268 118 91 85
0.0908476710319519 0.006848995573818684 0.13699999451637268 114 88 84
0.0911698117852211 0.006848995573818684 0.13699999451637268 114 88 84
0.0914919525384903 0.006848995573818684 0.13699999451637268 113 77 79
0.09181409329175949 0.006848995573818684 0.13699999451637268 106 70 72
0.09280876070261002 0.006898988503962755 0.1379999965429306 101 62 60
0.09313325583934784 0.006898988503962755 0.1379999965429306 102 63 61
0.09345774352550507 0.006898988503962755 0.1379999965429306 107 70 65
0.09378223866224289 0.006898988503962755 0.1379999965429306 106 69 64
0.09410673379898071 0.006898988503962755 0.1379999965429306 104 70 62
0.09443122148513794 0.006898988503962755 0.1379999965429306 104 70 62
0.09544235467910767 0.0069489809684455395 0.13899999856948853 107 73 65
0.09576919674873352 0.0069489809684455395 0.13899999856948853 104 70 62
0.09609603881835938 0.0069489809684455395 0.13899999856948853 106 65 59
0.09642288088798523 0.0069489809684455395 0.13899999856948853 107 66 60
0.09674973040819168 0.0069489809684455395 0.13899999856948853 95 47 41
0.06278650462627411 0.007851609960198402 0.15000000596046448 164 101 89
0.06271828711032867 0.007799265440553427 0.14900000393390656 164 101 89
0.06306864321231842 0.007799265440553427 0.14900000393390656 159 100 91
0.0629933699965477 0.007746921386569738 0.14800000190734863 154 95 86
0.06334137916564941 0.007746921386569738 0.14800000190734863 228 168 164
0.0632590502500534 0.00769457733258605 0.1469999998807907 253 193 189
0.06360470503568649 0.00769457733258605 0.1469999998807907 254 199 196
0.06395035982131958 0.00769457733258605 0.1469999998807907 255 213 210
0.06429601460695267 0.00769457733258605 0.1469999998807907 255 226 232
0.06420192867517471 0.007642233278602362 0.1459999978542328 255 216 222
0.06454523652791977 0.007642233278602362 0.1459999978542328 231 192 201
0.06488853693008423 0.007642233278602362 0.1459999978542328 219 180 189
0.06523183733224869 0.007642233278602362 0.1459999978542328 222 182 187
0.06557514518499374 0.007642233278602362 0.1459999978542328 216 176 181
0.0659184455871582 0.007642233278602362 0.1459999978542328 205 172 173
0.06626175343990326 0.007642233278602362 0.1459999978542328 184 151 152
0.06614885479211807 0.007589889224618673 0.14499999582767487 189 156 157
0.0664898082613945 0.007589889224618673 0.14499999582767487 188 155 156
0.06636986136436462 0.007537545170634985 0.14399999380111694 182 146 146
0.06624520570039749 0.007485201116651297 0.14300000667572021 156 120 120
0.06658145785331726 0.007485201116651297 0.14300000667572021 161 122 118
0.06691770255565643 0.007485201116651297 0.14300000667572021 167 128 124
0.06678364425897598 0.007432857062667608 0.1420000046491623 162 121 113
0.06711754202842712 0.007432857062667608 0.1420000046491623 149 108 100
0.06745143979787827 0.007432857062667608 0.1420000046491623 240 198 186
0.0677853375673294 0.007432857062667608 0.1420000046491623 242 200 188
0.06811923533678055 0.007432857062667608 0.1420000046491623 229 193 181
0.06845313310623169 0.007432857062667608 0.1420000046491623 230 194 182
0.06830261647701263 0.00738051300868392 0.14100000262260437 221 185 185
0.06863416731357574 0.00738051300868392 0.14100000262260437 215 179 179
0.06896571069955826 0.00738051300868392 0.14100000262260437 206 173 174
0.06880579143762589 0.0073281689547002316 0.14000000059604645 201 168 169
0.06913498044013977 0.0073281689547002316 0.14000000059604645 195 162 161
0.06946417689323425 0.0073281689547002316 0.14000000059604645 189 156 155
0.06929484754800797 0.007275824900716543 0.13899999856948853 191 156 153
0.06962169706821442 0.007275824900716543 0.13899999856948853 187 152 149
0.06994853913784027 0.007275824900716543 0.13899999856948853 180 148 144
0.06976979970932007 0.007223480846732855 0.1379999965429306 181 149 145
0.07009429484605789 0.007223480846732855 0.1379999965429306 181 143 143
0.07041878998279572 0.007223480846732855 0.1379999965429306 158 120 120
0.07074327766895294 0.007223480846732855 0.1379999965429306 146 107 105
0.07106777280569077 0.007223480846732855 0.1379999965429306 143 104 102
0.07139226794242859 0.007223480846732855 0.1379999965429306 145 104 98
0.07171675562858582 0.007223480846732855 0.1379999965429306 170 129 123
0.07204125076532364 0.007223480846732855 0.1379999965429306 189 154 149
0.07184135168790817 0.0071711367927491665 0.13699999451637268 180 145 140
0.07216349244117737 0.0071711367927491665 0.13699999451637268 176 145 145
0.07248563319444656 0.0071711367927491665 0.13699999451637268 161 130 130
0.07280777394771576 0.0071711367927491665 0.13699999451637268 153 122 120
0.07312991470098495 0.0071711367927491665 0.13699999451637268 154 123 121
0.07345205545425415 0.0071711367927491665 0.13699999451637268 153 121 117
0.07377419620752335 0.0071711367927491665 0.13699999451637268 149 117 113
0.07409633696079254 0.0071711367927491665 0.13699999451637268 147 115 109
0.07441847771406174 0.0071711367927491665 0.13699999451637268 142 110 104
0.07474061846733093 0.0071711367927491665 0.13699999451637268 142 110 104
0.07506275922060013 0.0071711367927491665 0.13699999451637268 146 114 108
0.07538489997386932 0.0071711367927491665 0.13699999451637268 142 108 100
0.07570704072713852 0.0071711367927491665 0.13699999451637268 133 99 91
0.07602918893098831 0.0071711367927491665 0.13699999451637268 134 97 92
0.07635132968425751 0.0071711367927491665 0.13699999451637268 124 87 82
0.07611380517482758 0.007118792738765478 0.13600000739097595 123 87 77
0.07643359899520874 0.007118792738765478 0.13600000739097595 125 89 79
0.07675338536500931 0.007118792738765478 0.13600000739097595 141 105 95
0.07707317918539047 0.007118792738765478 0.13600000739097595 143 107 97
0.07739296555519104 0.007118792738765478 0.13600000739097595 149 113 103
0.07771275192499161 0.007118792738765478 0.13600000739097595 144 108 98
0.07803254574537277 0.007118792738765478 0.13600000739097595 142 106 96
0.07835233211517334 0.007118792738765478 0.13600000739097595 136 100 90
0.0786721259355545 0.007118792738765478 0.13600000739097595 137 96 90
0.07899191230535507 0.007118792738765478 0.13600000739097595 138 97 91
0.07931170612573624 0.007118792738765478 0.13600000739097595 132 91 85
0.0796314924955368 0.007118792738765478 0.13600000739097595 132 91 85
0.07936340570449829 0.00706644868478179 0.13500000536441803 124 88 80
0.07968084514141083 0.00706644868478179 0.13500000536441803 122 86 78
0.07999828457832336 0.00706644868478179 0.13500000536441803 122 86 78
0.0803157165646553 0.00706644868478179 0.13500000536441803 125 89 81
0.08063315600156784 0.00706644868478179 0.13500000536441803 116 82 74
0.08095059543848038 0.00706644868478179 0.13500000536441803 113 79 71
0.08126803487539291 0.00706644868478179 0.13500000536441803 112 78 68
0.08158547431230545 0.00706644868478179 0.13500000536441803 112 78 68
0.08190291374921799 0.00706644868478179 0.13500000536441803 121 88 71
0.08222034573554993 0.00706644868478179 0.13500000536441803 125 92 75
0.08253778517246246 0.00706644868478179 0.13500000536441803 118 85 68
0.082855224609375 0.00706644868478179 0.13500000536441803 121 88 71
0.08317266404628754 0.00706644868478179 0.13500000536441803 126 92 80
0.08349010348320007 0.00706644868478179 0.13500000536441803 123 89 77
0.0844283327460289 0.007118792738765478 0.13600000739097595 122 88 76
0.08474812656641006 0.007118792738765478 0.13600000739097595 121 87 75
0.08506791293621063 0.007118792738765478 0.13600000739097595 119 84 79
0.0853877067565918 0.007118792738765478 0.13600000739097595 112 77 72
0.08570749312639236 0.007118792738765478 0.13600000739097595 107 72 69
0.08602728694677353 0.007118792738765478 0.13600000739097595 105 70 67
0.0863470733165741 0.007118792738765478 0.13600000739097595 108 72 60
0.08730412274599075 0.0071711367927491665 0.13699999451637268 115 79 67
0.08762626349925995 0.0071711367927491665 0.13699999451637268 121 84 70
0.08794840425252914 0.0071711367927491665 0.13699999451637268 124 87 73
0.08827054500579834 0.0071711367927491665 0.13699999451637268 132 96 84
0.08859268575906754 0.0071711367927491665 0.13699999451637268 130 94 82
0.08891482651233673 0.0071711367927491665 0.13699999451637268 130 99 88
0.08923696726560593 0.0071711367927491665 0.13699999451637268 131 100 89
0.08955910801887512 0.0071711367927491665 0.13699999451637268 124 94 87
0.08988124877214432 0.0071711367927491665 0.13699999451637268 120 90 83
0.09020338952541351 0.0071711367927491665 0.13699999451637268 123 93 86
0.09052553027868271 0.0071711367927491665 0.13699999451637268 119 89 82
0.0908476710319519 0.0071711367927491665 0.13699999451637268 114 87 81
0.0911698117852211 0.0071711367927491665 0.13699999451637268 114 87 81
0.0914919525384903 0.0071711367927491665 0.13699999451637268 114 76 76
0.09181409329175949 0.0071711367927491665 0.13699999451637268 108 70 70
0.09280876070261002 0.007223480846732855 0.1379999965429306 105 63 62
0.09313325583934784 0.007223480846732855 0.1379999965429306 104 62 61
0.09345774352550507 0.007223480846732855 0.1379999965429306 106 69 64
0.09378223866224289 0.007223480846732855 0.1379999965429306 106 69 64
0.09410673379898071 0.007223480846732855 0.1379999965429306 105 73 67
0.09443122148513794 0.007223480846732855 0.1379999965429306 103 71 65
0.09475571662187576 0.007223480846732855 0.1379999965429306 105 74 65
0.09576919674873352 0.007275824900716543 0.13899999856948853 103 72 63
0.09609603881835938 0.007275824900716543 0.13899999856948853 103 62 54
0.09642288088798523 0.007275824900716543 0.13899999856948853 94 53 45
0.09674973040819168 0.007275824900716543 0.13899999856948853 94 46 38
0.06306864321231842 0.008149622939527035 0.14900000393390656 160 100 89
0.0629933699965477 0.008094928227365017 0.14800000190734863 154 94 83
0.06334137916564941 0.008094928227365017 0.14800000190734863 225 166 159
0.0632590502500534 0.008040232583880424 0.1469999998807907 251 192 185
0.06360470503568649 0.008040232583880424 0.1469999998807907 250 195 192
0.06395035982131958 0.008040232583880424 0.1469999998807907 255 209 206
0.06385862827301025 0.007985536940395832 0.1459999978542328 255 222 228
0.06420192867517471 0.007985536940395832 0.1459999978542328 253 205 211
0.06454523652791977 0.007985536940395832 0.1459999978542328 233 189 200
0.06488853693008423 0.007985536940395832 0.1459999978542328 222 178 189
0.06523183733224869 0.007985536940395832 0.1459999978542328 209 166 172
0.06557514518499374 0.007985536940395832 0.1459999978542328 208 165 171
0.0659184455871582 0.007985536940395832 0.1459999978542328 201 165 169
0.06626175343990326 0.007985536940395832 0.1459999978542328 189 153 157
0.06614885479211807 0.00793084129691124 0.14499999582767487 184 148 152
0.0664898082613945 0.00793084129691124 0.14499999582767487 179 143 147
0.06636986136436462 0.007876145653426647 0.14399999380111694 174 134 137
0.06624520570039749 0.00782145094126463 0.14300000667572021 167 127 130
0.06658145785331726 0.00782145094126463 0.14300000667572021 159 120 116
0.06691770255565643 0.00782145094126463 0.14300000667572021 161 122 118
0.06678364425897598 0.00776675483211875 0.1420000046491623 159 118 108
0.06711754202842712 0.00776675483211875 0.1420000046491623 147 106 96
0.06745143979787827 0.00776675483211875 0.1420000046491623 231 188 179
0.0677853375673294 0.00776675483211875 0.1420000046491623 237 194 185
0.06811923533678055 0.00776675483211875 0.1420000046491623 227 189 182
0.06845313310623169 0.00776675483211875 0.1420000046491623 227 189 182
0.06830261647701263 0.0077120596542954445 0.14100000262260437 221 182 180
0.06863416731357574 0.0077120596542954445 0.14100000262260437 215 176 174
0.06896571069955826 0.0077120596542954445 0.14100000262260437 208 171 168
0.06880579143762589 0.007657364010810852 0.14000000059604645 206 169 166
0.06913498044013977 0.007657364010810852 0.14000000059604645 200 163 160
0.06946417689323425 0.007657364010810852 0.14000000059604645 194 157 154
0.06929484754800797 0.007602668832987547 0.13899999856948853 192 157 152
0.06962169706821442 0.007602668832987547 0.13899999856948853 190 155 150
0.06994853913784027 0.007602668832987547 0.13899999856948853 184 149 146
0.06976979970932007 0.0075479731895029545 0.1379999965429306 172 137 134
0.07009429484605789 0.0075479731895029545 0.1379999965429306 171 133 133
0.07041878998279572 0.0075479731895029545 0.1379999965429306 155 117 117
0.07074327766895294 0.0075479731895029545 0.1379999965429306 137 98 96
0.07106777280569077 0.0075479731895029545 0.1379999965429306 140 101 99
0.07139226794242859 0.0075479731895029545 0.1379999965429306 146 105 97
0.07171675562858582 0.0075479731895029545 0.1379999965429306 167 126 118
0.07204125076532364 0.0075479731895029545 0.1379999965429306 189 155 147
0.07236573845148087 0.0075479731895029545 0.1379999965429306 180 146 138
0.07216349244117737 0.007493277546018362 0.13699999451637268 169 138 136
0.07248563319444656 0.007493277546018362 0.13699999451637268 159 128 126
0.07280777394771576 0.007493277546018362 0.13699999451637268 153 122 120
0.07312991470098495 0.007493277546018362 0.13699999451637268 154 123 121
0.07345205545425415 0.007493277546018362 0.13699999451637268 149 117 111
0.07377419620752335 0.007493277546018362 0.13699999451637268 147 115 109
0.07409633696079254 0.007493277546018362 0.13699999451637268 147 115 109
0.07441847771406174 0.007493277546018362 0.13699999451637268 145 113 107
0.07474061846733093 0.007493277546018362 0.13699999451637268 144 112 106
0.07506275922060013 0.007493277546018362 0.13699999451637268 144 112 106
0.07538489997386932 0.007493277546018362 0.13699999451637268 140 105 100
0.07570704072713852 0.007493277546018362 0.13699999451637268 137 102 97
0.07602918893098831 0.007493277546018362 0.13699999451637268 139 102 97
0.07635132968425751 0.007493277546018362 0.13699999451637268 124 87 82
0.0766734704375267 0.007493277546018362 0.13699999451637268 122 86 76
0.07643359899520874 0.007438582368195057 0.13600000739097595 124 88 78
0.07675338536500931 0.007438582368195057 0.13600000739097595 138 100 89
0.07707317918539047 0.007438582368195057 0.13600000739097595 142 104 93
0.07739296555519104 0.007438582368195057 0.13600000739097595 149 111 100
0.07771275192499161 0.007438582368195057 0.13600000739097595 145 107 96
0.07803254574537277 0.007438582368195057 0.13600000739097595 142 104 95
0.07835233211517334 0.007438582368195057 0.13600000739097595 137 99 90
0.0786721259355545 0.007438582368195057 0.13600000739097595 138 97 89
0.07899191230535507 0.007438582368195057 0.13600000739097595 134 93 85
0.07931170612573624 0.007438582368195057 0.13600000739097595 130 89 81
0.0796314924955368 0.007438582368195057 0.13600000739097595 130 89 81
0.07936340570449829 0.0073838867247104645 0.13500000536441803 126 88 79
0.07968084514141083 0.0073838867247104645 0.13500000536441803 125 87 78
0.07999828457832336 0.0073838867247104645 0.13500000536441803 122 86 76
0.0803157165646553 0.0073838867247104645 0.13500000536441803 121 85 75
0.08063315600156784 0.0073838867247104645 0.13500000536441803 115 81 71
0.08095059543848038 0.0073838867247104645 0.13500000536441803 111 77 67
0.08126803487539291 0.0073838867247104645 0.13500000536441803 111 78 63
0.08158547431230545 0.0073838867247104645 0.13500000536441803 113 80 65
0.08190291374921799 0.0073838867247104645 0.13500000536441803 120 87 70
0.08222034573554993 0.0073838867247104645 0.13500000536441803 125 92 75
0.08253778517246246 0.0073838867247104645 0.13500000536441803 120 87 70
0.082855224609375 0.0073838867247104645 0.13500000536441803 123 90 73
0.08317266404628754 0.0073838867247104645 0.13500000536441803 127 94 79
0.08349010348320007 0.0073838867247104645 0.13500000536441803 122 89 74
0.0844283327460289 0.007438582368195057 0.13600000739097595 118 87 74
0.08474812656641006 0.007438582368195057 0.13600000739097595 117 86 73
0.08506791293621063 0.007438582368195057 0.13600000739097595 113 81 75
0.0853877067565918 0.007438582368195057 0.13600000739097595 107 75 69
0.08570749312639236 0.007438582368195057 0.13600000739097595 107 73 65
0.08602728694677353 0.007438582368195057 0.13600000739097595 105 71 63
0.0863470733165741 0.007438582368195057 0.13600000739097595 109 72 58
0.08730412274599075 0.007493277546018362 0.13699999451637268 114 77 63
0.08762626349925995 0.007493277546018362 0.13699999451637268 118 81 67
0.08794840425252914 0.007493277546018362 0.13699999451637268 123 86 72
0.08827054500579834 0.007493277546018362 0.13699999451637268 129 93 81
0.08859268575906754 0.007493277546018362 0.13699999451637268 129 93 81
0.08891482651233673 0.007493277546018362 0.13699999451637268 128 97 88
0.08923696726560593 0.007493277546018362 0.13699999451637268 132 101 92
0.08955910801887512 0.007493277546018362 0.13699999451637268 130 100 93
0.08988124877214432 0.007493277546018362 0.13699999451637268 125 95 88
0.09020338952541351 0.007493277546018362 0.13699999451637268 126 96 89
0.09052553027868271 0.007493277546018362 0.13699999451637268 119 89 82
0.0908476710319519 0.007493277546018362 0.13699999451637268 117 87 80
0.0911698117852211 0.007493277546018362 0.13699999451637268 115 85 78
0.0914919525384903 0.007493277546018362 0.13699999451637268 113 76 73
0.09181409329175949 0.007493277546018362 0.13699999451637268 108 71 68
0.09280876070261002 0.0075479731895029545 0.1379999965429306 105 63 62
0.09313325583934784 0.0075479731895029545 0.1379999965429306 104 62 61
0.09345774352550507 0.0075479731895029545 0.1379999965429306 106 69 66
0.09378223866224289 0.0075479731895029545 0.1379999965429306 106 69 66
0.09410673379898071 0.0075479731895029545 0.1379999965429306 103 71 65
0.09443122148513794 0.0075479731895029545 0.1379999965429306 106 74 68
0.09475571662187576 0.0075479731895029545 0.1379999965429306 104 73 64
0.09576919674873352 0.007602668832987547 0.13899999856948853 104 73 64
0.09609603881835938 0.007602668832987547 0.13899999856948853 99 61 52
0.09642288088798523 0.007602668832987547 0.13899999856948853 96 58 49
0.09674973040819168 0.007602668832987547 0.13899999856948853 95 47 39
0.09707657247781754 0.007602668832987547 0.13899999856948853 89 41 33
0.06306864321231842 0.00849998090416193 0.14900000393390656 156 91 82
0.0629933699965477 0.008442933671176434 0.14800000190734863 155 90 81
0.06334137916564941 0.008442933671176434 0.14800000190734863 220 156 151
0.0632590502500534 0.008385887369513512 0.1469999998807907 248 184 179
0.06360470503568649 0.008385887369513512 0.1469999998807907 241 179 176
0.06395035982131958 0.008385887369513512 0.1469999998807907 255 199 196
0.06385862827301025 0.008328840136528015 0.1459999978542328 255 218 224
0.06420192867517471 0.008328840136528015 0.1459999978542328 255 204 210
0.06454523652791977 0.008328840136528015 0.1459999978542328 243 192 203
0.06488853693008423 0.008328840136528015 0.1459999978542328 236 185 196
0.06523183733224869 0.008328840136528015 0.1459999978542328 208 165 169
0.06557514518499374 0.008328840136528015 0.1459999978542328 202 159 163
0.0659184455871582 0.008328840136528015 0.1459999978542328 198 162 164
0.06626175343990326 0.008328840136528015 0.1459999978542328 186 150 152
0.06614885479211807 0.008271793834865093 0.14499999582767487 184 148 152
0.0664898082613945 0.008271793834865093 0.14499999582767487 168 132 136
0.06636986136436462 0.008214746601879597 0.14399999380111694 163 123 126
0.06624520570039749 0.008157700300216675 0.14300000667572021 163 123 126
0.06658145785331726 0.008157700300216675 0.14300000667572021 160 118 115
0.06691770255565643 0.008157700300216675 0.14300000667572021 160 118 115
0.06678364425897598 0.008100653067231178 0.1420000046491623 159 118 108
0.06711754202842712 0.008100653067231178 0.1420000046491623 144 103 93
0.06745143979787827 0.008100653067231178 0.1420000046491623 216 170 162
0.0677853375673294 0.008100653067231178 0.1420000046491623 241 195 187
0.06811923533678055 0.008100653067231178 0.1420000046491623 230 186 184
0.06845313310623169 0.008100653067231178 0.1420000046491623 231 187 185
0.06878703087568283 0.008100653067231178 0.1420000046491623 224 180 180
0.06863416731357574 0.008043605834245682 0.14100000262260437 220 176 176
0.06896571069955826 0.008043605834245682 0.14100000262260437 201 159 156
0.06929726153612137 0.008043605834245682 0.14100000262260437 208 166 163
0.06913498044013977 0.00798655953258276 0.14000000059604645 202 163 159
0.06946417689323425 0.00798655953258276 0.14000000059604645 196 157 153
0.06929484754800797 0.007929512299597263 0.13899999856948853 193 156 151
0.06962169706821442 0.007929512299597263 0.13899999856948853 191 154 149
0.06994853913784027 0.007929512299597263 0.13899999856948853 185 149 149
0.06976979970932007 0.007872465997934341 0.1379999965429306 170 134 134
0.07009429484605789 0.007872465997934341 0.1379999965429306 166 128 130
0.07041878998279572 0.007872465997934341 0.1379999965429306 146 108 110
0.07074327766895294 0.007872465997934341 0.1379999965429306 144 102 99
0.07106777280569077 0.007872465997934341 0.1379999965429306 140 98 95
0.07139226794242859 0.007872465997934341 0.1379999965429306 134 94 81
0.07171675562858582 0.007872465997934341 0.1379999965429306 165 125 112
0.07204125076532364 0.007872465997934341 0.1379999965429306 191 157 147
0.07236573845148087 0.007872465997934341 0.1379999965429306 182 148 138
0.07269023358821869 0.007872465997934341 0.1379999965429306 173 143 138
0.07248563319444656 0.007815418764948845 0.13699999451637268 171 141 136
0.07280777394771576 0.007815418764948845 0.13699999451637268 154 122 118
0.07312991470098495 0.007815418764948845 0.13699999451637268 151 119 115
0.07345205545425415 0.007815418764948845 0.13699999451637268 147 116 107
0.07431269437074661 0.007872465997934341 0.1379999965429306 146 115 106
0.07463718950748444 0.007872465997934341 0.1379999965429306 147 116 107
0.07496168464422226 0.007872465997934341 0.1379999965429306 142 111 102
0.07474061846733093 0.007815418764948845 0.13699999451637268 141 110 101
0.07506275922060013 0.007815418764948845 0.13699999451637268 139 108 99
0.07538489997386932 0.007815418764948845 0.13699999451637268 142 106 98
0.07570704072713852 0.007815418764948845 0.13699999451637268 138 102 94
0.07602918893098831 0.007815418764948845 0.13699999451637268 134 92 89
0.07635132968425751 0.007815418764948845 0.13699999451637268 125 83 80
0.0766734704375267 0.007815418764948845 0.13699999451637268 121 80 72
0.07643359899520874 0.007758371997624636 0.13600000739097595 127 86 78
0.07675338536500931 0.007758371997624636 0.13600000739097595 135 95 82
0.07707317918539047 0.007758371997624636 0.13600000739097595 140 100 87
0.07739296555519104 0.007758371997624636 0.13600000739097595 147 106 96
0.07771275192499161 0.007758371997624636 0.13600000739097595 146 105 95
0.07803254574537277 0.007758371997624636 0.13600000739097595 145 104 94
0.07835233211517334 0.007758371997624636 0.13600000739097595 137 96 86
0.0786721259355545 0.007758371997624636 0.13600000739097595 138 97 89
0.07899191230535507 0.007758371997624636 0.13600000739097595 133 92 84
0.07931170612573624 0.007758371997624636 0.13600000739097595 132 91 83
0.0796314924955368 0.007758371997624636 0.13600000739097595 130 89 81
0.07936340570449829 0.0077013252303004265 0.13500000536441803 130 89 81
0.07968084514141083 0.0077013252303004265 0.13500000536441803 128 87 79
0.07999828457832336 0.0077013252303004265 0.13500000536441803 123 85 74
0.0803157165646553 0.0077013252303004265 0.13500000536441803 121 83 72
0.08063315600156784 0.0077013252303004265 0.13500000536441803 118 82 70
0.08095059543848038 0.0077013252303004265 0.13500000536441803 111 75 63
0.08126803487539291 0.0077013252303004265 0.13500000536441803 113 78 63
0.08158547431230545 0.0077013252303004265 0.13500000536441803 117 82 67
0.08190291374921799 0.0077013252303004265 0.13500000536441803 123 88 73
0.08222034573554993 0.0077013252303004265 0.13500000536441803 125 90 75
0.08253778517246246 0.0077013252303004265 0.13500000536441803 123 88 71
0.082855224609375 0.0077013252303004265 0.13500000536441803 124 89 72
0.08317266404628754 0.0077013252303004265 0.13500000536441803 123 93 77
0.08349010348320007 0.0077013252303004265 0.13500000536441803 119 89 73
0.08380754292011261 0.0077013252303004265 0.13500000536441803 118 88 72
0.08474812656641006 0.007758371997624636 0.13600000739097595 117 87 71
0.08506791293621063 0.007758371997624636 0.13600000739097595 113 82 71
0.0853877067565918 0.007758371997624636 0.13600000739097595 109 78 67
0.08570749312639236 0.007758371997624636 0.13600000739097595 108 74 64
0.08602728694677353 0.007758371997624636 0.13600000739097595 106 72 62
0.0863470733165741 0.007758371997624636 0.13600000739097595 109 69 56
0.08666686713695526 0.007758371997624636 0.13600000739097595 106 66 53
0.08762626349925995 0.007815418764948845 0.13699999451637268 122 80 66
0.08794840425252914 0.007815418764948845 0.13699999451637268 124 82 68
0.08827054500579834 0.007815418764948845 0.13699999451637268 125 89 77
0.08859268575906754 0.007815418764948845 0.13699999451637268 128 92 80
0.08891482651233673 0.007815418764948845 0.13699999451637268 126 94 88
0.08923696726560593 0.007815418764948845 0.13699999451637268 131 99 93
0.08955910801887512 0.007815418764948845 0.13699999451637268 127 95 89
0.08988124877214432 0.007815418764948845 0.13699999451637268 121 89 83
0.09020338952541351 0.007815418764948845 0.13699999451637268 122 92 85
0.09052553027868271 0.007815418764948845 0.13699999451637268 122 92 85
0.0908476710319519 0.007815418764948845 0.13699999451637268 119 87 81
0.0911698117852211 0.007815418764948845 0.13699999451637268 113 81 75
0.0914919525384903 0.007815418764948845 0.13699999451637268 111 75 67
0.09181409329175949 0.007815418764948845 0.13699999451637268 109 73 65
0.09213623404502869 0.007815418764948845 0.13699999451637268 107 64 59
0.09313325583934784 0.007872465997934341 0.1379999965429306 102 59 54
0.09345774352550507 0.007872465997934341 0.1379999965429306 102 64 57
0.09378223866224289 0.007872465997934341 0.1379999965429306 102 64 57
0.09410673379898071 0.007872465997934341 0.1379999965429306 103 71 65
0.09443122148513794 0.007872465997934341 0.1379999965429306 106 74 68
0.09475571662187576 0.007872465997934341 0.1379999965429306 102 70 64
0.09576919674873352 0.007929512299597263 0.13899999856948853 105 73 67
0.09609603881835938 0.007929512299597263 0.13899999856948853 103 65 56
0.09642288088798523 0.007929512299597263 0.13899999856948853 104 66 57
0.09674973040819168 0.007929512299597263 0.13899999856948853 96 48 42
0.09707657247781754 0.007929512299597263 0.13899999856948853 92 44 38
0.09740341454744339 0.007929512299597263 0.13899999856948853 91 36 35
0.06306864321231842 0.008850338868796825 0.14900000393390656 153 82 75
0.0629933699965477 0.008790940046310425 0.14800000190734863 158 87 80
0.06334137916564941 0.008790940046310425 0.14800000190734863 219 147 143
0.0632590502500534 0.008731542155146599 0.1469999998807907 247 175 171
0.06360470503568649 0.008731542155146599 0.1469999998807907 235 165 165
0.06395035982131958 0.008731542155146599 0.1469999998807907 248 178 178
0.06385862827301025 0.008672144263982773 0.1459999978542328 255 199 203
0.06420192867517471 0.008672144263982773 0.1459999978542328 255 198 202
0.06454523652791977 0.008672144263982773 0.1459999978542328 238 186 193
0.06488853693008423 0.008672144263982773 0.1459999978542328 239 187 194
0.06523183733224869 0.008672144263982773 0.1459999978542328 223 180 184
0.06557514518499374 0.008672144263982773 0.1459999978542328 202 159 163
0.0659184455871582 0.008672144263982773 0.1459999978542328 196 160 160
0.06580790132284164 0.008612745441496372 0.14499999582767487 185 149 149
0.06614885479211807 0.008612745441496372 0.14499999582767487 170 130 133
0.0664898082613945 0.008612745441496372 0.14499999582767487 161 121 124
0.06636986136436462 0.008553347550332546 0.14399999380111694 167 124 126
0.06624520570039749 0.008493948727846146 0.14300000667572021 162 119 121
0.06658145785331726 0.008493948727846146 0.14300000667572021 160 118 117
0.06691770255565643 0.008493948727846146 0.14300000667572021 159 117 116
0.06678364425897598 0.00843455083668232 0.1420000046491623 155 112 105
0.06711754202842712 0.00843455083668232 0.1420000046491623 141 98 91
0.06745143979787827 0.00843455083668232 0.1420000046491623 196 148 140
0.0677853375673294 0.00843455083668232 0.1420000046491623 245 197 189
0.06811923533678055 0.00843455083668232 0.1420000046491623 234 186 182
0.06845313310623169 0.00843455083668232 0.1420000046491623 229 181 177
0.06878703087568283 0.00843455083668232 0.1420000046491623 219 172 173
0.06863416731357574 0.008375152945518494 0.14100000262260437 219 172 173
0.06896571069955826 0.008375152945518494 0.14100000262260437 205 158 159
0.06929726153612137 0.008375152945518494 0.14100000262260437 208 161 162
0.06913498044013977 0.008315754123032093 0.14000000059604645 204 160 158
0.06946417689323425 0.008315754123032093 0.14000000059604645 199 155 153
0.06979337334632874 0.008315754123032093 0.14000000059604645 190 151 149
0.06962169706821442 0.008256356231868267 0.13899999856948853 187 148 146
0.06994853913784027 0.008256356231868267 0.13899999856948853 169 133 133
0.06976979970932007 0.008196958340704441 0.1379999965429306 156 120 120
0.07009429484605789 0.008196958340704441 0.1379999965429306 156 118 118
0.07041878998279572 0.008196958340704441 0.1379999965429306 143 105 105
0.07074327766895294 0.008196958340704441 0.1379999965429306 146 98 94
0.07106777280569077 0.008196958340704441 0.1379999965429306 138 90 86
0.07139226794242859 0.008196958340704441 0.1379999965429306 131 84 71
0.07171675562858582 0.008196958340704441 0.1379999965429306 161 114 101
0.07204125076532364 0.008196958340704441 0.1379999965429306 192 156 144
0.07236573845148087 0.008196958340704441 0.1379999965429306 188 152 140
0.07269023358821869 0.008196958340704441 0.1379999965429306 175 143 137
0.07301472872495651 0.008196958340704441 0.1379999965429306 168 136 130
0.07333921641111374 0.008196958340704441 0.1379999965429306 158 126 122
0.07366371154785156 0.008196958340704441 0.1379999965429306 151 119 115
0.07398820668458939 0.008196958340704441 0.1379999965429306 150 115 110
0.07431269437074661 0.008196958340704441 0.1379999965429306 149 114 109
0.07463718950748444 0.008196958340704441 0.1379999965429306 148 113 108
0.07496168464422226 0.008196958340704441 0.1379999965429306 144 109 104
0.07474061846733093 0.00813755951821804 0.13699999451637268 141 107 99
0.07506275922060013 0.00813755951821804 0.13699999451637268 139 105 97
0.07538489997386932 0.00813755951821804 0.13699999451637268 140 99 93
0.07570704072713852 0.00813755951821804 0.13699999451637268 138 97 91
0.07602918893098831 0.00813755951821804 0.13699999451637268 126 83 78
0.07635132968425751 0.00813755951821804 0.13699999451637268 122 79 74
0.0766734704375267 0.00813755951821804 0.13699999451637268 110 67 60
0.07643359899520874 0.008078161627054214 0.13600000739097595 124 81 74
0.07675338536500931 0.008078161627054214 0.13600000739097595 140 100 87
0.07707317918539047 0.008078161627054214 0.13600000739097595 142 102 89
0.07739296555519104 0.008078161627054214 0.13600000739097595 146 105 95
0.07771275192499161 0.008078161627054214 0.13600000739097595 144 103 93
0.07803254574537277 0.008078161627054214 0.13600000739097595 138 100 89
0.07835233211517334 0.008078161627054214 0.13600000739097595 135 97 86
0.0786721259355545 0.008078161627054214 0.13600000739097595 135 97 88
0.07899191230535507 0.008078161627054214 0.13600000739097595 129 91 82
0.07931170612573624 0.008078161627054214 0.13600000739097595 126 85 77
0.0796314924955368 0.008078161627054214 0.13600000739097595 125 84 76
0.07936340570449829 0.008018762804567814 0.13500000536441803 127 86 78
0.07968084514141083 0.008018762804567814 0.13500000536441803 126 85 77
0.07999828457832336 0.008018762804567814 0.13500000536441803 122 84 73
0.0803157165646553 0.008018762804567814 0.13500000536441803 118 80 69
0.08063315600156784 0.008018762804567814 0.13500000536441803 117 82 67
0.08095059543848038 0.008018762804567814 0.13500000536441803 113 78 63
0.08126803487539291 0.008018762804567814 0.13500000536441803 111 74 60
0.08158547431230545 0.008018762804567814 0.13500000536441803 109 72 58
0.08190291374921799 0.008018762804567814 0.13500000536441803 122 85 71
0.08222034573554993 0.008018762804567814 0.13500000536441803 124 87 73
0.08253778517246246 0.008018762804567814 0.13500000536441803 123 88 73
0.082855224609375 0.008018762804567814 0.13500000536441803 125 90 75
0.08317266404628754 0.008018762804567814 0.13500000536441803 120 90 74
0.08349010348320007 0.008018762804567814 0.13500000536441803 119 89 73
0.08380754292011261 0.008018762804567814 0.13500000536441803 118 88 72
0.08474812656641006 0.008078161627054214 0.13600000739097595 114 84 68
0.08506791293621063 0.008078161627054214 0.13600000739097595 112 78 66
0.0853877067565918 0.008078161627054214 0.13600000739097595 111 77 65
0.08570749312639236 0.008078161627054214 0.13600000739097595 112 74 63
0.08602728694677353 0.008078161627054214 0.13600000739097595 111 73 62
0.0863470733165741 0.008078161627054214 0.13600000739097595 110 68 56
0.08666686713695526 0.008078161627054214 0.13600000739097595 104 62 50
0.08762626349925995 0.00813755951821804 0.13699999451637268 119 74 63
0.08794840425252914 0.00813755951821804 0.13699999451637268 123 78 67
0.08827054500579834 0.00813755951821804 0.13699999451637268 122 84 75
0.08859268575906754 0.00813755951821804 0.13699999451637268 124 86 77
0.08891482651233673 0.00813755951821804 0.13699999451637268 126 94 88
0.08923696726560593 0.00813755951821804 0.13699999451637268 128 96 90
0.08955910801887512 0.00813755951821804 0.13699999451637268 123 93 86
0.08988124877214432 0.00813755951821804 0.13699999451637268 123 93 86
0.09020338952541351 0.00813755951821804 0.13699999451637268 122 93 83
0.09052553027868271 0.00813755951821804 0.13699999451637268 120 91 81
0.0908476710319519 0.00813755951821804 0.13699999451637268 118 87 78
0.0911698117852211 0.00813755951821804 0.13699999451637268 113 82 73
0.0914919525384903 0.00813755951821804 0.13699999451637268 109 73 65
0.09181409329175949 0.00813755951821804 0.13699999451637268 104 68 60
0.09213623404502869 0.00813755951821804 0.13699999451637268 104 61 56
0.09313325583934784 0.008196958340704441 0.1379999965429306 97 54 49
0.09345774352550507 0.008196958340704441 0.1379999965429306 101 60 54
0.09378223866224289 0.008196958340704441 0.1379999965429306 104 63 57
0.09410673379898071 0.008196958340704441 0.1379999965429306 102 68 60
0.09443122148513794 0.008196958340704441 0.1379999965429306 102 68 60
0.09475571662187576 0.008196958340704441 0.1379999965429306 102 67 62
0.09508021175861359 0.008196958340704441 0.1379999965429306 104 69 64
0.09609603881835938 0.008256356231868267 0.13899999856948853 100 62 55
0.09642288088798523 0.008256356231868267 0.13899999856948853 99 61 54
0.09674973040819168 0.008256356231868267 0.13899999856948853 100 50 47
0.09707657247781754 0.008256356231868267 0.13899999856948853 91 41 38
0.09740341454744339 0.008256356231868267 0.13899999856948853 92 37 36
0.06236792728304863 0.00920069683343172 0.14900000393390656 162 90 83
0.06271828711032867 0.00920069683343172 0.14900000393390656 160 88 81
0.06264536082744598 0.009138946421444416 0.14800000190734863 146 74 67
0.0629933699965477 0.009138946421444416 0.14800000190734863 161 89 82
0.06360470503568649 0.009077196940779686 0.1469999998807907 247 169 169
0.0635153204202652 0.009015447460114956 0.1459999978542328 247 169 169
0.06385862827301025 0.009015447460114956 0.1459999978542328 241 171 173
0.06420192867517471 0.009015447460114956 0.1459999978542328 255 190 192
0.06454523652791977 0.009015447460114956 0.1459999978542328 240 181 184
0.06488853693008423 0.009015447460114956 0.1459999978542328 241 182 185
0.06523183733224869 0.009015447460114956 0.1459999978542328 227 184 186
0.06557514518499374 0.009015447460114956 0.1459999978542328 209 166 168
0.06546695530414581 0.008953697979450226 0.14499999582767487 193 156 153
0.06580790132284164 0.008953697979450226 0.14499999582767487 189 152 149
0.06614885479211807 0.008953697979450226 0.14499999582767487 179 136 138
0.06603125482797623 0.008891948498785496 0.14399999380111694 167 124 126
0.06590895354747772 0.008830198086798191 0.14300000667572021 162 119 121
0.06624520570039749 0.008830198086798191 0.14300000667572021 158 115 117
0.06658145785331726 0.008830198086798191 0.14300000667572021 155 113 110
0.06691770255565643 0.008830198086798191 0.14300000667572021 155 113 110
0.06678364425897598 0.008768448606133461 0.1420000046491623 149 103 95
0.06711754202842712 0.008768448606133461 0.1420000046491623 138 92 84
0.06745143979787827 0.008768448606133461 0.1420000046491623 173 123 116
0.0677853375673294 0.008768448606133461 0.1420000046491623 244 194 187
0.06811923533678055 0.008768448606133461 0.1420000046491623 230 182 178
0.06845313310623169 0.008768448606133461 0.1420000046491623 225 177 173
0.06878703087568283 0.008768448606133461 0.1420000046491623 223 174 175
0.06863416731357574 0.008706699125468731 0.14100000262260437 215 166 167
0.06896571069955826 0.008706699125468731 0.14100000262260437 210 158 163
0.06929726153612137 0.008706699125468731 0.14100000262260437 209 157 162
0.06913498044013977 0.008644949644804 0.14000000059604645 198 151 150
0.06946417689323425 0.008644949644804 0.14000000059604645 195 148 147
0.06979337334632874 0.008644949644804 0.14000000059604645 190 146 144
0.06962169706821442 0.00858320016413927 0.13899999856948853 185 141 139
0.06994853913784027 0.00858320016413927 0.13899999856948853 170 130 131
0.07027538120746613 0.00858320016413927 0.13899999856948853 171 131 132
0.07009429484605789 0.00852145068347454 0.1379999965429306 158 116 115
0.07041878998279572 0.00852145068347454 0.1379999965429306 146 104 103
0.07074327766895294 0.00852145068347454 0.1379999965429306 157 104 100
0.07106777280569077 0.00852145068347454 0.1379999965429306 135 82 78
0.07139226794242859 0.00852145068347454 0.1379999965429306 122 74 57
0.07171675562858582 0.00852145068347454 0.1379999965429306 153 105 88
0.07204125076532364 0.00852145068347454 0.1379999965429306 190 150 137
0.07236573845148087 0.00852145068347454 0.1379999965429306 191 151 138
0.07269023358821869 0.00852145068347454 0.1379999965429306 177 143 135
0.07301472872495651 0.00852145068347454 0.1379999965429306 171 137 129
0.07333921641111374 0.00852145068347454 0.1379999965429306 162 127 122
0.07366371154785156 0.00852145068347454 0.1379999965429306 154 119 114
0.07398820668458939 0.00852145068347454 0.1379999965429306 153 118 113
0.07431269437074661 0.00852145068347454 0.1379999965429306 148 113 108
0.07463718950748444 0.00852145068347454 0.1379999965429306 146 111 106
0.07496168464422226 0.00852145068347454 0.1379999965429306 141 106 101
0.07474061846733093 0.008459700271487236 0.13699999451637268 142 106 98
0.07506275922060013 0.008459700271487236 0.13699999451637268 138 102 94
0.07538489997386932 0.008459700271487236 0.13699999451637268 139 98 90
0.07570704072713852 0.008459700271487236 0.13699999451637268 133 92 84
0.07602918893098831 0.008459700271487236 0.13699999451637268 128 85 80
0.07635132968425751 0.008459700271487236 0.13699999451637268 126 83 78
0.0766734704375267 0.008459700271487236 0.13699999451637268 108 62 56
0.07643359899520874 0.008397950790822506 0.13600000739097595 113 67 61
0.07675338536500931 0.008397950790822506 0.13600000739097595 139 97 85
0.07707317918539047 0.008397950790822506 0.13600000739097595 139 97 85
