0.08665984123945236 0.005560431629419327 0.13699999451637268 179 132 119
0.08698198199272156 0.005560431629419327 0.13699999451637268 182 136 120
0.08730412274599075 0.005560431629419327 0.13699999451637268 180 134 118
0.08762626349925995 0.005560431629419327 0.13699999451637268 195 147 130
0.0873064398765564 0.005519844591617584 0.13600000739097595 212 164 147
0.08762623369693756 0.005519844591617584 0.13600000739097595 217 166 148
0.08794602006673813 0.005519844591617584 0.13600000739097595 218 167 149
0.0882658138871193 0.005519844591617584 0.13600000739097595 211 166 155
0.08858560025691986 0.005519844591617584 0.13600000739097595 212 167 156
0.08890539407730103 0.005519844591617584 0.13600000739097595 215 173 172
0.08922518044710159 0.005519844591617584 0.13600000739097595 185 143 142
0.08954496681690216 0.005519844591617584 0.13600000739097595 187 145 142
0.08986476063728333 0.005519844591617584 0.13600000739097595 190 148 145
0.0908476710319519 0.005560431629419327 0.13699999451637268 190 147 142
0.0911698117852211 0.005560431629419327 0.13699999451637268 181 138 133
0.0914919525384903 0.005560431629419327 0.13699999451637268 173 123 116
0.09181409329175949 0.005560431629419327 0.13699999451637268 165 115 108
0.09280876070261002 0.005601019132882357 0.1379999965429306 162 112 105
0.09313325583934784 0.005601019132882357 0.1379999965429306 186 136 129
0.09413497895002365 0.005641606170684099 0.13899999856948853 196 146 143
0.0944618210196495 0.005641606170684099 0.13899999856948853 187 137 134
0.09478866308927536 0.005641606170684099 0.13899999856948853 181 129 134
0.09579978883266449 0.005682193208485842 0.14000000059604645 180 128 133
0.09612898528575897 0.005682193208485842 0.14000000059604645 180 128 133
0.09645818173885345 0.005682193208485842 0.14000000059604645 176 124 129
0.09678737819194794 0.005682193208485842 0.14000000059604645 148 91 98
0.09711657464504242 0.005682193208485842 0.14000000059604645 151 94 101
0.0974457710981369 0.005682193208485842 0.14000000059604645 153 89 98
0.11562275886535645 0.0066968705505132675 0.16500000655651093 162 86 85
0.06208108738064766 0.006440773140639067 0.15000000596046448 219 123 129
0.06243379786610603 0.006440773140639067 0.15000000596046448 210 114 120
0.06236792728304863 0.00639783451333642 0.14900000393390656 217 124 127
0.062297359108924866 0.006354896351695061 0.14800000190734863 222 129 132
0.06264536082744598 0.006354896351695061 0.14800000190734863 220 128 124
0.06256774067878723 0.006311957724392414 0.1469999998807907 217 125 121
0.06291339546442032 0.006311957724392414 0.1469999998807907 210 147 137
0.0632590502500534 0.006311957724392414 0.1469999998807907 255 228 218
0.06317202001810074 0.0062690190970897675 0.1459999978542328 255 251 236
0.0635153204202652 0.0062690190970897675 0.1459999978542328 255 254 239
0.06385862827301025 0.0062690190970897675 0.1459999978542328 254 255 247
0.06420192867517471 0.0062690190970897675 0.1459999978542328 254 255 247
0.06454523652791977 0.0062690190970897675 0.1459999978542328 254 255 249
0.06488853693008423 0.0062690190970897675 0.1459999978542328 254 255 249
0.06523183733224869 0.0062690190970897675 0.1459999978542328 254 255 249
0.06557514518499374 0.0062690190970897675 0.1459999978542328 254 255 249
0.0659184455871582 0.0062690190970897675 0.1459999978542328 254 255 249
0.06626175343990326 0.0062690190970897675 0.1459999978542328 254 255 249
0.06614885479211807 0.006226080935448408 0.14499999582767487 254 255 249
0.0664898082613945 0.006226080935448408 0.14499999582767487 254 255 249
0.06636986136436462 0.0061831423081457615 0.14399999380111694 254 254 248
0.06670846045017242 0.0061831423081457615 0.14399999380111694 254 254 248
0.06704705953598022 0.0061831423081457615 0.14399999380111694 255 236 228
0.06691770255565643 0.006140203680843115 0.14300000667572021 245 211 203
0.0672539547085762 0.006140203680843115 0.14300000667572021 255 202 196
0.06759020686149597 0.006140203680843115 0.14300000667572021 227 174 168
0.06745143979787827 0.006097265053540468 0.1420000046491623 255 239 229
0.0677853375673294 0.006097265053540468 0.1420000046491623 255 247 237
0.06811923533678055 0.006097265053540468 0.1420000046491623 255 255 245
0.06845313310623169 0.006097265053540468 0.1420000046491623 255 255 245
0.06927145272493362 0.006140203680843115 0.14300000667572021 254 255 249
0.0696076974272728 0.006140203680843115 0.14300000667572021 254 255 249
0.06994394958019257 0.006140203680843115 0.14300000667572021 254 255 249
0.07028020173311234 0.006140203680843115 0.14300000667572021 254 255 249
0.07061644643545151 0.006140203680843115 0.14300000667572021 254 255 249
0.07095269858837128 0.006140203680843115 0.14300000667572021 254 255 249
0.07079042494297028 0.006097265053540468 0.1420000046491623 254 255 249
0.07112432271242142 0.006097265053540468 0.1420000046491623 254 255 249
0.07095499336719513 0.006054326891899109 0.14100000262260437 254 255 249
0.07078096270561218 0.006011388264596462 0.14000000059604645 254 255 249
0.07060222327709198 0.005968449637293816 0.13899999856948853 255 251 249
0.07041878998279572 0.005925511475652456 0.1379999965429306 249 237 235
0.07074327766895294 0.005925511475652456 0.1379999965429306 248 208 211
0.07106777280569077 0.005925511475652456 0.1379999965429306 242 202 205
0.07139226794242859 0.005925511475652456 0.1379999965429306 190 148 145
0.07171675562858582 0.005925511475652456 0.1379999965429306 246 204 201
0.07184135168790817 0.00588257284834981 0.13699999451637268 255 252 245
0.07216349244117737 0.00588257284834981 0.13699999451637268 255 250 251
0.07248563319444656 0.00588257284834981 0.13699999451637268 255 241 242
0.07280777394771576 0.00588257284834981 0.13699999451637268 247 213 221
0.07259611785411835 0.005839634221047163 0.13600000739097595 244 210 218
0.07291591167449951 0.005839634221047163 0.13600000739097595 255 209 213
0.07323569804430008 0.005839634221047163 0.13600000739097595 249 201 205
0.07355549186468124 0.005839634221047163 0.13600000739097595 246 198 190
0.07387527823448181 0.005839634221047163 0.13600000739097595 243 195 187
0.07419507205486298 0.005839634221047163 0.13600000739097595 244 198 194
0.07451485842466354 0.005839634221047163 0.13600000739097595 241 195 191
0.07483465224504471 0.005839634221047163 0.13600000739097595 228 180 186
0.07515443861484528 0.005839634221047163 0.13600000739097595 228 180 186
0.07547422498464584 0.005839634221047163 0.13600000739097595 227 177 185
0.07579401880502701 0.005839634221047163 0.13600000739097595 213 163 171
0.07611380517482758 0.005839634221047163 0.13600000739097595 177 132 135
0.07643359899520874 0.005839634221047163 0.13600000739097595 176 131 134
0.07675338536500931 0.005839634221047163 0.13600000739097595 234 188 184
0.07707317918539047 0.005839634221047163 0.13600000739097595 255 217 213
0.07739296555519104 0.005839634221047163 0.13600000739097595 255 225 214
0.07771275192499161 0.005839634221047163 0.13600000739097595 255 209 198
0.07803254574537277 0.005839634221047163 0.13600000739097595 255 205 191
0.07835233211517334 0.005839634221047163 0.13600000739097595 249 198 184
0.0786721259355545 0.005839634221047163 0.13600000739097595 242 185 176
0.07899191230535507 0.005839634221047163 0.13600000739097595 245 188 179
0.07931170612573624 0.005839634221047163 0.13600000739097595 238 179 182
0.0796314924955368 0.005839634221047163 0.13600000739097595 223 164 167
0.07995127886533737 0.005839634221047163 0.13600000739097595 214 159 165
0.08027107268571854 0.005839634221047163 0.13600000739097595 209 154 160
0.0805908590555191 0.005839634221047163 0.13600000739097595 206 158 162
0.08091065287590027 0.005839634221047163 0.13600000739097595 198 150 154
0.08123043924570084 0.005839634221047163 0.13600000739097595 192 148 148
0.081550233066082 0.005839634221047163 0.13600000739097595 188 144 144
0.08187001943588257 0.005839634221047163 0.13600000739097595 185 144 138
0.08218980580568314 0.005839634221047163 0.13600000739097595 185 144 138
0.0825095996260643 0.005839634221047163 0.13600000739097595 213 175 168
0.08282938599586487 0.005839634221047163 0.13600000739097595 190 152 145
0.08314917981624603 0.005839634221047163 0.13600000739097595 195 159 151
0.0834689661860466 0.005839634221047163 0.13600000739097595 198 162 154
0.08378876000642776 0.005839634221047163 0.13600000739097595 194 158 148
0.08410854637622833 0.005839634221047163 0.13600000739097595 187 151 141
0.0844283327460289 0.005839634221047163 0.13600000739097595 181 145 135
0.08474812656641006 0.005839634221047163 0.13600000739097595 180 144 134
0.08506791293621063 0.005839634221047163 0.13600000739097595 175 138 124
0.0853877067565918 0.005839634221047163 0.13600000739097595 171 134 120
0.08570749312639236 0.005839634221047163 0.13600000739097595 180 134 118
0.08602728694677353 0.005839634221047163 0.13600000739097595 179 133 117
0.0863470733165741 0.005839634221047163 0.13600000739097595 179 133 117
0.08666686713695526 0.005839634221047163 0.13600000739097595 175 129 113
0.08698665350675583 0.005839634221047163 0.13600000739097595 194 146 129
0.0873064398765564 0.005839634221047163 0.13600000739097595 202 154 137
0.08762623369693756 0.005839634221047163 0.13600000739097595 210 159 141
0.08794602006673813 0.005839634221047163 0.13600000739097595 218 167 149
0.0882658138871193 0.005839634221047163 0.13600000739097595 214 167 156
0.08858560025691986 0.005839634221047163 0.13600000739097595 213 166 155
0.08890539407730103 0.005839634221047163 0.13600000739097595 202 155 156
0.08922518044710159 0.005839634221047163 0.13600000739097595 183 136 137
0.08954496681690216 0.005839634221047163 0.13600000739097595 188 144 144
0.08986476063728333 0.005839634221047163 0.13600000739097595 190 146 146
0.0908476710319519 0.00588257284834981 0.13699999451637268 182 133 132
0.0911698117852211 0.00588257284834981 0.13699999451637268 178 129 128
0.0914919525384903 0.00588257284834981 0.13699999451637268 173 120 114
0.09248427301645279 0.005925511475652456 0.1379999965429306 167 114 108
0.09280876070261002 0.005925511475652456 0.1379999965429306 167 115 106
0.09313325583934784 0.005925511475652456 0.1379999965429306 184 132 123
0.09413497895002365 0.005968449637293816 0.13899999856948853 192 144 136
0.0944618210196495 0.005968449637293816 0.13899999856948853 174 126 118
0.09478866308927536 0.005968449637293816 0.13899999856948853 186 137 136
0.09579978883266449 0.006011388264596462 0.14000000059604645 180 131 130
0.09612898528575897 0.006011388264596462 0.14000000059604645 171 116 122
0.09645818173885345 0.006011388264596462 0.14000000059604645 163 108 114
0.09678737819194794 0.006011388264596462 0.14000000059604645 146 82 91
0.09711657464504242 0.006011388264596462 0.14000000059604645 147 83 92
0.0974457710981369 0.006011388264596462 0.14000000059604645 153 86 96
0.11562275886535645 0.007084850687533617 0.16500000655651093 156 79 83
0.061728376895189285 0.006793482229113579 0.15000000596046448 255 156 163
0.06208108738064766 0.006793482229113579 0.15000000596046448 253 159 167
0.062017571181058884 0.006748192477971315 0.14900000393390656 245 151 159
0.06236792728304863 0.006748192477971315 0.14900000393390656 225 132 135
0.062297359108924866 0.006702902726829052 0.14800000190734863 212 119 122
0.06264536082744598 0.006702902726829052 0.14800000190734863 221 126 123
0.06256774067878723 0.006657612510025501 0.1469999998807907 221 126 123
0.06291339546442032 0.006657612510025501 0.1469999998807907 246 193 180
0.0632590502500534 0.006657612510025501 0.1469999998807907 255 240 227
0.06317202001810074 0.006612322758883238 0.1459999978542328 255 255 241
0.0635153204202652 0.006612322758883238 0.1459999978542328 255 255 241
0.06385862827301025 0.006612322758883238 0.1459999978542328 254 255 249
0.06420192867517471 0.006612322758883238 0.1459999978542328 254 255 249
0.06454523652791977 0.006612322758883238 0.1459999978542328 254 255 249
0.06488853693008423 0.006612322758883238 0.1459999978542328 254 255 249
0.06523183733224869 0.006612322758883238 0.1459999978542328 254 255 249
0.06557514518499374 0.006612322758883238 0.1459999978542328 254 255 249
0.0659184455871582 0.006612322758883238 0.1459999978542328 254 255 249
0.06626175343990326 0.006612322758883238 0.1459999978542328 253 254 248
0.06614885479211807 0.006567033007740974 0.14499999582767487 254 255 249
0.0664898082613945 0.006567033007740974 0.14499999582767487 254 255 249
0.06636986136436462 0.006521742790937424 0.14399999380111694 255 255 249
0.06670846045017242 0.006521742790937424 0.14399999380111694 255 255 249
0.06704705953598022 0.006521742790937424 0.14399999380111694 255 230 223
0.06691770255565643 0.00647645303979516 0.14300000667572021 248 218 211
0.0672539547085762 0.00647645303979516 0.14300000667572021 244 199 188
0.06759020686149597 0.00647645303979516 0.14300000667572021 241 196 185
0.06745143979787827 0.006431163288652897 0.1420000046491623 255 247 233
0.0677853375673294 0.006431163288652897 0.1420000046491623 255 249 235
0.06811923533678055 0.006431163288652897 0.1420000046491623 254 255 245
0.06845313310623169 0.006431163288652897 0.1420000046491623 254 255 245
0.06927145272493362 0.00647645303979516 0.14300000667572021 254 255 249
0.0696076974272728 0.00647645303979516 0.14300000667572021 254 255 249
0.06994394958019257 0.00647645303979516 0.14300000667572021 254 255 249
0.07028020173311234 0.00647645303979516 0.14300000667572021 254 255 249
0.07061644643545151 0.00647645303979516 0.14300000667572021 254 255 249
0.07095269858837128 0.00647645303979516 0.14300000667572021 254 255 249
0.07079042494297028 0.006431163288652897 0.1420000046491623 254 255 249
0.07112432271242142 0.006431163288652897 0.1420000046491623 254 255 249
0.0704517662525177 0.006340583320707083 0.14000000059604645 254 255 249
0.07027538120746613 0.006295293569564819 0.13899999856948853 254 255 249
0.07060222327709198 0.006295293569564819 0.13899999856948853 255 251 247
0.07041878998279572 0.006250003818422556 0.1379999965429306 251 237 233
0.07074327766895294 0.006250003818422556 0.1379999965429306 234 197 192
0.07106777280569077 0.006250003818422556 0.1379999965429306 221 184 179
0.07139226794242859 0.006250003818422556 0.1379999965429306 200 164 152
0.07171675562858582 0.006250003818422556 0.1379999965429306 250 214 202
0.07151921093463898 0.006204713601619005 0.13699999451637268 255 253 239
0.07184135168790817 0.006204713601619005 0.13699999451637268 255 253 239
0.07216349244117737 0.006204713601619005 0.13699999451637268 255 247 243
0.07248563319444656 0.006204713601619005 0.13699999451637268 232 218 214
0.07280777394771576 0.006204713601619005 0.13699999451637268 247 211 215
0.07259611785411835 0.006159423850476742 0.13600000739097595 247 211 215
0.07291591167449951 0.006159423850476742 0.13600000739097595 250 199 201
0.07323569804430008 0.006159423850476742 0.13600000739097595 245 194 196
0.07355549186468124 0.006159423850476742 0.13600000739097595 249 194 189
0.07387527823448181 0.006159423850476742 0.13600000739097595 239 184 179
0.07419507205486298 0.006159423850476742 0.13600000739097595 234 181 177
0.07451485842466354 0.006159423850476742 0.13600000739097595 231 178 174
0.07483465224504471 0.006159423850476742 0.13600000739097595 235 181 184
0.07515443861484528 0.006159423850476742 0.13600000739097595 233 179 182
0.07547422498464584 0.006159423850476742 0.13600000739097595 215 158 167
0.07579401880502701 0.006159423850476742 0.13600000739097595 211 154 163
0.07611380517482758 0.006159423850476742 0.13600000739097595 183 132 134
0.07643359899520874 0.006159423850476742 0.13600000739097595 196 145 147
0.07675338536500931 0.006159423850476742 0.13600000739097595 228 180 176
0.07707317918539047 0.006159423850476742 0.13600000739097595 252 204 200
0.07739296555519104 0.006159423850476742 0.13600000739097595 255 216 210
0.07771275192499161 0.006159423850476742 0.13600000739097595 247 194 188
0.07803254574537277 0.006159423850476742 0.13600000739097595 249 192 183
0.07835233211517334 0.006159423850476742 0.13600000739097595 240 183 174
0.0786721259355545 0.006159423850476742 0.13600000739097595 230 173 164
0.07899191230535507 0.006159423850476742 0.13600000739097595 229 172 163
0.07931170612573624 0.006159423850476742 0.13600000739097595 216 158 156
0.0796314924955368 0.006159423850476742 0.13600000739097595 209 151 149
0.07995127886533737 0.006159423850476742 0.13600000739097595 199 145 146
0.08027107268571854 0.006159423850476742 0.13600000739097595 205 151 152
0.0805908590555191 0.006159423850476742 0.13600000739097595 198 152 148
0.08091065287590027 0.006159423850476742 0.13600000739097595 197 151 147
0.08123043924570084 0.006159423850476742 0.13600000739097595 191 148 141
0.081550233066082 0.006159423850476742 0.13600000739097595 185 142 135
0.08187001943588257 0.006159423850476742 0.13600000739097595 183 142 132
0.08218980580568314 0.006159423850476742 0.13600000739097595 181 140 130
0.0825095996260643 0.006159423850476742 0.13600000739097595 183 146 132
0.08282938599586487 0.006159423850476742 0.13600000739097595 188 151 137
0.08314917981624603 0.006159423850476742 0.13600000739097595 188 152 140
0.0834689661860466 0.006159423850476742 0.13600000739097595 182 146 134
0.08378876000642776 0.006159423850476742 0.13600000739097595 176 142 132
0.08410854637622833 0.006159423850476742 0.13600000739097595 175 141 131
0.0844283327460289 0.006159423850476742 0.13600000739097595 176 142 132
0.08474812656641006 0.006159423850476742 0.13600000739097595 178 144 134
0.08506791293621063 0.006159423850476742 0.13600000739097595 181 144 130
0.0853877067565918 0.006159423850476742 0.13600000739097595 178 141 127
0.08570749312639236 0.006159423850476742 0.13600000739097595 180 133 120
0.08602728694677353 0.006159423850476742 0.13600000739097595 175 128 115
0.0863470733165741 0.006159423850476742 0.13600000739097595 177 130 117
0.08666686713695526 0.006159423850476742 0.13600000739097595 166 119 106
0.08698665350675583 0.006159423850476742 0.13600000739097595 191 143 128
0.0873064398765564 0.006159423850476742 0.13600000739097595 204 156 141
0.08762623369693756 0.006159423850476742 0.13600000739097595 223 172 156
0.08794602006673813 0.006159423850476742 0.13600000739097595 221 170 154
0.0882658138871193 0.006159423850476742 0.13600000739097595 210 160 155
0.08858560025691986 0.006159423850476742 0.13600000739097595 204 154 149
0.08890539407730103 0.006159423850476742 0.13600000739097595 196 147 148
0.08922518044710159 0.006159423850476742 0.13600000739097595 196 147 148
0.08954496681690216 0.006159423850476742 0.13600000739097595 196 147 146
0.09052553027868271 0.006204713601619005 0.13699999451637268 194 145 144
0.0908476710319519 0.006204713601619005 0.13699999451637268 190 137 135
0.0911698117852211 0.006204713601619005 0.13699999451637268 184 131 129
0.0914919525384903 0.006204713601619005 0.13699999451637268 176 123 119
0.09248427301645279 0.006250003818422556 0.1379999965429306 167 114 110
0.09280876070261002 0.006250003818422556 0.1379999965429306 167 114 108
0.09313325583934784 0.006250003818422556 0.1379999965429306 166 113 107
0.09413497895002365 0.006295293569564819 0.13899999856948853 179 129 122
0.0944618210196495 0.006295293569564819 0.13899999856948853 169 119 112
0.09478866308927536 0.006295293569564819 0.13899999856948853 178 128 125
0.09511550515890121 0.006295293569564819 0.13899999856948853 176 126 123
0.09612898528575897 0.006340583320707083 0.14000000059604645 176 120 124
0.09645818173885345 0.006340583320707083 0.14000000059604645 174 118 122
0.09678737819194794 0.006340583320707083 0.14000000059604645 164 102 110
0.09711657464504242 0.006340583320707083 0.14000000059604645 145 83 91
0.0974457710981369 0.006340583320707083 0.14000000059604645 148 84 93
0.09777496010065079 0.006340583320707083 0.14000000059604645 149 85 94
0.11562275886535645 0.007472830358892679 0.16500000655651093 157 82 90
0.06137567013502121 0.007146191317588091 0.15000000596046448 255 160 164
0.061728376895189285 0.007146191317588091 0.15000000596046448 255 158 162
0.06208108738064766 0.007146191317588091 0.15000000596046448 255 164 172
0.062017571181058884 0.007098549976944923 0.14900000393390656 255 164 172
0.06236792728304863 0.007098549976944923 0.14900000393390656 253 161 161
0.062297359108924866 0.007050908636301756 0.14800000190734863 248 156 156
0.06291339546442032 0.007003267761319876 0.1469999998807907 255 226 213
0.0632590502500534 0.007003267761319876 0.1469999998807907 255 242 229
0.06317202001810074 0.006955626420676708 0.1459999978542328 255 255 241
0.0635153204202652 0.006955626420676708 0.1459999978542328 255 255 241
0.06385862827301025 0.006955626420676708 0.1459999978542328 254 255 249
0.06420192867517471 0.006955626420676708 0.1459999978542328 254 255 249
0.06454523652791977 0.006955626420676708 0.1459999978542328 254 255 249
0.06488853693008423 0.006955626420676708 0.1459999978542328 254 255 249
0.06523183733224869 0.006955626420676708 0.1459999978542328 254 255 249
0.06557514518499374 0.006955626420676708 0.1459999978542328 254 255 249
0.0659184455871582 0.006955626420676708 0.1459999978542328 254 255 249
0.06580790132284164 0.006907985080033541 0.14499999582767487 252 253 247
0.06614885479211807 0.006907985080033541 0.14499999582767487 254 255 249
0.0664898082613945 0.006907985080033541 0.14499999582767487 254 255 249
0.06636986136436462 0.006860343739390373 0.14399999380111694 255 255 249
0.06670846045017242 0.006860343739390373 0.14399999380111694 254 254 248
0.06704705953598022 0.006860343739390373 0.14399999380111694 250 220 215
0.06691770255565643 0.006812702398747206 0.14300000667572021 250 220 215
0.0672539547085762 0.006812702398747206 0.14300000667572021 239 202 188
0.06711754202842712 0.006765061058104038 0.1420000046491623 248 211 197
0.06745143979787827 0.006765061058104038 0.1420000046491623 255 250 230
0.0677853375673294 0.006765061058104038 0.1420000046491623 255 250 230
0.06811923533678055 0.006765061058104038 0.1420000046491623 254 255 243
0.06845313310623169 0.006765061058104038 0.1420000046491623 254 255 243
0.06878703087568283 0.006765061058104038 0.1420000046491623 254 255 249
0.0696076974272728 0.006812702398747206 0.14300000667572021 254 255 249
0.06994394958019257 0.006812702398747206 0.14300000667572021 254 255 249
0.07028020173311234 0.006812702398747206 0.14300000667572021 254 255 249
0.07061644643545151 0.006812702398747206 0.14300000667572021 254 255 249
0.07045652717351913 0.006765061058104038 0.1420000046491623 254 255 249
0.07079042494297028 0.006765061058104038 0.1420000046491623 254 255 249
0.07112432271242142 0.006765061058104038 0.1420000046491623 254 255 249
0.0704517662525177 0.006669778376817703 0.14000000059604645 254 255 249
0.07027538120746613 0.006622137501835823 0.13899999856948853 254 255 249
0.07009429484605789 0.0065744961611926556 0.1379999965429306 255 250 247
0.07041878998279572 0.0065744961611926556 0.1379999965429306 254 238 235
0.07074327766895294 0.0065744961611926556 0.1379999965429306 231 193 182
0.07106777280569077 0.0065744961611926556 0.1379999965429306 222 184 173
0.07139226794242859 0.0065744961611926556 0.1379999965429306 212 178 158
0.07171675562858582 0.0065744961611926556 0.1379999965429306 255 221 201
0.07151921093463898 0.006526854820549488 0.13699999451637268 255 254 237
0.07184135168790817 0.006526854820549488 0.13699999451637268 255 254 237
0.07216349244117737 0.006526854820549488 0.13699999451637268 255 250 243
0.07248563319444656 0.006526854820549488 0.13699999451637268 240 229 222
0.07280777394771576 0.006526854820549488 0.13699999451637268 250 210 213
0.07259611785411835 0.006479213479906321 0.13600000739097595 238 198 201
0.07291591167449951 0.006479213479906321 0.13600000739097595 246 191 197
0.07323569804430008 0.006479213479906321 0.13600000739097595 247 192 198
0.07355549186468124 0.006479213479906321 0.13600000739097595 245 192 186
0.07387527823448181 0.006479213479906321 0.13600000739097595 244 191 185
0.07419507205486298 0.006479213479906321 0.13600000739097595 226 173 169
0.07451485842466354 0.006479213479906321 0.13600000739097595 224 171 167
0.07483465224504471 0.006479213479906321 0.13600000739097595 224 169 168
0.07515443861484528 0.006479213479906321 0.13600000739097595 221 166 165
0.07547422498464584 0.006479213479906321 0.13600000739097595 210 148 156
0.07579401880502701 0.006479213479906321 0.13600000739097595 207 145 153
0.07611380517482758 0.006479213479906321 0.13600000739097595 192 138 141
0.07643359899520874 0.006479213479906321 0.13600000739097595 193 139 142
0.07675338536500931 0.006479213479906321 0.13600000739097595 223 170 168
0.07707317918539047 0.006479213479906321 0.13600000739097595 239 186 184
0.0768238976597786 0.006431572139263153 0.13500000536441803 255 204 195
0.07714133709669113 0.006431572139263153 0.13500000536441803 235 176 167
0.07745877653360367 0.006431572139263153 0.13500000536441803 215 151 144
0.0777762159705162 0.006431572139263153 0.13500000536441803 225 161 154
0.07809365540742874 0.006431572139263153 0.13500000536441803 224 163 157
0.07841108739376068 0.006431572139263153 0.13500000536441803 223 162 156
0.07872852683067322 0.006431572139263153 0.13500000536441803 222 161 155
0.07904596626758575 0.006431572139263153 0.13500000536441803 217 156 150
0.07936340570449829 0.006431572139263153 0.13500000536441803 208 150 146
0.07968084514141083 0.006431572139263153 0.13500000536441803 205 147 143
0.0805908590555191 0.006479213479906321 0.13600000739097595 195 146 136
0.08091065287590027 0.006479213479906321 0.13600000739097595 193 144 134
0.08123043924570084 0.006479213479906321 0.13600000739097595 186 141 130
0.081550233066082 0.006479213479906321 0.13600000739097595 180 135 124
0.08187001943588257 0.006479213479906321 0.13600000739097595 178 136 124
0.08218980580568314 0.006479213479906321 0.13600000739097595 182 140 128
0.0825095996260643 0.006479213479906321 0.13600000739097595 183 143 128
0.08282938599586487 0.006479213479906321 0.13600000739097595 183 143 128
0.08314917981624603 0.006479213479906321 0.13600000739097595 190 153 137
0.0834689661860466 0.006479213479906321 0.13600000739097595 187 150 134
0.08378876000642776 0.006479213479906321 0.13600000739097595 181 145 133
0.08410854637622833 0.006479213479906321 0.13600000739097595 180 144 132
0.0844283327460289 0.006479213479906321 0.13600000739097595 176 142 132
0.08474812656641006 0.006479213479906321 0.13600000739097595 177 143 133
0.08506791293621063 0.006479213479906321 0.13600000739097595 180 143 129
0.0853877067565918 0.006479213479906321 0.13600000739097595 174 137 123
0.08570749312639236 0.006479213479906321 0.13600000739097595 175 128 115
0.08602728694677353 0.006479213479906321 0.13600000739097595 171 124 111
0.0863470733165741 0.006479213479906321 0.13600000739097595 172 127 114
0.08666686713695526 0.006479213479906321 0.13600000739097595 168 123 110
0.08698665350675583 0.006479213479906321 0.13600000739097595 160 114 98
0.0873064398765564 0.006479213479906321 0.13600000739097595 187 141 125
0.08762623369693756 0.006479213479906321 0.13600000739097595 221 170 156
0.08794602006673813 0.006479213479906321 0.13600000739097595 219 168 154
0.0882658138871193 0.006479213479906321 0.13600000739097595 210 160 153
0.08858560025691986 0.006479213479906321 0.13600000739097595 203 153 146
0.08890539407730103 0.006479213479906321 0.13600000739097595 196 147 148
0.08922518044710159 0.006479213479906321 0.13600000739097595 196 147 148
0.08954496681690216 0.006479213479906321 0.13600000739097595 190 141 140
0.09052553027868271 0.006526854820549488 0.13699999451637268 190 141 140
0.0908476710319519 0.006526854820549488 0.13699999451637268 192 139 137
0.0911698117852211 0.006526854820549488 0.13699999451637268 191 138 136
0.0914919525384903 0.006526854820549488 0.13699999451637268 178 125 123
0.09248427301645279 0.0065744961611926556 0.1379999965429306 174 121 119
0.09280876070261002 0.0065744961611926556 0.1379999965429306 165 110 105
0.09313325583934784 0.0065744961611926556 0.1379999965429306 161 106 101
0.09413497895002365 0.006622137501835823 0.13899999856948853 174 121 115
0.0944618210196495 0.006622137501835823 0.13899999856948853 173 120 114
0.09478866308927536 0.006622137501835823 0.13899999856948853 173 123 120
0.09511550515890121 0.006622137501835823 0.13899999856948853 174 124 121
0.09612898528575897 0.006669778376817703 0.14000000059604645 168 114 117
0.09645818173885345 0.006669778376817703 0.14000000059604645 161 107 110
0.09678737819194794 0.006669778376817703 0.14000000059604645 162 100 108
0.09711657464504242 0.006669778376817703 0.14000000059604645 161 99 107
0.0974457710981369 0.006669778376817703 0.14000000059604645 146 85 90
0.09777496010065079 0.006669778376817703 0.14000000059604645 147 86 91
0.06137567013502121 0.007498900406062603 0.15000000596046448 255 159 158
0.061728376895189285 0.007498900406062603 0.15000000596046448 255 157 156
0.06166721135377884 0.007448907941579819 0.14900000393390656 254 159 160
0.062017571181058884 0.007448907941579819 0.14900000393390656 255 165 166
0.06194935366511345 0.007398915011435747 0.14800000190734863 255 165 163
0.062297359108924866 0.007398915011435747 0.14800000190734863 252 160 158
0.062222085893154144 0.007348922546952963 0.1469999998807907 236 150 139
0.06256774067878723 0.007348922546952963 0.1469999998807907 231 145 134
0.06291339546442032 0.007348922546952963 0.1469999998807907 255 238 225
0.06282871961593628 0.007298929616808891 0.1459999978542328 255 242 229
0.06317202001810074 0.007298929616808891 0.1459999978542328 255 255 241
0.0635153204202652 0.007298929616808891 0.1459999978542328 255 255 241
0.06385862827301025 0.007298929616808891 0.1459999978542328 254 255 249
0.06420192867517471 0.007298929616808891 0.1459999978542328 254 255 249
0.06454523652791977 0.007298929616808891 0.1459999978542328 254 255 249
0.06488853693008423 0.007298929616808891 0.1459999978542328 254 255 249
0.06523183733224869 0.007298929616808891 0.1459999978542328 254 255 249
0.06557514518499374 0.007298929616808891 0.1459999978542328 254 255 249
0.0659184455871582 0.007298929616808891 0.1459999978542328 254 255 249
0.06580790132284164 0.007248937152326107 0.14499999582767487 254 255 249
0.06614885479211807 0.007248937152326107 0.14499999582767487 254 255 249
0.0664898082613945 0.007248937152326107 0.14499999582767487 254 255 249
0.06636986136436462 0.007198944687843323 0.14399999380111694 255 252 249
0.06670846045017242 0.007198944687843323 0.14399999380111694 250 242 239
0.06658145785331726 0.007148951757699251 0.14300000667572021 247 214 213
0.06691770255565643 0.007148951757699251 0.14300000667572021 246 213 212
0.0672539547085762 0.007148951757699251 0.14300000667572021 242 204 193
0.06711754202842712 0.007098959293216467 0.1420000046491623 232 194 183
0.06745143979787827 0.007098959293216467 0.1420000046491623 255 247 230
0.0677853375673294 0.007098959293216467 0.1420000046491623 255 250 233
0.06811923533678055 0.007098959293216467 0.1420000046491623 254 255 243
0.06845313310623169 0.007098959293216467 0.1420000046491623 254 255 243
0.06878703087568283 0.007098959293216467 0.1420000046491623 254 255 249
0.0696076974272728 0.007148951757699251 0.14300000667572021 254 255 249
0.06994394958019257 0.007148951757699251 0.14300000667572021 254 255 249
0.07028020173311234 0.007148951757699251 0.14300000667572021 254 255 249
0.07061644643545151 0.007148951757699251 0.14300000667572021 254 255 249
0.07045652717351913 0.007098959293216467 0.1420000046491623 254 255 249
0.0702918991446495 0.007048966363072395 0.14100000262260437 254 255 249
0.07062344253063202 0.007048966363072395 0.14100000262260437 254 255 249
0.07009429484605789 0.006898988503962755 0.1379999965429306 255 241 238
0.07041878998279572 0.006898988503962755 0.1379999965429306 248 227 224
0.07074327766895294 0.006898988503962755 0.1379999965429306 236 188 180
0.07106777280569077 0.006898988503962755 0.1379999965429306 227 179 171
0.07139226794242859 0.006898988503962755 0.1379999965429306 218 182 161
0.07171675562858582 0.006898988503962755 0.1379999965429306 255 220 199
0.07151921093463898 0.006848995573818684 0.13699999451637268 255 253 235
0.07184135168790817 0.006848995573818684 0.13699999451637268 255 252 234
0.07216349244117737 0.006848995573818684 0.13699999451637268 255 251 242
0.07248563319444656 0.006848995573818684 0.13699999451637268 245 234 225
0.07280777394771576 0.006848995573818684 0.13699999451637268 246 206 211
0.07259611785411835 0.006799003109335899 0.13600000739097595 238 198 203
0.07291591167449951 0.006799003109335899 0.13600000739097595 247 187 197
0.07323569804430008 0.006799003109335899 0.13600000739097595 241 181 191
0.07355549186468124 0.006799003109335899 0.13600000739097595 233 180 178
0.07387527823448181 0.006799003109335899 0.13600000739097595 238 185 183
0.07419507205486298 0.006799003109335899 0.13600000739097595 230 177 173
0.07451485842466354 0.006799003109335899 0.13600000739097595 224 171 167
0.07483465224504471 0.006799003109335899 0.13600000739097595 221 166 163
0.07515443861484528 0.006799003109335899 0.13600000739097595 225 170 167
0.07547422498464584 0.006799003109335899 0.13600000739097595 218 156 155
0.07579401880502701 0.006799003109335899 0.13600000739097595 199 137 136
0.07611380517482758 0.006799003109335899 0.13600000739097595 194 136 134
0.07643359899520874 0.006799003109335899 0.13600000739097595 199 141 139
0.07675338536500931 0.006799003109335899 0.13600000739097595 216 155 149
0.07650645822286606 0.006749010644853115 0.13500000536441803 241 180 174
0.0768238976597786 0.006749010644853115 0.13500000536441803 255 192 186
0.07714133709669113 0.006749010644853115 0.13500000536441803 240 174 168
0.07745877653360367 0.006749010644853115 0.13500000536441803 227 158 153
0.0777762159705162 0.006749010644853115 0.13500000536441803 230 161 156
0.07809365540742874 0.006749010644853115 0.13500000536441803 214 150 145
0.07841108739376068 0.006749010644853115 0.13500000536441803 211 147 142
0.07872852683067322 0.006749010644853115 0.13500000536441803 204 143 137
0.07904596626758575 0.006749010644853115 0.13500000536441803 203 142 136
0.07936340570449829 0.006749010644853115 0.13500000536441803 200 143 136
0.07968084514141083 0.006749010644853115 0.13500000536441803 201 144 137
0.07999828457832336 0.006749010644853115 0.13500000536441803 191 139 128
0.0803157165646553 0.006749010644853115 0.13500000536441803 190 138 127
0.08123043924570084 0.006799003109335899 0.13600000739097595 179 130 120
0.081550233066082 0.006799003109335899 0.13600000739097595 179 130 120
0.08187001943588257 0.006799003109335899 0.13600000739097595 176 131 118
0.08218980580568314 0.006799003109335899 0.13600000739097595 178 133 120
0.0825095996260643 0.006799003109335899 0.13600000739097595 184 139 126
0.08282938599586487 0.006799003109335899 0.13600000739097595 185 140 127
0.08314917981624603 0.006799003109335899 0.13600000739097595 186 144 132
0.0834689661860466 0.006799003109335899 0.13600000739097595 186 144 132
0.08378876000642776 0.006799003109335899 0.13600000739097595 185 144 134
0.08410854637622833 0.006799003109335899 0.13600000739097595 184 143 133
0.0844283327460289 0.006799003109335899 0.13600000739097595 174 138 128
0.08474812656641006 0.006799003109335899 0.13600000739097595 176 140 130
0.08506791293621063 0.006799003109335899 0.13600000739097595 177 139 128
0.0853877067565918 0.006799003109335899 0.13600000739097595 173 135 124
0.08570749312639236 0.006799003109335899 0.13600000739097595 170 125 112
0.08602728694677353 0.006799003109335899 0.13600000739097595 166 121 108
0.0863470733165741 0.006799003109335899 0.13600000739097595 171 124 111
0.08666686713695526 0.006799003109335899 0.13600000739097595 168 121 108
0.08698665350675583 0.006799003109335899 0.13600000739097595 168 120 103
0.0873064398765564 0.006799003109335899 0.13600000739097595 193 145 128
0.08762623369693756 0.006799003109335899 0.13600000739097595 205 152 139
0.08794602006673813 0.006799003109335899 0.13600000739097595 207 154 141
0.0882658138871193 0.006799003109335899 0.13600000739097595 212 159 153
0.08858560025691986 0.006799003109335899 0.13600000739097595 210 157 151
0.08890539407730103 0.006799003109335899 0.13600000739097595 197 148 149
0.08922518044710159 0.006799003109335899 0.13600000739097595 194 145 146
0.08954496681690216 0.006799003109335899 0.13600000739097595 192 145 146
0.09052553027868271 0.006848995573818684 0.13699999451637268 190 143 144
0.0908476710319519 0.006848995573818684 0.13699999451637268 187 138 137
0.0911698117852211 0.006848995573818684 0.13699999451637268 184 135 134
0.0914919525384903 0.006848995573818684 0.13699999451637268 177 123 124
0.09248427301645279 0.006898988503962755 0.1379999965429306 166 112 113
0.09280876070261002 0.006898988503962755 0.1379999965429306 162 107 104
0.09313325583934784 0.006898988503962755 0.1379999965429306 164 109 106
0.09413497895002365 0.0069489809684455395 0.13899999856948853 169 114 111
0.0944618210196495 0.0069489809684455395 0.13899999856948853 171 116 113
0.09478866308927536 0.0069489809684455395 0.13899999856948853 169 116 114
0.09511550515890121 0.0069489809684455395 0.13899999856948853 168 115 113
0.09612898528575897 0.006998973898589611 0.14000000059604645 167 113 116
0.09645818173885345 0.006998973898589611 0.14000000059604645 166 112 115
0.09678737819194794 0.006998973898589611 0.14000000059604645 156 96 106
0.09711657464504242 0.006998973898589611 0.14000000059604645 156 96 106
0.0974457710981369 0.006998973898589611 0.14000000059604645 148 84 93
0.09777496010065079 0.006998973898589611 0.14000000059604645 144 80 89
0.062017571181058884 0.007799265440553427 0.14900000393390656 255 162 156
0.062222085893154144 0.00769457733258605 0.1469999998807907 239 156 144
0.06256774067878723 0.00769457733258605 0.1469999998807907 235 152 140
0.06291339546442032 0.00769457733258605 0.1469999998807907 255 239 225
0.06282871961593628 0.007642233278602362 0.1459999978542328 255 243 229
0.06317202001810074 0.007642233278602362 0.1459999978542328 255 255 241
0.0635153204202652 0.007642233278602362 0.1459999978542328 255 255 241
0.06385862827301025 0.007642233278602362 0.1459999978542328 254 255 249
0.06420192867517471 0.007642233278602362 0.1459999978542328 254 255 249
0.06454523652791977 0.007642233278602362 0.1459999978542328 254 255 249
0.06488853693008423 0.007642233278602362 0.1459999978542328 254 255 249
0.06523183733224869 0.007642233278602362 0.1459999978542328 254 255 249
0.06557514518499374 0.007642233278602362 0.1459999978542328 254 255 249
0.06546695530414581 0.007589889224618673 0.14499999582767487 254 255 249
0.06580790132284164 0.007589889224618673 0.14499999582767487 254 255 249
0.06614885479211807 0.007589889224618673 0.14499999582767487 254 255 249
0.06603125482797623 0.007537545170634985 0.14399999380111694 254 255 249
0.06636986136436462 0.007537545170634985 0.14399999380111694 255 248 249
0.06670846045017242 0.007537545170634985 0.14399999380111694 253 238 239
0.06658145785331726 0.007485201116651297 0.14300000667572021 255 221 221
0.06691770255565643 0.007485201116651297 0.14300000667572021 248 210 210
0.0672539547085762 0.007485201116651297 0.14300000667572021 242 199 190
0.06711754202842712 0.007432857062667608 0.1420000046491623 231 188 179
0.06745143979787827 0.007432857062667608 0.1420000046491623 255 247 232
0.0677853375673294 0.007432857062667608 0.1420000046491623 255 250 235
0.06811923533678055 0.007432857062667608 0.1420000046491623 254 255 243
0.06845313310623169 0.007432857062667608 0.1420000046491623 254 255 243
0.06878703087568283 0.007432857062667608 0.1420000046491623 254 255 249
0.0696076974272728 0.007485201116651297 0.14300000667572021 254 255 249
0.06994394958019257 0.007485201116651297 0.14300000667572021 254 255 249
0.07028020173311234 0.007485201116651297 0.14300000667572021 254 255 249
0.070122629404068 0.007432857062667608 0.1420000046491623 254 255 249
0.07045652717351913 0.007432857062667608 0.1420000046491623 254 255 249
0.0702918991446495 0.00738051300868392 0.14100000262260437 254 255 249
0.07012256979942322 0.0073281689547002316 0.14000000059604645 254 255 249
0.0704517662525177 0.0073281689547002316 0.14000000059604645 255 255 249
0.07027538120746613 0.007275824900716543 0.13899999856948853 255 255 249
0.07009429484605789 0.007223480846732855 0.1379999965429306 252 226 224
0.07041878998279572 0.007223480846732855 0.1379999965429306 234 208 206
0.07074327766895294 0.007223480846732855 0.1379999965429306 238 183 180
0.07106777280569077 0.007223480846732855 0.1379999965429306 227 172 169
0.07139226794242859 0.007223480846732855 0.1379999965429306 218 177 158
0.07171675562858582 0.007223480846732855 0.1379999965429306 251 210 191
0.07151921093463898 0.0071711367927491665 0.13699999451637268 255 252 233
0.07184135168790817 0.0071711367927491665 0.13699999451637268 255 250 231
0.07216349244117737 0.0071711367927491665 0.13699999451637268 255 248 242
0.07248563319444656 0.0071711367927491665 0.13699999451637268 235 221 215
0.07280777394771576 0.0071711367927491665 0.13699999451637268 240 197 203
0.07259611785411835 0.007118792738765478 0.13600000739097595 239 196 202
0.07291591167449951 0.007118792738765478 0.13600000739097595 239 184 194
0.07323569804430008 0.007118792738765478 0.13600000739097595 239 184 194
0.07355549186468124 0.007118792738765478 0.13600000739097595 240 190 187
0.07387527823448181 0.007118792738765478 0.13600000739097595 230 180 177
0.07419507205486298 0.007118792738765478 0.13600000739097595 230 177 173
0.07451485842466354 0.007118792738765478 0.13600000739097595 224 171 167
0.07483465224504471 0.007118792738765478 0.13600000739097595 220 165 160
0.07515443861484528 0.007118792738765478 0.13600000739097595 234 179 174
0.07547422498464584 0.007118792738765478 0.13600000739097595 217 157 153
0.07579401880502701 0.007118792738765478 0.13600000739097595 205 145 141
0.07611380517482758 0.007118792738765478 0.13600000739097595 187 128 121
0.07643359899520874 0.007118792738765478 0.13600000739097595 192 133 126
0.07675338536500931 0.007118792738765478 0.13600000739097595 217 148 145
0.07650645822286606 0.00706644868478179 0.13500000536441803 231 162 159
0.0768238976597786 0.00706644868478179 0.13500000536441803 251 175 172
0.07714133709669113 0.00706644868478179 0.13500000536441803 248 172 169
0.07745877653360367 0.00706644868478179 0.13500000536441803 232 156 153
0.0777762159705162 0.00706644868478179 0.13500000536441803 233 157 154
0.07809365540742874 0.00706644868478179 0.13500000536441803 205 139 135
0.07841108739376068 0.00706644868478179 0.13500000536441803 213 147 143
0.07872852683067322 0.00706644868478179 0.13500000536441803 202 143 136
0.07904596626758575 0.00706644868478179 0.13500000536441803 200 141 134
0.07936340570449829 0.00706644868478179 0.13500000536441803 197 143 133
0.07968084514141083 0.00706644868478179 0.13500000536441803 194 140 130
0.07999828457832336 0.00706644868478179 0.13500000536441803 192 140 129
0.0803157165646553 0.00706644868478179 0.13500000536441803 191 139 128
0.08123043924570084 0.007118792738765478 0.13600000739097595 173 126 115
0.081550233066082 0.007118792738765478 0.13600000739097595 175 128 117
0.08187001943588257 0.007118792738765478 0.13600000739097595 171 124 111
0.08218980580568314 0.007118792738765478 0.13600000739097595 174 127 114
0.0825095996260643 0.007118792738765478 0.13600000739097595 184 139 126
0.08282938599586487 0.007118792738765478 0.13600000739097595 184 139 126
0.08314917981624603 0.007118792738765478 0.13600000739097595 187 140 129
0.0834689661860466 0.007118792738765478 0.13600000739097595 189 142 131
0.08378876000642776 0.007118792738765478 0.13600000739097595 187 141 135
0.08410854637622833 0.007118792738765478 0.13600000739097595 185 139 133
0.0844283327460289 0.007118792738765478 0.13600000739097595 175 137 128
0.08474812656641006 0.007118792738765478 0.13600000739097595 178 140 131
0.08506791293621063 0.007118792738765478 0.13600000739097595 174 136 125
0.0853877067565918 0.007118792738765478 0.13600000739097595 174 136 125
0.08570749312639236 0.007118792738765478 0.13600000739097595 175 135 120
0.08602728694677353 0.007118792738765478 0.13600000739097595 166 126 111
0.0863470733165741 0.007118792738765478 0.13600000739097595 164 120 104
0.08666686713695526 0.007118792738765478 0.13600000739097595 168 124 108
0.08698665350675583 0.007118792738765478 0.13600000739097595 174 123 107
0.0873064398765564 0.007118792738765478 0.13600000739097595 190 139 123
0.08762623369693756 0.007118792738765478 0.13600000739097595 205 147 135
0.08794602006673813 0.007118792738765478 0.13600000739097595 212 154 142
0.0882658138871193 0.007118792738765478 0.13600000739097595 213 155 151
0.08858560025691986 0.007118792738765478 0.13600000739097595 209 151 147
0.08890539407730103 0.007118792738765478 0.13600000739097595 197 148 149
0.08922518044710159 0.007118792738765478 0.13600000739097595 190 141 142
0.08954496681690216 0.007118792738765478 0.13600000739097595 184 140 140
0.09052553027868271 0.0071711367927491665 0.13699999451637268 182 138 138
0.0908476710319519 0.0071711367927491665 0.13699999451637268 182 138 136
0.0911698117852211 0.0071711367927491665 0.13699999451637268 173 129 127
0.0914919525384903 0.0071711367927491665 0.13699999451637268 165 114 116
0.09248427301645279 0.007223480846732855 0.1379999965429306 160 109 111
0.09280876070261002 0.007223480846732855 0.1379999965429306 160 107 105
0.09313325583934784 0.007223480846732855 0.1379999965429306 162 109 107
0.09413497895002365 0.007275824900716543 0.13899999856948853 164 111 107
0.0944618210196495 0.007275824900716543 0.13899999856948853 164 111 107
0.09478866308927536 0.007275824900716543 0.13899999856948853 161 107 108
0.09511550515890121 0.007275824900716543 0.13899999856948853 163 109 110
0.09612898528575897 0.0073281689547002316 0.14000000059604645 162 108 111
0.09645818173885345 0.0073281689547002316 0.14000000059604645 162 108 111
0.09678737819194794 0.0073281689547002316 0.14000000059604645 157 100 107
0.09711657464504242 0.0073281689547002316 0.14000000059604645 147 90 97
0.0974457710981369 0.0073281689547002316 0.14000000059604645 147 85 93
0.09777496010065079 0.0073281689547002316 0.14000000059604645 141 79 87
0.062297359108924866 0.008094928227365017 0.14800000190734863 255 168 157
0.06291339546442032 0.008040232583880424 0.1469999998807907 255 240 225
0.06282871961593628 0.007985536940395832 0.1459999978542328 255 244 229
0.06317202001810074 0.007985536940395832 0.1459999978542328 255 255 241
0.0635153204202652 0.007985536940395832 0.1459999978542328 255 255 241
0.06385862827301025 0.007985536940395832 0.1459999978542328 254 255 249
0.06420192867517471 0.007985536940395832 0.1459999978542328 254 255 249
0.06454523652791977 0.007985536940395832 0.1459999978542328 254 255 249
0.06488853693008423 0.007985536940395832 0.1459999978542328 254 255 249
0.06523183733224869 0.007985536940395832 0.1459999978542328 254 255 249
0.06557514518499374 0.007985536940395832 0.1459999978542328 254 255 249
0.06546695530414581 0.00793084129691124 0.14499999582767487 254 255 249
0.06580790132284164 0.00793084129691124 0.14499999582767487 254 255 249
0.06614885479211807 0.00793084129691124 0.14499999582767487 255 254 251
0.06603125482797623 0.007876145653426647 0.14399999380111694 250 247 244
0.06636986136436462 0.007876145653426647 0.14399999380111694 252 225 230
0.06624520570039749 0.00782145094126463 0.14300000667572021 244 217 222
0.06658145785331726 0.00782145094126463 0.14300000667572021 255 209 210
0.06691770255565643 0.00782145094126463 0.14300000667572021 255 210 211
0.0672539547085762 0.00782145094126463 0.14300000667572021 245 196 184
0.06711754202842712 0.00776675483211875 0.1420000046491623 232 183 171
0.06745143979787827 0.00776675483211875 0.1420000046491623 255 248 228
0.0677853375673294 0.00776675483211875 0.1420000046491623 255 251 231
0.06811923533678055 0.00776675483211875 0.1420000046491623 254 255 243
