0.05645893141627312 0.007548893336206675 0.1509999930858612 255 95 101
0.05681399255990982 0.007548893336206675 0.1509999930858612 252 102 106
0.05679044872522354 0.007498900406062603 0.15000000596046448 255 107 111
0.057143159210681915 0.007498900406062603 0.15000000596046448 255 109 114
0.05749586969614029 0.007498900406062603 0.15000000596046448 255 114 119
0.057848576456308365 0.007498900406062603 0.15000000596046448 253 110 114
0.05820128694176674 0.007498900406062603 0.15000000596046448 251 108 112
0.05894435569643974 0.007548893336206675 0.1509999930858612 251 108 112
0.05929941684007645 0.007548893336206675 0.1509999930858612 251 108 112
0.05965447798371315 0.007548893336206675 0.1509999930858612 251 114 111
0.060009539127349854 0.007548893336206675 0.1509999930858612 255 124 121
0.06036459654569626 0.007548893336206675 0.1509999930858612 255 144 138
0.06071965768933296 0.007548893336206675 0.1509999930858612 255 148 142
0.061074718832969666 0.007548893336206675 0.1509999930858612 255 155 148
0.06142977997660637 0.007548893336206675 0.1509999930858612 255 156 149
0.06178484112024307 0.007548893336206675 0.1509999930858612 255 160 158
0.061728376895189285 0.007498900406062603 0.15000000596046448 255 160 158
0.06208108738064766 0.007498900406062603 0.15000000596046448 255 160 159
0.06243379786610603 0.007498900406062603 0.15000000596046448 255 164 163
0.06236792728304863 0.007448907941579819 0.14900000393390656 255 174 173
0.06271828711032867 0.007448907941579819 0.14900000393390656 255 167 166
0.06264536082744598 0.007398915011435747 0.14800000190734863 243 163 155
0.0629933699965477 0.007398915011435747 0.14800000190734863 225 145 137
0.06291339546442032 0.007348922546952963 0.1469999998807907 255 239 224
0.0632590502500534 0.007348922546952963 0.1469999998807907 255 244 229
0.06360470503568649 0.007348922546952963 0.1469999998807907 255 255 241
0.0635153204202652 0.007298929616808891 0.1459999978542328 255 255 241
0.06385862827301025 0.007298929616808891 0.1459999978542328 254 255 249
0.06420192867517471 0.007298929616808891 0.1459999978542328 254 255 249
0.06454523652791977 0.007298929616808891 0.1459999978542328 254 255 249
0.06488853693008423 0.007298929616808891 0.1459999978542328 254 255 249
0.06523183733224869 0.007298929616808891 0.1459999978542328 254 255 249
0.06557514518499374 0.007298929616808891 0.1459999978542328 254 255 249
0.0659184455871582 0.007298929616808891 0.1459999978542328 254 255 249
0.06580790132284164 0.007248937152326107 0.14499999582767487 254 255 249
0.06614885479211807 0.007248937152326107 0.14499999582767487 254 255 249
0.06603125482797623 0.007198944687843323 0.14399999380111694 254 255 249
0.06636986136436462 0.007198944687843323 0.14399999380111694 255 254 249
0.06624520570039749 0.007148951757699251 0.14300000667572021 250 247 242
0.06658145785331726 0.007148951757699251 0.14300000667572021 238 210 209
0.06691770255565643 0.007148951757699251 0.14300000667572021 244 216 215
0.06678364425897598 0.007098959293216467 0.1420000046491623 252 214 207
0.06711754202842712 0.007098959293216467 0.1420000046491623 237 199 192
0.06745143979787827 0.007098959293216467 0.1420000046491623 255 248 234
0.0677853375673294 0.007098959293216467 0.1420000046491623 255 250 236
0.06811923533678055 0.007098959293216467 0.1420000046491623 254 255 245
0.06845313310623169 0.007098959293216467 0.1420000046491623 254 255 245
0.06878703087568283 0.007098959293216467 0.1420000046491623 254 255 249
0.06912093609571457 0.007098959293216467 0.1420000046491623 254 255 249
0.06945483386516571 0.007098959293216467 0.1420000046491623 254 255 249
0.06978873163461685 0.007098959293216467 0.1420000046491623 254 255 249
0.070122629404068 0.007098959293216467 0.1420000046491623 254 255 249
0.07045652717351913 0.007098959293216467 0.1420000046491623 254 255 249
0.07079042494297028 0.007098959293216467 0.1420000046491623 254 255 249
0.07062344253063202 0.007048966363072395 0.14100000262260437 254 255 249
0.0704517662525177 0.006998973898589611 0.14000000059604645 254 255 249
0.07078096270561218 0.006998973898589611 0.14000000059604645 253 254 248
0.07060222327709198 0.0069489809684455395 0.13899999856948853 255 249 244
0.07092906534671783 0.0069489809684455395 0.13899999856948853 248 232 227
0.07125591486692429 0.0069489809684455395 0.13899999856948853 230 182 174
0.07106777280569077 0.006898988503962755 0.1379999965429306 218 170 162
0.07139226794242859 0.006898988503962755 0.1379999965429306 218 170 155
0.07171675562858582 0.006898988503962755 0.1379999965429306 255 213 198
0.07204125076532364 0.006898988503962755 0.1379999965429306 255 249 236
0.07236573845148087 0.006898988503962755 0.1379999965429306 255 248 235
0.07269023358821869 0.006898988503962755 0.1379999965429306 255 246 241
0.07301472872495651 0.006898988503962755 0.1379999965429306 251 235 230
0.07333921641111374 0.006898988503962755 0.1379999965429306 245 210 205
0.07366371154785156 0.006898988503962755 0.1379999965429306 236 201 196
0.07398820668458939 0.006898988503962755 0.1379999965429306 227 184 175
0.07431269437074661 0.006898988503962755 0.1379999965429306 228 185 176
0.07463718950748444 0.006898988503962755 0.1379999965429306 233 187 179
0.07441847771406174 0.006848995573818684 0.13699999451637268 229 183 175
0.07474061846733093 0.006848995573818684 0.13699999451637268 229 181 173
0.07506275922060013 0.006848995573818684 0.13699999451637268 224 176 168
0.07538489997386932 0.006848995573818684 0.13699999451637268 223 169 170
0.07570704072713852 0.006848995573818684 0.13699999451637268 216 162 163
0.07547422498464584 0.006799003109335899 0.13600000739097595 221 162 167
0.07579401880502701 0.006799003109335899 0.13600000739097595 206 147 152
0.07675338536500931 0.006799003109335899 0.13600000739097595 217 157 142
0.07707317918539047 0.006799003109335899 0.13600000739097595 241 181 166
0.07739296555519104 0.006799003109335899 0.13600000739097595 250 194 182
0.07771275192499161 0.006799003109335899 0.13600000739097595 229 173 161
0.07803254574537277 0.006799003109335899 0.13600000739097595 216 163 157
0.07835233211517334 0.006799003109335899 0.13600000739097595 205 152 146
0.05649428814649582 0.008060986176133156 0.15399999916553497 255 88 84
0.05608503147959709 0.007851609960198402 0.15000000596046448 255 97 106
0.056437741965055466 0.007851609960198402 0.15000000596046448 255 111 118
0.05679044872522354 0.007851609960198402 0.15000000596046448 255 115 122
0.057143159210681915 0.007851609960198402 0.15000000596046448 255 110 117
0.05749586969614029 0.007851609960198402 0.15000000596046448 253 107 114
0.057848576456308365 0.007851609960198402 0.15000000596046448 253 107 112
0.05820128694176674 0.007851609960198402 0.15000000596046448 253 107 112
0.05855399742722511 0.007851609960198402 0.15000000596046448 251 108 112
0.05890670418739319 0.007851609960198402 0.15000000596046448 250 107 111
0.05925941467285156 0.007851609960198402 0.15000000596046448 249 115 111
0.060009539127349854 0.00790395401418209 0.1509999930858612 255 121 117
0.06036459654569626 0.00790395401418209 0.1509999930858612 253 132 126
0.06071965768933296 0.00790395401418209 0.1509999930858612 255 141 135
0.061074718832969666 0.00790395401418209 0.1509999930858612 255 148 142
0.06142977997660637 0.00790395401418209 0.1509999930858612 255 151 145
0.06137567013502121 0.007851609960198402 0.15000000596046448 255 157 151
0.061728376895189285 0.007851609960198402 0.15000000596046448 255 158 152
0.06208108738064766 0.007851609960198402 0.15000000596046448 254 158 155
0.062017571181058884 0.007799265440553427 0.14900000393390656 255 160 157
0.06236792728304863 0.007799265440553427 0.14900000393390656 253 158 155
0.06271828711032867 0.007799265440553427 0.14900000393390656 249 154 151
0.06264536082744598 0.007746921386569738 0.14800000190734863 247 161 152
0.0629933699965477 0.007746921386569738 0.14800000190734863 237 151 142
0.06291339546442032 0.00769457733258605 0.1469999998807907 255 241 225
0.0632590502500534 0.00769457733258605 0.1469999998807907 255 245 229
0.06360470503568649 0.00769457733258605 0.1469999998807907 255 255 241
0.06395035982131958 0.00769457733258605 0.1469999998807907 255 255 241
0.06385862827301025 0.007642233278602362 0.1459999978542328 254 255 249
0.06420192867517471 0.007642233278602362 0.1459999978542328 254 255 249
0.06454523652791977 0.007642233278602362 0.1459999978542328 254 255 249
0.06488853693008423 0.007642233278602362 0.1459999978542328 254 255 249
0.06523183733224869 0.007642233278602362 0.1459999978542328 254 255 249
0.06557514518499374 0.007642233278602362 0.1459999978542328 254 255 249
0.0659184455871582 0.007642233278602362 0.1459999978542328 254 255 249
0.06626175343990326 0.007642233278602362 0.1459999978542328 254 255 249
0.06614885479211807 0.007589889224618673 0.14499999582767487 254 255 249
0.06603125482797623 0.007537545170634985 0.14399999380111694 254 255 249
0.06636986136436462 0.007537545170634985 0.14399999380111694 255 252 247
0.06624520570039749 0.007485201116651297 0.14300000667572021 251 242 237
0.06658145785331726 0.007485201116651297 0.14300000667572021 246 211 206
0.06691770255565643 0.007485201116651297 0.14300000667572021 246 211 206
0.06678364425897598 0.007432857062667608 0.1420000046491623 241 199 187
0.06711754202842712 0.007432857062667608 0.1420000046491623 233 191 179
0.06745143979787827 0.007432857062667608 0.1420000046491623 255 247 232
0.0677853375673294 0.007432857062667608 0.1420000046491623 255 249 234
0.06811923533678055 0.007432857062667608 0.1420000046491623 254 255 243
0.06845313310623169 0.007432857062667608 0.1420000046491623 254 255 243
0.06878703087568283 0.007432857062667608 0.1420000046491623 254 255 249
0.06912093609571457 0.007432857062667608 0.1420000046491623 254 255 249
0.06945483386516571 0.007432857062667608 0.1420000046491623 254 255 249
0.06978873163461685 0.007432857062667608 0.1420000046491623 254 255 249
0.070122629404068 0.007432857062667608 0.1420000046491623 254 255 249
0.07045652717351913 0.007432857062667608 0.1420000046491623 254 255 249
0.07079042494297028 0.007432857062667608 0.1420000046491623 254 255 249
0.07062344253063202 0.00738051300868392 0.14100000262260437 254 255 249
0.0704517662525177 0.0073281689547002316 0.14000000059604645 255 255 247
0.07078096270561218 0.0073281689547002316 0.14000000059604645 254 255 246
0.07060222327709198 0.007275824900716543 0.13899999856948853 255 246 240
0.07092906534671783 0.007275824900716543 0.13899999856948853 242 215 209
0.07074327766895294 0.007223480846732855 0.1379999965429306 226 167 158
0.07106777280569077 0.007223480846732855 0.1379999965429306 223 164 155
0.07139226794242859 0.007223480846732855 0.1379999965429306 220 167 152
0.07171675562858582 0.007223480846732855 0.1379999965429306 249 196 181
0.07204125076532364 0.007223480846732855 0.1379999965429306 255 247 235
0.07236573845148087 0.007223480846732855 0.1379999965429306 255 245 233
0.07269023358821869 0.007223480846732855 0.1379999965429306 255 238 232
0.07301472872495651 0.007223480846732855 0.1379999965429306 246 227 221
0.07333921641111374 0.007223480846732855 0.1379999965429306 241 210 201
0.07366371154785156 0.007223480846732855 0.1379999965429306 223 192 183
0.07398820668458939 0.007223480846732855 0.1379999965429306 224 184 171
0.07431269437074661 0.007223480846732855 0.1379999965429306 229 189 176
0.07463718950748444 0.007223480846732855 0.1379999965429306 230 188 174
0.07441847771406174 0.0071711367927491665 0.13699999451637268 228 186 172
0.07474061846733093 0.0071711367927491665 0.13699999451637268 225 180 167
0.07506275922060013 0.0071711367927491665 0.13699999451637268 223 178 165
0.07538489997386932 0.0071711367927491665 0.13699999451637268 217 164 160
0.07570704072713852 0.0071711367927491665 0.13699999451637268 214 161 157
0.07547422498464584 0.007118792738765478 0.13600000739097595 210 149 152
0.07675338536500931 0.007118792738765478 0.13600000739097595 214 152 135
0.07707317918539047 0.007118792738765478 0.13600000739097595 236 174 157
0.07739296555519104 0.007118792738765478 0.13600000739097595 229 171 157
0.07771275192499161 0.007118792738765478 0.13600000739097595 228 170 156
0.07803254574537277 0.007118792738765478 0.13600000739097595 212 159 153
0.07835233211517334 0.007118792738765478 0.13600000739097595 206 153 147
0.05649428814649582 0.008423100225627422 0.15399999916553497 251 83 84
0.05608503147959709 0.008204318583011627 0.15000000596046448 255 106 113
0.05606149137020111 0.008149622939527035 0.14900000393390656 255 111 118
0.05641184747219086 0.008149622939527035 0.14900000393390656 255 111 118
0.0567622035741806 0.008149622939527035 0.14900000393390656 255 110 117
0.05711256340146065 0.008149622939527035 0.14900000393390656 255 109 116
0.057848576456308365 0.008204318583011627 0.15000000596046448 255 109 116
0.05820128694176674 0.008204318583011627 0.15000000596046448 253 107 114
0.05855399742722511 0.008204318583011627 0.15000000596046448 250 107 111
0.05890670418739319 0.008204318583011627 0.15000000596046448 250 107 111
0.05925941467285156 0.008204318583011627 0.15000000596046448 251 118 116
0.059612125158309937 0.008204318583011627 0.15000000596046448 255 122 120
0.06036459654569626 0.00825901422649622 0.1509999930858612 244 123 117
0.06071965768933296 0.00825901422649622 0.1509999930858612 255 134 128
0.061074718832969666 0.00825901422649622 0.1509999930858612 250 139 132
0.061022959649562836 0.008204318583011627 0.15000000596046448 255 146 139
0.06137567013502121 0.008204318583011627 0.15000000596046448 253 151 143
0.061728376895189285 0.008204318583011627 0.15000000596046448 255 158 150
0.06208108738064766 0.008204318583011627 0.15000000596046448 255 158 151
0.062017571181058884 0.008149622939527035 0.14900000393390656 253 155 148
0.06236792728304863 0.008149622939527035 0.14900000393390656 253 155 148
0.06271828711032867 0.008149622939527035 0.14900000393390656 255 157 150
0.06264536082744598 0.008094928227365017 0.14800000190734863 249 156 145
0.0629933699965477 0.008094928227365017 0.14800000190734863 242 149 138
0.06291339546442032 0.008040232583880424 0.1469999998807907 255 238 222
0.0632590502500534 0.008040232583880424 0.1469999998807907 255 244 228
0.06360470503568649 0.008040232583880424 0.1469999998807907 255 255 241
0.06395035982131958 0.008040232583880424 0.1469999998807907 255 255 241
0.06385862827301025 0.007985536940395832 0.1459999978542328 254 255 249
0.06420192867517471 0.007985536940395832 0.1459999978542328 254 255 249
0.06454523652791977 0.007985536940395832 0.1459999978542328 254 255 249
0.06488853693008423 0.007985536940395832 0.1459999978542328 254 255 249
0.06523183733224869 0.007985536940395832 0.1459999978542328 254 255 249
0.06557514518499374 0.007985536940395832 0.1459999978542328 254 255 249
0.0659184455871582 0.007985536940395832 0.1459999978542328 254 255 249
0.06580790132284164 0.00793084129691124 0.14499999582767487 254 255 249
0.06614885479211807 0.00793084129691124 0.14499999582767487 255 255 249
0.06603125482797623 0.007876145653426647 0.14399999380111694 253 253 247
0.06636986136436462 0.007876145653426647 0.14399999380111694 255 244 241
0.06624520570039749 0.00782145094126463 0.14300000667572021 243 222 219
0.06658145785331726 0.00782145094126463 0.14300000667572021 245 202 195
0.06691770255565643 0.00782145094126463 0.14300000667572021 251 208 201
0.06678364425897598 0.00776675483211875 0.1420000046491623 246 193 180
0.06711754202842712 0.00776675483211875 0.1420000046491623 234 181 168
0.06745143979787827 0.00776675483211875 0.1420000046491623 255 247 230
0.0677853375673294 0.00776675483211875 0.1420000046491623 255 250 233
0.06811923533678055 0.00776675483211875 0.1420000046491623 254 255 243
0.06845313310623169 0.00776675483211875 0.1420000046491623 254 255 243
0.06878703087568283 0.00776675483211875 0.1420000046491623 254 255 249
0.06912093609571457 0.00776675483211875 0.1420000046491623 254 255 249
0.06945483386516571 0.00776675483211875 0.1420000046491623 254 255 249
0.06978873163461685 0.00776675483211875 0.1420000046491623 254 255 249
0.070122629404068 0.00776675483211875 0.1420000046491623 254 255 249
0.07045652717351913 0.00776675483211875 0.1420000046491623 254 255 249
0.0702918991446495 0.0077120596542954445 0.14100000262260437 254 255 249
0.07062344253063202 0.0077120596542954445 0.14100000262260437 254 255 249
0.0704517662525177 0.007657364010810852 0.14000000059604645 251 247 240
0.07027538120746613 0.007602668832987547 0.13899999856948853 242 238 231
0.07060222327709198 0.007602668832987547 0.13899999856948853 255 227 222
0.07092906534671783 0.007602668832987547 0.13899999856948853 233 198 193
0.07074327766895294 0.0075479731895029545 0.1379999965429306 237 172 163
0.07106777280569077 0.0075479731895029545 0.1379999965429306 219 154 145
0.07139226794242859 0.0075479731895029545 0.1379999965429306 219 161 145
0.07171675562858582 0.0075479731895029545 0.1379999965429306 245 187 171
0.07204125076532364 0.0075479731895029545 0.1379999965429306 255 239 224
0.07236573845148087 0.0075479731895029545 0.1379999965429306 255 247 232
0.07269023358821869 0.0075479731895029545 0.1379999965429306 254 238 231
0.07301472872495651 0.0075479731895029545 0.1379999965429306 247 231 224
0.07333921641111374 0.0075479731895029545 0.1379999965429306 240 205 200
0.07366371154785156 0.0075479731895029545 0.1379999965429306 224 189 184
0.07398820668458939 0.0075479731895029545 0.1379999965429306 227 182 171
0.07431269437074661 0.0075479731895029545 0.1379999965429306 230 185 174
0.07463718950748444 0.0075479731895029545 0.1379999965429306 232 185 172
0.07441847771406174 0.007493277546018362 0.13699999451637268 231 184 171
0.07474061846733093 0.007493277546018362 0.13699999451637268 225 176 164
0.07506275922060013 0.007493277546018362 0.13699999451637268 223 174 162
0.07538489997386932 0.007493277546018362 0.13699999451637268 218 158 156
0.07570704072713852 0.007493277546018362 0.13699999451637268 209 149 147
0.07547422498464584 0.007438582368195057 0.13600000739097595 212 144 150
0.07579401880502701 0.007438582368195057 0.13600000739097595 204 136 142
0.07643359899520874 0.007438582368195057 0.13600000739097595 201 131 131
0.07675338536500931 0.007438582368195057 0.13600000739097595 204 139 126
0.07707317918539047 0.007438582368195057 0.13600000739097595 229 164 151
0.07739296555519104 0.007438582368195057 0.13600000739097595 238 175 163
0.07771275192499161 0.007438582368195057 0.13600000739097595 228 165 153
0.07803254574537277 0.007438582368195057 0.13600000739097595 212 155 148
0.07835233211517334 0.007438582368195057 0.13600000739097595 214 157 150
0.0786721259355545 0.007438582368195057 0.13600000739097595 206 158 150
0.05427202209830284 0.008385887369513512 0.1469999998807907 255 95 98
0.05461767688393593 0.008385887369513512 0.1469999998807907 255 116 120
0.05533723160624504 0.008442933671176434 0.14800000190734863 255 113 117
0.05568523705005646 0.008442933671176434 0.14800000190734863 252 106 113
0.05603324621915817 0.008442933671176434 0.14800000190734863 253 107 114
0.0567622035741806 0.00849998090416193 0.14900000393390656 252 106 113
0.05711256340146065 0.00849998090416193 0.14900000393390656 253 107 114
0.057462919503450394 0.00849998090416193 0.14900000393390656 255 109 116
0.05781327933073044 0.00849998090416193 0.14900000393390656 252 106 113
0.05855399742722511 0.008557028137147427 0.15000000596046448 250 109 112
0.05890670418739319 0.008557028137147427 0.15000000596046448 253 112 115
0.05925941467285156 0.008557028137147427 0.15000000596046448 253 122 122
0.059612125158309937 0.008557028137147427 0.15000000596046448 255 129 129
0.05996483191847801 0.008557028137147427 0.15000000596046448 254 133 127
0.060317542403936386 0.008557028137147427 0.15000000596046448 255 136 130
0.06067024916410446 0.008557028137147427 0.15000000596046448 251 140 133
0.061022959649562836 0.008557028137147427 0.15000000596046448 255 144 137
0.06137567013502121 0.008557028137147427 0.15000000596046448 255 149 141
0.061728376895189285 0.008557028137147427 0.15000000596046448 255 155 147
0.06166721135377884 0.00849998090416193 0.14900000393390656 255 152 143
0.062017571181058884 0.00849998090416193 0.14900000393390656 254 149 140
0.06236792728304863 0.00849998090416193 0.14900000393390656 255 157 147
0.062297359108924866 0.008442933671176434 0.14800000190734863 255 154 144
0.06264536082744598 0.008442933671176434 0.14800000190734863 252 155 141
0.0629933699965477 0.008442933671176434 0.14800000190734863 242 145 131
0.06291339546442032 0.008385887369513512 0.1469999998807907 255 230 210
0.0632590502500534 0.008385887369513512 0.1469999998807907 255 245 225
0.06360470503568649 0.008385887369513512 0.1469999998807907 255 255 241
0.06395035982131958 0.008385887369513512 0.1469999998807907 255 255 241
0.06385862827301025 0.008328840136528015 0.1459999978542328 254 255 249
0.06420192867517471 0.008328840136528015 0.1459999978542328 254 255 249
0.06454523652791977 0.008328840136528015 0.1459999978542328 254 255 249
0.06488853693008423 0.008328840136528015 0.1459999978542328 254 255 249
0.06523183733224869 0.008328840136528015 0.1459999978542328 254 255 249
0.06557514518499374 0.008328840136528015 0.1459999978542328 254 255 249
0.0659184455871582 0.008328840136528015 0.1459999978542328 254 255 249
0.06580790132284164 0.008271793834865093 0.14499999582767487 253 254 248
0.06614885479211807 0.008271793834865093 0.14499999582767487 249 244 240
0.06603125482797623 0.008214746601879597 0.14399999380111694 249 244 240
0.06636986136436462 0.008214746601879597 0.14399999380111694 255 231 231
0.06624520570039749 0.008157700300216675 0.14300000667572021 235 199 199
0.06658145785331726 0.008157700300216675 0.14300000667572021 243 188 183
0.06691770255565643 0.008157700300216675 0.14300000667572021 247 192 187
0.06678364425897598 0.008100653067231178 0.1420000046491623 246 188 176
0.06711754202842712 0.008100653067231178 0.1420000046491623 229 171 159
0.06745143979787827 0.008100653067231178 0.1420000046491623 255 245 228
0.0677853375673294 0.008100653067231178 0.1420000046491623 255 250 233
0.06811923533678055 0.008100653067231178 0.1420000046491623 254 255 245
0.06845313310623169 0.008100653067231178 0.1420000046491623 254 255 245
0.06878703087568283 0.008100653067231178 0.1420000046491623 254 255 249
0.06912093609571457 0.008100653067231178 0.1420000046491623 254 255 249
0.06945483386516571 0.008100653067231178 0.1420000046491623 254 255 249
0.06978873163461685 0.008100653067231178 0.1420000046491623 254 255 249
0.070122629404068 0.008100653067231178 0.1420000046491623 254 255 249
0.07045652717351913 0.008100653067231178 0.1420000046491623 254 255 249
0.0702918991446495 0.008043605834245682 0.14100000262260437 254 255 249
0.07062344253063202 0.008043605834245682 0.14100000262260437 254 255 249
0.0704517662525177 0.00798655953258276 0.14000000059604645 254 245 240
0.07027538120746613 0.007929512299597263 0.13899999856948853 239 230 225
0.07060222327709198 0.007929512299597263 0.13899999856948853 254 213 207
0.07092906534671783 0.007929512299597263 0.13899999856948853 230 189 183
0.07074327766895294 0.007872465997934341 0.1379999965429306 228 160 152
0.07106777280569077 0.007872465997934341 0.1379999965429306 215 147 139
0.07139226794242859 0.007872465997934341 0.1379999965429306 204 144 129
0.07171675562858582 0.007872465997934341 0.1379999965429306 229 169 154
0.07204125076532364 0.007872465997934341 0.1379999965429306 255 245 228
0.07236573845148087 0.007872465997934341 0.1379999965429306 255 248 231
0.07269023358821869 0.007872465997934341 0.1379999965429306 255 246 237
0.07301472872495651 0.007872465997934341 0.1379999965429306 250 232 223
0.07333921641111374 0.007872465997934341 0.1379999965429306 246 207 205
0.07366371154785156 0.007872465997934341 0.1379999965429306 241 202 200
0.07398820668458939 0.007872465997934341 0.1379999965429306 237 179 177
0.07431269437074661 0.007872465997934341 0.1379999965429306 238 180 178
0.07409633696079254 0.007815418764948845 0.13699999451637268 238 181 172
0.07441847771406174 0.007815418764948845 0.13699999451637268 234 177 168
0.07474061846733093 0.007815418764948845 0.13699999451637268 229 171 159
0.07506275922060013 0.007815418764948845 0.13699999451637268 231 173 161
0.07538489997386932 0.007815418764948845 0.13699999451637268 228 163 163
0.07570704072713852 0.007815418764948845 0.13699999451637268 219 154 154
0.07547422498464584 0.007758371997624636 0.13600000739097595 207 139 147
0.07579401880502701 0.007758371997624636 0.13600000739097595 204 136 144
0.07611380517482758 0.007758371997624636 0.13600000739097595 203 131 129
0.07675338536500931 0.007758371997624636 0.13600000739097595 207 139 127
0.07707317918539047 0.007758371997624636 0.13600000739097595 225 157 145
0.07739296555519104 0.007758371997624636 0.13600000739097595 235 170 159
0.07771275192499161 0.007758371997624636 0.13600000739097595 253 188 177
0.07803254574537277 0.007758371997624636 0.13600000739097595 232 177 174
0.07835233211517334 0.007758371997624636 0.13600000739097595 215 160 157
0.05355951935052872 0.008672144263982773 0.1459999978542328 245 84 87
0.05427202209830284 0.008731542155146599 0.1469999998807907 255 113 116
0.05461767688393593 0.008731542155146599 0.1469999998807907 255 127 130
0.054963331669569016 0.008731542155146599 0.1469999998807907 255 111 114
0.05568523705005646 0.008790940046310425 0.14800000190734863 253 106 111
0.05603324621915817 0.008790940046310425 0.14800000190734863 254 107 112
0.05638125166296959 0.008790940046310425 0.14800000190734863 250 103 110
0.05711256340146065 0.008850338868796825 0.14900000393390656 249 102 109
0.057462919503450394 0.008850338868796825 0.14900000393390656 249 103 108
0.05781327933073044 0.008850338868796825 0.14900000393390656 249 103 108
0.05855399742722511 0.008909736759960651 0.15000000596046448 253 112 113
0.05890670418739319 0.008909736759960651 0.15000000596046448 255 120 121
0.05925941467285156 0.008909736759960651 0.15000000596046448 252 121 119
0.059612125158309937 0.008909736759960651 0.15000000596046448 255 128 126
0.05996483191847801 0.008909736759960651 0.15000000596046448 248 127 123
0.060317542403936386 0.008909736759960651 0.15000000596046448 255 136 132
0.06067024916410446 0.008909736759960651 0.15000000596046448 255 143 137
0.061022959649562836 0.008909736759960651 0.15000000596046448 255 146 140
0.06137567013502121 0.008909736759960651 0.15000000596046448 255 149 141
0.061728376895189285 0.008909736759960651 0.15000000596046448 255 147 139
0.06166721135377884 0.008850338868796825 0.14900000393390656 254 145 137
0.062017571181058884 0.008850338868796825 0.14900000393390656 253 144 136
0.06236792728304863 0.008850338868796825 0.14900000393390656 251 144 136
0.062297359108924866 0.008790940046310425 0.14800000190734863 251 144 136
0.06264536082744598 0.008790940046310425 0.14800000190734863 249 150 137
0.0629933699965477 0.008790940046310425 0.14800000190734863 240 141 128
0.06291339546442032 0.008731542155146599 0.1469999998807907 255 225 204
0.0632590502500534 0.008731542155146599 0.1469999998807907 255 244 223
0.06360470503568649 0.008731542155146599 0.1469999998807907 255 255 239
0.06395035982131958 0.008731542155146599 0.1469999998807907 255 255 239
0.06385862827301025 0.008672144263982773 0.1459999978542328 254 255 247
0.06420192867517471 0.008672144263982773 0.1459999978542328 254 255 247
0.06454523652791977 0.008672144263982773 0.1459999978542328 254 255 249
0.06488853693008423 0.008672144263982773 0.1459999978542328 254 255 249
0.06523183733224869 0.008672144263982773 0.1459999978542328 254 255 249
0.06557514518499374 0.008672144263982773 0.1459999978542328 254 255 249
0.06546695530414581 0.008612745441496372 0.14499999582767487 254 255 249
0.06580790132284164 0.008612745441496372 0.14499999582767487 251 252 246
0.06614885479211807 0.008612745441496372 0.14499999582767487 244 227 227
0.06603125482797623 0.008553347550332546 0.14399999380111694 238 221 221
0.06636986136436462 0.008553347550332546 0.14399999380111694 255 206 207
0.06624520570039749 0.008493948727846146 0.14300000667572021 239 190 191
0.06658145785331726 0.008493948727846146 0.14300000667572021 250 188 185
0.06691770255565643 0.008493948727846146 0.14300000667572021 253 191 188
0.0672539547085762 0.008493948727846146 0.14300000667572021 251 186 177
0.06711754202842712 0.00843455083668232 0.1420000046491623 225 160 151
0.06745143979787827 0.00843455083668232 0.1420000046491623 248 224 208
0.0677853375673294 0.00843455083668232 0.1420000046491623 255 249 233
0.06811923533678055 0.00843455083668232 0.1420000046491623 254 255 243
0.06845313310623169 0.00843455083668232 0.1420000046491623 254 255 243
0.06878703087568283 0.00843455083668232 0.1420000046491623 254 255 249
0.06912093609571457 0.00843455083668232 0.1420000046491623 254 255 249
0.06945483386516571 0.00843455083668232 0.1420000046491623 254 255 249
0.06978873163461685 0.00843455083668232 0.1420000046491623 254 255 249
0.070122629404068 0.00843455083668232 0.1420000046491623 254 255 249
0.07045652717351913 0.00843455083668232 0.1420000046491623 254 255 249
0.0702918991446495 0.008375152945518494 0.14100000262260437 254 255 249
0.07012256979942322 0.008315754123032093 0.14000000059604645 254 255 249
0.0704517662525177 0.008315754123032093 0.14000000059604645 255 246 244
0.07027538120746613 0.008256356231868267 0.13899999856948853 238 226 224
0.07060222327709198 0.008256356231868267 0.13899999856948853 252 202 206
0.07041878998279572 0.008196958340704441 0.1379999965429306 241 191 195
0.07074327766895294 0.008196958340704441 0.1379999965429306 230 157 155
0.07106777280569077 0.008196958340704441 0.1379999965429306 219 146 144
0.07171675562858582 0.008196958340704441 0.1379999965429306 228 163 152
0.07204125076532364 0.008196958340704441 0.1379999965429306 255 244 228
0.07236573845148087 0.008196958340704441 0.1379999965429306 255 247 231
0.07269023358821869 0.008196958340704441 0.1379999965429306 255 247 241
0.07301472872495651 0.008196958340704441 0.1379999965429306 238 219 213
0.07333921641111374 0.008196958340704441 0.1379999965429306 237 195 194
0.07366371154785156 0.008196958340704441 0.1379999965429306 234 192 191
0.07398820668458939 0.008196958340704441 0.1379999965429306 248 183 183
0.07377419620752335 0.00813755951821804 0.13699999451637268 241 176 176
0.07409633696079254 0.00813755951821804 0.13699999451637268 243 174 169
0.07441847771406174 0.00813755951821804 0.13699999451637268 239 170 165
0.07474061846733093 0.00813755951821804 0.13699999451637268 239 170 165
0.07506275922060013 0.00813755951821804 0.13699999451637268 237 168 163
0.07538489997386932 0.00813755951821804 0.13699999451637268 212 147 149
0.07570704072713852 0.00813755951821804 0.13699999451637268 213 148 150
0.07602918893098831 0.00813755951821804 0.13699999451637268 208 139 150
0.07675338536500931 0.008078161627054214 0.13600000739097595 212 140 131
0.07707317918539047 0.008078161627054214 0.13600000739097595 234 162 153
0.07739296555519104 0.008078161627054214 0.13600000739097595 235 167 159
0.07771275192499161 0.008078161627054214 0.13600000739097595 235 167 159
0.07803254574537277 0.008078161627054214 0.13600000739097595 219 164 163
0.07835233211517334 0.008078161627054214 0.13600000739097595 219 164 163
0.0786721259355545 0.008078161627054214 0.13600000739097595 201 152 151
0.07899191230535507 0.008078161627054214 0.13600000739097595 201 152 151
0.05355951935052872 0.009015447460114956 0.1459999978542328 250 93 97
0.053902823477983475 0.009015447460114956 0.1459999978542328 255 124 128
0.05461767688393593 0.009077196940779686 0.1469999998807907 253 107 110
0.054963331669569016 0.009077196940779686 0.1469999998807907 254 108 111
0.0553089864552021 0.009077196940779686 0.1469999998807907 251 105 112
0.05603324621915817 0.009138946421444416 0.14800000190734863 246 100 107
0.05638125166296959 0.009138946421444416 0.14800000190734863 249 102 109
0.056729257106781006 0.009138946421444416 0.14800000190734863 250 103 110
0.057462919503450394 0.00920069683343172 0.14900000393390656 254 107 112
0.05781327933073044 0.00920069683343172 0.14900000393390656 255 109 114
0.05855399742722511 0.00926244631409645 0.15000000596046448 253 112 113
0.05890670418739319 0.00926244631409645 0.15000000596046448 255 122 123
0.05925941467285156 0.00926244631409645 0.15000000596046448 255 126 124
0.059612125158309937 0.00926244631409645 0.15000000596046448 255 132 130
0.05996483191847801 0.00926244631409645 0.15000000596046448 252 129 126
0.060317542403936386 0.00926244631409645 0.15000000596046448 255 135 132
0.06067024916410446 0.00926244631409645 0.15000000596046448 255 141 137
0.061022959649562836 0.00926244631409645 0.15000000596046448 255 139 135
0.06137567013502121 0.00926244631409645 0.15000000596046448 251 140 133
0.061728376895189285 0.00926244631409645 0.15000000596046448 253 142 135
0.06166721135377884 0.00920069683343172 0.14900000393390656 251 140 133
0.062017571181058884 0.00920069683343172 0.14900000393390656 247 136 129
0.06236792728304863 0.00920069683343172 0.14900000393390656 243 134 126
0.062297359108924866 0.009138946421444416 0.14800000190734863 253 144 136
0.06264536082744598 0.009138946421444416 0.14800000190734863 246 144 134
0.0629933699965477 0.009138946421444416 0.14800000190734863 241 139 129
0.06291339546442032 0.009077196940779686 0.1469999998807907 255 227 204
0.0632590502500534 0.009077196940779686 0.1469999998807907 255 243 220
0.06360470503568649 0.009077196940779686 0.1469999998807907 255 255 237
0.06395035982131958 0.009077196940779686 0.1469999998807907 255 255 237
0.06385862827301025 0.009015447460114956 0.1459999978542328 254 255 247
0.06420192867517471 0.009015447460114956 0.1459999978542328 254 255 247
0.06454523652791977 0.009015447460114956 0.1459999978542328 254 255 249
0.06488853693008423 0.009015447460114956 0.1459999978542328 254 255 249
0.06523183733224869 0.009015447460114956 0.1459999978542328 254 255 249
0.06557514518499374 0.009015447460114956 0.1459999978542328 254 255 249
0.06546695530414581 0.008953697979450226 0.14499999582767487 255 255 249
0.06580790132284164 0.008953697979450226 0.14499999582767487 254 254 248
0.06614885479211807 0.008953697979450226 0.14499999582767487 252 224 225
0.06603125482797623 0.008891948498785496 0.14399999380111694 237 209 210
0.06636986136436462 0.008891948498785496 0.14399999380111694 239 183 187
0.06624520570039749 0.008830198086798191 0.14300000667572021 238 182 186
0.06658145785331726 0.008830198086798191 0.14300000667572021 254 181 182
0.06691770255565643 0.008830198086798191 0.14300000667572021 253 180 181
0.0672539547085762 0.008830198086798191 0.14300000667572021 246 178 168
0.06711754202842712 0.008768448606133461 0.1420000046491623 223 155 145
0.06745143979787827 0.008768448606133461 0.1420000046491623 225 198 176
0.0677853375673294 0.008768448606133461 0.1420000046491623 255 249 227
0.06811923533678055 0.008768448606133461 0.1420000046491623 255 255 239
0.06845313310623169 0.008768448606133461 0.1420000046491623 255 255 239
0.06878703087568283 0.008768448606133461 0.1420000046491623 254 255 247
0.06912093609571457 0.008768448606133461 0.1420000046491623 254 255 247
0.06945483386516571 0.008768448606133461 0.1420000046491623 254 255 249
0.06978873163461685 0.008768448606133461 0.1420000046491623 254 255 249
0.070122629404068 0.008768448606133461 0.1420000046491623 254 255 249
0.07045652717351913 0.008768448606133461 0.1420000046491623 254 255 249
0.0702918991446495 0.008706699125468731 0.14100000262260437 254 255 249
0.07012256979942322 0.008644949644804 0.14000000059604645 254 255 249
0.0704517662525177 0.008644949644804 0.14000000059604645 251 231 232
0.07027538120746613 0.00858320016413927 0.13899999856948853 242 222 223
0.07060222327709198 0.00858320016413927 0.13899999856948853 255 194 200
0.07041878998279572 0.00852145068347454 0.1379999965429306 232 169 175
0.07074327766895294 0.00852145068347454 0.1379999965429306 233 152 151
0.07106777280569077 0.00852145068347454 0.1379999965429306 221 140 139
0.07171675562858582 0.00852145068347454 0.1379999965429306 225 150 142
0.07204125076532364 0.00852145068347454 0.1379999965429306 255 236 225
0.07236573845148087 0.00852145068347454 0.1379999965429306 255 243 232
0.07269023358821869 0.00852145068347454 0.1379999965429306 255 246 241
0.07301472872495651 0.00852145068347454 0.1379999965429306 243 222 217
0.07333921641111374 0.00852145068347454 0.1379999965429306 247 203 203
0.07366371154785156 0.00852145068347454 0.1379999965429306 231 187 187
0.07398820668458939 0.00852145068347454 0.1379999965429306 246 175 182
0.07377419620752335 0.008459700271487236 0.13699999451637268 241 170 177
0.07409633696079254 0.008459700271487236 0.13699999451637268 240 167 165
0.07441847771406174 0.008459700271487236 0.13699999451637268 240 167 165
0.07474061846733093 0.008459700271487236 0.13699999451637268 243 171 167
0.07506275922060013 0.008459700271487236 0.13699999451637268 230 158 154
0.07538489997386932 0.008459700271487236 0.13699999451637268 211 149 148
0.07675338536500931 0.008397950790822506 0.13600000739097595 216 141 131
0.07707317918539047 0.008397950790822506 0.13600000739097595 247 172 162
0.07739296555519104 0.008397950790822506 0.13600000739097595 225 157 149
0.07771275192499161 0.008397950790822506 0.13600000739097595 224 156 148
0.07803254574537277 0.008397950790822506 0.13600000739097595 214 155 158
0.07835233211517334 0.008397950790822506 0.13600000739097595 201 142 145
0.08891482651233673 0.008459700271487236 0.13699999451637268 201 153 145
0.05355951935052872 0.009358750656247139 0.1459999978542328 255 109 115
0.053902823477983475 0.009358750656247139 0.1459999978542328 255 122 128
0.05424612760543823 0.009358750656247139 0.1459999978542328 255 109 114
0.054963331669569016 0.009422851726412773 0.1469999998807907 253 107 112
0.0553089864552021 0.009422851726412773 0.1469999998807907 249 103 108
0.05565464124083519 0.009422851726412773 0.1469999998807907 247 101 106
0.05638125166296959 0.009486952796578407 0.14800000190734863 246 99 102
0.056729257106781006 0.009486952796578407 0.14800000190734863 253 106 109
0.057462919503450394 0.009551053866744041 0.14900000393390656 255 110 113
0.05781327933073044 0.009551053866744041 0.14900000393390656 255 111 114
0.05855399742722511 0.009615154936909676 0.15000000596046448 252 111 112
0.05890670418739319 0.009615154936909676 0.15000000596046448 255 120 121
0.05925941467285156 0.009615154936909676 0.15000000596046448 254 121 119
0.059612125158309937 0.009615154936909676 0.15000000596046448 255 123 121
0.05996483191847801 0.009615154936909676 0.15000000596046448 255 127 124
0.060317542403936386 0.009615154936909676 0.15000000596046448 255 128 125
0.06067024916410446 0.009615154936909676 0.15000000596046448 255 133 128
0.061022959649562836 0.009615154936909676 0.15000000596046448 255 136 131
0.06137567013502121 0.009615154936909676 0.15000000596046448 255 136 130
0.061728376895189285 0.009615154936909676 0.15000000596046448 255 139 133
0.06166721135377884 0.009551053866744041 0.14900000393390656 254 143 134
0.062017571181058884 0.009551053866744041 0.14900000393390656 251 140 131
0.06236792728304863 0.009551053866744041 0.14900000393390656 244 135 127
0.062297359108924866 0.009486952796578407 0.14800000190734863 255 148 140
0.06264536082744598 0.009486952796578407 0.14800000190734863 230 125 116
0.0629933699965477 0.009486952796578407 0.14800000190734863 239 134 125
0.06291339546442032 0.009422851726412773 0.1469999998807907 255 224 202
0.0632590502500534 0.009422851726412773 0.1469999998807907 255 243 221
0.06360470503568649 0.009422851726412773 0.1469999998807907 255 255 235
0.0635153204202652 0.009358750656247139 0.1459999978542328 255 255 235
0.06385862827301025 0.009358750656247139 0.1459999978542328 254 255 245
0.06420192867517471 0.009358750656247139 0.1459999978542328 254 255 245
0.06454523652791977 0.009358750656247139 0.1459999978542328 254 255 249
0.06488853693008423 0.009358750656247139 0.1459999978542328 254 255 249
0.06523183733224869 0.009358750656247139 0.1459999978542328 254 255 249
0.06512600183486938 0.009294649586081505 0.14499999582767487 254 255 249
0.06546695530414581 0.009294649586081505 0.14499999582767487 255 251 246
0.06580790132284164 0.009294649586081505 0.14499999582767487 245 236 231
0.06614885479211807 0.009294649586081505 0.14499999582767487 247 204 208
0.06603125482797623 0.00923054851591587 0.14399999380111694 251 208 212
0.06636986136436462 0.00923054851591587 0.14399999380111694 248 180 188
0.06624520570039749 0.009166447445750237 0.14300000667572021 239 171 179
0.06658145785331726 0.009166447445750237 0.14300000667572021 250 172 172
0.06691770255565643 0.009166447445750237 0.14300000667572021 249 171 171
0.0672539547085762 0.009166447445750237 0.14300000667572021 237 167 153
0.06711754202842712 0.009102347306907177 0.1420000046491623 219 149 135
0.06745143979787827 0.009102347306907177 0.1420000046491623 209 181 153
0.0677853375673294 0.009102347306907177 0.1420000046491623 255 249 221
0.06811923533678055 0.009102347306907177 0.1420000046491623 255 255 235
0.06845313310623169 0.009102347306907177 0.1420000046491623 255 255 235
0.06878703087568283 0.009102347306907177 0.1420000046491623 254 255 245
0.06912093609571457 0.009102347306907177 0.1420000046491623 254 255 245
0.06945483386516571 0.009102347306907177 0.1420000046491623 254 255 249
0.06978873163461685 0.009102347306907177 0.1420000046491623 254 255 249
0.070122629404068 0.009102347306907177 0.1420000046491623 254 255 249
0.0699603483080864 0.009038246236741543 0.14100000262260437 254 255 249
0.0702918991446495 0.009038246236741543 0.14100000262260437 255 255 249
0.07012256979942322 0.008974145166575909 0.14000000059604645 255 255 249
0.0704517662525177 0.008974145166575909 0.14000000059604645 251 217 223
0.07027538120746613 0.008910044096410275 0.13899999856948853 240 206 212
0.07060222327709198 0.008910044096410275 0.13899999856948853 252 181 190
0.07092906534671783 0.008910044096410275 0.13899999856948853 227 156 165
0.07074327766895294 0.00884594302624464 0.1379999965429306 226 142 142
0.07106777280569077 0.00884594302624464 0.1379999965429306 214 130 130
0.07171675562858582 0.00884594302624464 0.1379999965429306 216 136 130
0.07204125076532364 0.00884594302624464 0.1379999965429306 255 224 213
0.07236573845148087 0.00884594302624464 0.1379999965429306 255 241 230
0.07269023358821869 0.00884594302624464 0.1379999965429306 255 246 239
0.07301472872495651 0.00884594302624464 0.1379999965429306 251 226 219
0.07333921641111374 0.00884594302624464 0.1379999965429306 244 197 198
0.07366371154785156 0.00884594302624464 0.1379999965429306 237 190 191
0.07398820668458939 0.00884594302624464 0.1379999965429306 247 173 181
0.07377419620752335 0.008781841956079006 0.13699999451637268 238 164 172
0.07409633696079254 0.008781841956079006 0.13699999451637268 229 153 152
0.07441847771406174 0.008781841956079006 0.13699999451637268 233 157 156
0.07474061846733093 0.008781841956079006 0.13699999451637268 229 160 155
0.07506275922060013 0.008781841956079006 0.13699999451637268 217 148 143
0.07538489997386932 0.008781841956079006 0.13699999451637268 212 147 145
0.07570704072713852 0.008781841956079006 0.13699999451637268 212 147 145
0.07675338536500931 0.008717740885913372 0.13600000739097595 208 134 121
0.07707317918539047 0.008717740885913372 0.13600000739097595 237 163 150
0.07739296555519104 0.008717740885913372 0.13600000739097595 222 154 144
0.07771275192499161 0.008717740885913372 0.13600000739097595 229 161 151
0.07803254574537277 0.008717740885913372 0.13600000739097595 213 155 153
0.07835233211517334 0.008717740885913372 0.13600000739097595 203 145 143
0.05355951935052872 0.009702054783701897 0.1459999978542328 255 118 127
0.053902823477983475 0.009702054783701897 0.1459999978542328 255 118 127
0.05424612760543823 0.009702054783701897 0.1459999978542328 255 117 122
0.054963331669569016 0.00976850651204586 0.1469999998807907 253 112 117
0.0553089864552021 0.00976850651204586 0.1469999998807907 247 101 106
0.05565464124083519 0.00976850651204586 0.1469999998807907 249 103 108
0.05638125166296959 0.009834959171712399 0.14800000190734863 254 109 109
0.056729257106781006 0.009834959171712399 0.14800000190734863 249 104 104
0.057462919503450394 0.009901411831378937 0.14900000393390656 249 107 106
0.05781327933073044 0.009901411831378937 0.14900000393390656 251 109 108
0.05855399742722511 0.009967864491045475 0.15000000596046448 252 112 110
0.05890670418739319 0.009967864491045475 0.15000000596046448 255 119 117
0.05925941467285156 0.009967864491045475 0.15000000596046448 255 121 117
0.059612125158309937 0.009967864491045475 0.15000000596046448 252 118 114
0.05996483191847801 0.009967864491045475 0.15000000596046448 255 126 121
0.060317542403936386 0.009967864491045475 0.15000000596046448 255 127 122
0.06067024916410446 0.009967864491045475 0.15000000596046448 255 128 122
0.061022959649562836 0.009967864491045475 0.15000000596046448 255 127 121
0.06137567013502121 0.009967864491045475 0.15000000596046448 253 131 123
0.06131685525178909 0.009901411831378937 0.14900000393390656 254 132 124
0.06166721135377884 0.009901411831378937 0.14900000393390656 248 132 122
0.062017571181058884 0.009901411831378937 0.14900000393390656 247 131 121
0.06194935366511345 0.009834959171712399 0.14800000190734863 240 129 120
0.062297359108924866 0.009834959171712399 0.14800000190734863 233 122 113
0.06264536082744598 0.009834959171712399 0.14800000190734863 215 108 98
0.06256774067878723 0.00976850651204586 0.1469999998807907 230 123 113
0.06291339546442032 0.00976850651204586 0.1469999998807907 255 215 195
0.0632590502500534 0.00976850651204586 0.1469999998807907 255 238 218
0.06360470503568649 0.00976850651204586 0.1469999998807907 255 254 236
0.0635153204202652 0.009702054783701897 0.1459999978542328 255 255 237
0.06385862827301025 0.009702054783701897 0.1459999978542328 254 255 247
0.06420192867517471 0.009702054783701897 0.1459999978542328 254 255 247
0.06454523652791977 0.009702054783701897 0.1459999978542328 254 255 247
0.06444409489631653 0.009635602124035358 0.14499999582767487 254 255 247
0.06478504836559296 0.009635602124035358 0.14499999582767487 254 255 247
0.06512600183486938 0.009635602124035358 0.14499999582767487 254 255 247
0.06546695530414581 0.009635602124035358 0.14499999582767487 255 245 239
0.06580790132284164 0.009635602124035358 0.14499999582767487 238 219 213
0.06569265574216843 0.00956914946436882 0.14399999380111694 247 193 196
0.06603125482797623 0.00956914946436882 0.14399999380111694 241 187 190
0.06636986136436462 0.00956914946436882 0.14399999380111694 255 176 183
0.06624520570039749 0.009502696804702282 0.14300000667572021 233 154 161
0.06658145785331726 0.009502696804702282 0.14300000667572021 248 161 159
0.06691770255565643 0.009502696804702282 0.14300000667572021 250 163 161
0.0672539547085762 0.009502696804702282 0.14300000667572021 236 160 146
0.06759020686149597 0.009502696804702282 0.14300000667572021 210 134 120
0.06745143979787827 0.009436245076358318 0.1420000046491623 205 167 140
0.0677853375673294 0.009436245076358318 0.1420000046491623 255 245 218
0.06811923533678055 0.009436245076358318 0.1420000046491623 255 255 234
0.06845313310623169 0.009436245076358318 0.1420000046491623 255 255 235
0.06878703087568283 0.009436245076358318 0.1420000046491623 254 255 245
0.06912093609571457 0.009436245076358318 0.1420000046491623 254 255 245
0.06945483386516571 0.009436245076358318 0.1420000046491623 254 255 249
0.06978873163461685 0.009436245076358318 0.1420000046491623 254 255 249
0.070122629404068 0.009436245076358318 0.1420000046491623 254 255 249
0.0699603483080864 0.00936979241669178 0.14100000262260437 254 255 249
0.0702918991446495 0.00936979241669178 0.14100000262260437 255 250 248
0.07012256979942322 0.009303339757025242 0.14000000059604645 255 248 246
0.0704517662525177 0.009303339757025242 0.14000000059604645 250 201 212
