0.07176854461431503 0.004036217462271452 0.14000000059604645 101 17 12
0.07209774106740952 0.004036217462271452 0.14000000059604645 105 21 16
0.072426937520504 0.004036217462271452 0.14000000059604645 112 28 23
0.07275613397359848 0.004036217462271452 0.14000000059604645 114 30 25
0.07308532297611237 0.004036217462271452 0.14000000059604645 113 29 26
0.07341451942920685 0.004036217462271452 0.14000000059604645 114 30 27
0.07374371588230133 0.004036217462271452 0.14000000059604645 105 22 19
0.07407291233539581 0.004036217462271452 0.14000000059604645 100 17 14
0.0744021087884903 0.004036217462271452 0.14000000059604645 109 29 25
0.10533139109611511 0.005448893178254366 0.1889999955892563 108 17 24
0.1052161455154419 0.005420063156634569 0.18799999356269836 110 19 26
0.10565820336341858 0.005420063156634569 0.18799999356269836 118 27 34
0.10610026866197586 0.005420063156634569 0.18799999356269836 112 24 27
0.10654233396053314 0.005420063156634569 0.18799999356269836 112 24 27
0.10698439180850983 0.005420063156634569 0.18799999356269836 109 22 20
0.10742645710706711 0.005420063156634569 0.18799999356269836 113 26 24
0.10786851495504379 0.005420063156634569 0.18799999356269836 124 37 33
0.10773445665836334 0.005391233135014772 0.18700000643730164 117 30 26
0.108174167573452 0.005391233135014772 0.18700000643730164 121 35 26
0.10861387848854065 0.005391233135014772 0.18700000643730164 129 43 34
0.1090535894036293 0.005391233135014772 0.18700000643730164 133 49 26
0.10949330031871796 0.005391233135014772 0.18700000643730164 122 38 15
0.10934513807296753 0.005362403113394976 0.1860000044107437 121 23 3
0.10978249460458755 0.005362403113394976 0.1860000044107437 122 24 4
0.11021985113620758 0.005362403113394976 0.1860000044107437 128 22 9
0.11006227880716324 0.005333572626113892 0.1850000023841858 133 27 14
0.11049728840589523 0.005333572626113892 0.1850000023841858 122 14 13
0.11093229800462723 0.005333572626113892 0.1850000023841858 141 33 32
0.11076532304286957 0.005304742604494095 0.18400000035762787 140 36 40
0.11059363931417465 0.005275912582874298 0.18299999833106995 137 33 37
0.11102394759654999 0.005275912582874298 0.18299999833106995 125 45 39
0.11023616790771484 0.005218252539634705 0.1809999942779541 136 56 50
0.11066177487373352 0.005218252539634705 0.1809999942779541 139 79 68
0.0834689661860466 0.003920896910130978 0.13600000739097595 156 96 85
0.08378876000642776 0.003920896910130978 0.13600000739097595 167 109 95
0.08410854637622833 0.003920896910130978 0.13600000739097595 174 116 102
0.0844283327460289 0.003920896910130978 0.13600000739097595 177 121 107
0.1084277480840683 0.005016441456973553 0.17399999499320984 184 128 114
0.08506791293621063 0.003920896910130978 0.13600000739097595 187 130 123
0.0853877067565918 0.003920896910130978 0.13600000739097595 170 113 106
0.08570749312639236 0.003920896910130978 0.13600000739097595 151 93 91
0.08602728694677353 0.003920896910130978 0.13600000739097595 137 79 77
0.10953278839588165 0.004901120904833078 0.17000000178813934 152 92 90
0.10993252694606781 0.004901120904833078 0.17000000178813934 151 91 89
0.11033226549625397 0.004901120904833078 0.17000000178813934 179 121 121
0.11008063703775406 0.004872290883213282 0.16899999976158142 213 155 155
0.11047802120447159 0.004872290883213282 0.16899999976158142 217 155 156
0.11087540537118912 0.004872290883213282 0.16899999976158142 215 153 154
0.09020338952541351 0.003949726931750774 0.13699999451637268 213 151 150
0.09052553027868271 0.003949726931750774 0.13699999451637268 208 146 145
0.0908476710319519 0.003949726931750774 0.13699999451637268 187 126 129
0.0911698117852211 0.003949726931750774 0.13699999451637268 158 97 100
0.0914919525384903 0.003949726931750774 0.13699999451637268 146 80 87
0.09248427301645279 0.003978556953370571 0.1379999965429306 134 68 75
0.1148492619395256 0.004872290883213282 0.16899999976158142 168 101 113
0.11524664610624313 0.004872290883213282 0.16899999976158142 141 74 88
0.11632832139730453 0.004901120904833078 0.17000000178813934 141 74 88
0.1167280524969101 0.004901120904833078 0.17000000178813934 159 91 99
0.11752752959728241 0.004901120904833078 0.17000000178813934 163 89 94
0.11792726814746857 0.004901120904833078 0.17000000178813934 156 82 87
0.11832700669765472 0.004901120904833078 0.17000000178813934 162 78 78
0.11912647634744644 0.004901120904833078 0.17000000178813934 168 73 70
0.1195262148976326 0.004901120904833078 0.17000000178813934 147 52 49
0.1206313967704773 0.004929950926452875 0.17100000381469727 149 52 42
0.12103348970413208 0.004929950926452875 0.17100000381469727 152 55 45
0.12214572727680206 0.004958781413733959 0.1720000058412552 148 54 43
0.12255016714334488 0.004958781413733959 0.1720000058412552 147 53 42
0.12366946041584015 0.004987611435353756 0.17299999296665192 133 37 41
0.124076247215271 0.004987611435353756 0.17299999296665192 127 31 35
0.12448304146528244 0.004987611435353756 0.17299999296665192 139 43 49
0.05945013463497162 0.004957861267030239 0.1589999943971634 236 64 66
0.059824004769325256 0.004957861267030239 0.1589999943971634 249 71 78
0.06019787862896919 0.004957861267030239 0.1589999943971634 253 75 82
0.06057174876332283 0.004957861267030239 0.1589999943971634 231 57 69
0.060945622622966766 0.004957861267030239 0.1589999943971634 251 77 89
0.061319492757320404 0.004957861267030239 0.1589999943971634 255 93 101
0.06169336289167404 0.004957861267030239 0.1589999943971634 252 90 98
0.06128651648759842 0.004895498044788837 0.15700000524520874 242 96 103
0.0616556853055954 0.004895498044788837 0.15700000524520874 240 94 101
0.062419917434453964 0.004926679655909538 0.15800000727176666 201 79 80
0.0635862648487091 0.00498904287815094 0.1599999964237213 168 46 47
0.06523183733224869 0.00455250171944499 0.1459999978542328 219 169 166
0.06557514518499374 0.00455250171944499 0.1459999978542328 221 171 168
0.0659184455871582 0.00455250171944499 0.1459999978542328 222 159 165
0.06614885479211807 0.004521320108324289 0.14499999582767487 184 108 123
0.0664898082613945 0.004521320108324289 0.14499999582767487 148 72 87
0.06683076173067093 0.004521320108324289 0.14499999582767487 122 32 47
0.06717171519994736 0.004521320108324289 0.14499999582767487 109 19 34
0.06751266121864319 0.004521320108324289 0.14499999582767487 116 22 32
0.06785361468791962 0.004521320108324289 0.14499999582767487 112 18 28
0.06772426515817642 0.0044901384972035885 0.14399999380111694 117 27 29
0.06806286424398422 0.0044901384972035885 0.14399999380111694 123 33 35
0.06840146332979202 0.0044901384972035885 0.14399999380111694 117 35 25
0.06874006241559982 0.0044901384972035885 0.14399999380111694 119 37 27
0.06907866150140762 0.0044901384972035885 0.14399999380111694 109 37 28
0.06893520057201385 0.004458956886082888 0.14300000667572021 119 47 38
0.06927145272493362 0.004458956886082888 0.14300000667572021 116 57 79
0.0696076974272728 0.004458956886082888 0.14300000667572021 125 66 88
0.06945483386516571 0.004427775274962187 0.1420000046491623 120 74 100
0.06978873163461685 0.004427775274962187 0.1420000046491623 118 72 98
0.07012256979942322 0.0043654125183820724 0.14000000059604645 105 57 63
0.0704517662525177 0.0043654125183820724 0.14000000059604645 103 44 47
0.07078096270561218 0.0043654125183820724 0.14000000059604645 96 37 40
0.07111015170812607 0.0043654125183820724 0.14000000059604645 97 30 33
0.07143934816122055 0.0043654125183820724 0.14000000059604645 94 27 30
0.07176854461431503 0.0043654125183820724 0.14000000059604645 102 25 27
0.07209774106740952 0.0043654125183820724 0.14000000059604645 109 32 34
0.072426937520504 0.0043654125183820724 0.14000000059604645 112 30 34
0.07275613397359848 0.0043654125183820724 0.14000000059604645 111 29 33
0.07308532297611237 0.0043654125183820724 0.14000000059604645 110 28 32
0.07341451942920685 0.0043654125183820724 0.14000000059604645 110 28 32
0.07374371588230133 0.0043654125183820724 0.14000000059604645 110 31 34
0.07407291233539581 0.0043654125183820724 0.14000000059604645 112 33 36
0.0744021087884903 0.0043654125183820724 0.14000000059604645 113 36 38
0.10533139109611511 0.00589330680668354 0.1889999955892563 113 27 36
0.10577580332756042 0.00589330680668354 0.1889999955892563 106 15 24
0.10622021555900574 0.00589330680668354 0.1889999955892563 114 23 32
0.10666463524103165 0.00589330680668354 0.1889999955892563 112 19 24
0.10710904747247696 0.00589330680668354 0.1889999955892563 125 32 37
0.10698439180850983 0.0058621251955628395 0.18799999356269836 124 29 30
0.10742645710706711 0.0058621251955628395 0.18799999356269836 117 22 23
0.08314917981624603 0.004240686539560556 0.13600000739097595 217 163 153
0.0834689661860466 0.004240686539560556 0.13600000739097595 217 163 153
0.08378876000642776 0.004240686539560556 0.13600000739097595 214 161 148
0.08410854637622833 0.004240686539560556 0.13600000739097595 217 164 151
0.0844283327460289 0.004240686539560556 0.13600000739097595 208 160 145
0.08474812656641006 0.004240686539560556 0.13600000739097595 194 146 131
0.08506791293621063 0.004240686539560556 0.13600000739097595 199 152 141
0.0853877067565918 0.004240686539560556 0.13600000739097595 196 149 138
0.08570749312639236 0.004240686539560556 0.13600000739097595 186 136 129
0.08602728694677353 0.004240686539560556 0.13600000739097595 173 123 116
0.0863470733165741 0.004240686539560556 0.13600000739097595 160 105 100
0.08730412274599075 0.00427186768501997 0.13699999451637268 157 102 97
0.08762626349925995 0.00427186768501997 0.13699999451637268 155 97 95
0.08955910801887512 0.00427186768501997 0.13699999451637268 206 151 146
0.08988124877214432 0.00427186768501997 0.13699999451637268 203 148 143
0.09020338952541351 0.00427186768501997 0.13699999451637268 203 148 143
0.09052553027868271 0.00427186768501997 0.13699999451637268 199 144 139
0.0908476710319519 0.00427186768501997 0.13699999451637268 198 143 142
0.0911698117852211 0.00427186768501997 0.13699999451637268 190 135 134
0.0914919525384903 0.00427186768501997 0.13699999451637268 169 110 113
0.09248427301645279 0.004303049296140671 0.1379999965429306 164 105 108
0.09280876070261002 0.004303049296140671 0.1379999965429306 176 120 124
0.0944618210196495 0.004334230907261372 0.13899999856948853 181 129 136
0.09478866308927536 0.004334230907261372 0.13899999856948853 175 112 127
0.09511550515890121 0.004334230907261372 0.13899999856948853 152 89 104
0.11912647634744644 0.005300858058035374 0.17000000178813934 154 65 60
0.1195262148976326 0.005300858058035374 0.17000000178813934 157 68 63
0.11992595344781876 0.005300858058035374 0.17000000178813934 166 71 63
0.12032569199800491 0.005300858058035374 0.17000000178813934 149 54 46
0.12143557518720627 0.0053320396691560745 0.17100000381469727 141 48 37
0.12255016714334488 0.005363220814615488 0.1720000058412552 144 51 40
0.1229546070098877 0.005363220814615488 0.1720000058412552 134 39 40
0.12335904687643051 0.005363220814615488 0.1720000058412552 129 34 35
0.12376348674297333 0.005363220814615488 0.1720000058412552 135 38 44
0.05831914395093918 0.005365265998989344 0.1599999964237213 234 58 64
0.058695364743471146 0.005365265998989344 0.1599999964237213 239 63 69
0.05907158926129341 0.005365265998989344 0.1599999964237213 244 68 74
0.05945013463497162 0.005331732798367739 0.1589999943971634 238 61 65
0.0594477541744709 0.005298200063407421 0.15800000727176666 245 67 74
0.05981927365064621 0.005298200063407421 0.15800000727176666 242 64 71
0.06019079312682152 0.005298200063407421 0.15800000727176666 243 70 79
0.060562316328287125 0.005298200063407421 0.15800000727176666 255 87 96
0.06054817885160446 0.0052646673284471035 0.15700000524520874 253 88 97
0.06052934005856514 0.005231134127825499 0.15600000321865082 253 88 97
0.06089615449309349 0.005231134127825499 0.15600000321865082 244 89 95
0.06087026372551918 0.005197601392865181 0.1550000011920929 255 103 109
0.0612347275018692 0.005197601392865181 0.1550000011920929 217 85 90
0.06159919500350952 0.005197601392865181 0.1550000011920929 199 67 72
0.06404223293066025 0.0051305354572832584 0.15299999713897705 133 34 25
0.06440199911594391 0.0051305354572832584 0.15299999713897705 123 24 15
0.06523183733224869 0.004895804915577173 0.1459999978542328 255 249 238
0.06557514518499374 0.004895804915577173 0.1459999978542328 255 249 238
0.0659184455871582 0.004895804915577173 0.1459999978542328 255 240 244
0.06626175343990326 0.004895804915577173 0.1459999978542328 255 225 229
0.06614885479211807 0.004862272180616856 0.14499999582767487 252 192 204
0.0664898082613945 0.004862272180616856 0.14499999582767487 212 152 164
0.06683076173067093 0.004862272180616856 0.14499999582767487 189 105 123
0.06717171519994736 0.004862272180616856 0.14499999582767487 144 60 78
0.06738565862178802 0.004828739445656538 0.14399999380111694 106 14 30
0.06772426515817642 0.004828739445656538 0.14399999380111694 108 17 28
0.06806286424398422 0.004828739445656538 0.14399999380111694 123 32 43
0.06840146332979202 0.004828739445656538 0.14399999380111694 110 32 30
0.06874006241559982 0.004828739445656538 0.14399999380111694 119 41 39
0.06907866150140762 0.004828739445656538 0.14399999380111694 152 100 91
0.06893520057201385 0.004795206245034933 0.14300000667572021 198 146 137
0.06927145272493362 0.004795206245034933 0.14300000667572021 217 193 195
0.0696076974272728 0.004795206245034933 0.14300000667572021 247 223 225
0.06945483386516571 0.0047616735100746155 0.1420000046491623 246 234 245
0.06978873163461685 0.0047616735100746155 0.1420000046491623 250 238 249
0.06962880492210388 0.0047281403094530106 0.14100000262260437 253 240 246
0.0699603483080864 0.0047281403094530106 0.14100000262260437 238 225 231
0.0702918991446495 0.0047281403094530106 0.14100000262260437 227 208 204
0.07012256979942322 0.004694607574492693 0.14000000059604645 215 196 192
0.0704517662525177 0.004694607574492693 0.14000000059604645 210 180 175
0.07078096270561218 0.004694607574492693 0.14000000059604645 197 167 162
0.07111015170812607 0.004694607574492693 0.14000000059604645 180 139 133
0.07143934816122055 0.004694607574492693 0.14000000059604645 153 112 106
0.07176854461431503 0.004694607574492693 0.14000000059604645 136 80 82
0.07209774106740952 0.004694607574492693 0.14000000059604645 98 42 44
0.072426937520504 0.004694607574492693 0.14000000059604645 96 22 32
0.07275613397359848 0.004694607574492693 0.14000000059604645 111 37 47
0.07308532297611237 0.004694607574492693 0.14000000059604645 103 29 37
0.07289013266563416 0.004661074839532375 0.13899999856948853 103 29 37
0.07321697473526001 0.004661074839532375 0.13899999856948853 101 41 41
0.07354381680488586 0.004661074839532375 0.13899999856948853 104 44 44
0.07387066632509232 0.004661074839532375 0.13899999856948853 103 44 49
0.07377419620752335 0.004594008903950453 0.13699999451637268 108 49 54
0.07409633696079254 0.004594008903950453 0.13699999451637268 107 51 55
0.10588870197534561 0.006371253170073032 0.1899999976158142 100 19 34
0.10577580332756042 0.006337720435112715 0.1889999955892563 110 15 30
0.10622021555900574 0.006337720435112715 0.1889999955892563 116 21 36
0.10666463524103165 0.006337720435112715 0.1889999955892563 125 28 32
0.10710904747247696 0.006337720435112715 0.1889999955892563 134 37 41
0.10755345970392227 0.006337720435112715 0.1889999955892563 114 19 20
0.0825095996260643 0.004560476168990135 0.13600000739097595 255 216 215
0.08282938599586487 0.004560476168990135 0.13600000739097595 225 183 182
0.08314917981624603 0.004560476168990135 0.13600000739097595 214 162 151
0.0834689661860466 0.004560476168990135 0.13600000739097595 216 164 153
0.08378876000642776 0.004560476168990135 0.13600000739097595 218 167 153
0.08410854637622833 0.004560476168990135 0.13600000739097595 210 159 145
0.0844283327460289 0.004560476168990135 0.13600000739097595 206 160 144
0.08474812656641006 0.004560476168990135 0.13600000739097595 197 151 135
0.08506791293621063 0.004560476168990135 0.13600000739097595 194 154 139
0.0853877067565918 0.004560476168990135 0.13600000739097595 182 142 127
0.08570749312639236 0.004560476168990135 0.13600000739097595 185 138 127
0.08602728694677353 0.004560476168990135 0.13600000739097595 181 134 123
0.0863470733165741 0.004560476168990135 0.13600000739097595 175 123 114
0.08730412274599075 0.004594008903950453 0.13699999451637268 157 105 96
0.08762626349925995 0.004594008903950453 0.13699999451637268 145 92 86
0.08794840425252914 0.004594008903950453 0.13699999451637268 152 99 93
0.08891482651233673 0.004594008903950453 0.13699999451637268 197 149 143
0.08923696726560593 0.004594008903950453 0.13699999451637268 196 148 142
0.08955910801887512 0.004594008903950453 0.13699999451637268 196 146 139
0.08988124877214432 0.004594008903950453 0.13699999451637268 193 143 136
0.09020338952541351 0.004594008903950453 0.13699999451637268 191 141 134
0.09052553027868271 0.004594008903950453 0.13699999451637268 191 141 134
0.0908476710319519 0.004594008903950453 0.13699999451637268 191 141 138
0.0911698117852211 0.004594008903950453 0.13699999451637268 196 146 143
0.0914919525384903 0.004594008903950453 0.13699999451637268 183 127 129
0.09248427301645279 0.00462754163891077 0.1379999965429306 172 116 118
0.09280876070261002 0.00462754163891077 0.1379999965429306 188 137 139
0.09313325583934784 0.00462754163891077 0.1379999965429306 188 137 139
0.09345774352550507 0.00462754163891077 0.1379999965429306 183 135 143
0.09378223866224289 0.00462754163891077 0.1379999965429306 172 124 132
0.09478866308927536 0.004661074839532375 0.13899999856948853 171 113 129
0.09511550515890121 0.004661074839532375 0.13899999856948853 161 103 119
0.09544235467910767 0.004661074839532375 0.13899999856948853 158 99 104
0.09576919674873352 0.004661074839532375 0.13899999856948853 151 92 97
0.11663156002759933 0.0055999960750341415 0.16699999570846558 158 86 84
0.1170242428779602 0.0055999960750341415 0.16699999570846558 150 67 62
0.11992595344781876 0.005700594745576382 0.17000000178813934 167 79 69
0.12032569199800491 0.005700594745576382 0.17000000178813934 167 79 69
0.12072542309761047 0.005700594745576382 0.17000000178813934 162 72 58
0.12183766067028046 0.005734127946197987 0.17100000381469727 165 75 61
0.1229546070098877 0.005767660681158304 0.1720000058412552 147 51 48
0.12335904687643051 0.005767660681158304 0.1720000058412552 139 43 40
0.12376348674297333 0.005767660681158304 0.1720000058412552 130 29 32
0.05795464664697647 0.005705604795366526 0.1589999943971634 235 58 60
0.05832852050662041 0.005705604795366526 0.1589999943971634 233 56 60
0.05907158926129341 0.00574148865416646 0.1599999964237213 242 65 69
0.05907623469829559 0.005669720470905304 0.15800000727176666 246 69 73
0.0594477541744709 0.005669720470905304 0.15800000727176666 252 71 79
0.05981927365064621 0.005669720470905304 0.15800000727176666 241 60 68
0.06019079312682152 0.005669720470905304 0.15800000727176666 245 75 83
0.060562316328287125 0.005669720470905304 0.15800000727176666 255 88 96
0.06016252189874649 0.0055979518219828606 0.15600000321865082 255 94 99
0.06052934005856514 0.0055979518219828606 0.15600000321865082 255 102 107
0.06050579622387886 0.005562067497521639 0.1550000011920929 246 92 95
0.06047755107283592 0.005526183173060417 0.15399999916553497 252 98 101
0.060839664191007614 0.005526183173060417 0.15399999916553497 254 116 118
0.06080436706542969 0.0054902988485991955 0.15299999713897705 255 121 123
0.06116412952542305 0.0054902988485991955 0.15299999713897705 255 128 131
0.06152389198541641 0.0054902988485991955 0.15299999713897705 255 128 131
0.06147918850183487 0.005454414524137974 0.15199999511241913 238 129 135
0.0618366003036499 0.005454414524137974 0.15199999511241913 213 104 110
0.062194012105464935 0.005454414524137974 0.15199999511241913 184 92 90
0.06255142390727997 0.005454414524137974 0.15199999511241913 172 80 78
0.062908835709095 0.005454414524137974 0.15199999511241913 127 36 29
0.06326624751091003 0.005454414524137974 0.15199999511241913 109 18 11
0.06362365931272507 0.005454414524137974 0.15199999511241913 129 23 21
0.06440199911594391 0.0054902988485991955 0.15299999713897705 142 36 34
0.06533297896385193 0.005274992901831865 0.1469999998807907 255 254 243
0.06523183733224869 0.005239108577370644 0.1459999978542328 255 254 247
0.06557514518499374 0.005239108577370644 0.1459999978542328 255 254 247
0.0659184455871582 0.005239108577370644 0.1459999978542328 255 248 249
0.06626175343990326 0.005239108577370644 0.1459999978542328 255 238 239
0.06614885479211807 0.005203224252909422 0.14499999582767487 255 211 220
0.0664898082613945 0.005203224252909422 0.14499999582767487 246 202 211
0.06683076173067093 0.005203224252909422 0.14499999582767487 244 180 189
0.06717171519994736 0.005203224252909422 0.14499999582767487 216 152 161
0.06704705953598022 0.0051673399284482 0.14399999380111694 194 114 126
0.06738565862178802 0.0051673399284482 0.14399999380111694 160 80 92
0.06772426515817642 0.0051673399284482 0.14399999380111694 121 38 51
0.06806286424398422 0.0051673399284482 0.14399999380111694 112 29 42
0.06840146332979202 0.0051673399284482 0.14399999380111694 111 44 47
0.06826270371675491 0.0051314556039869785 0.14300000667572021 172 105 108
0.06859894841909409 0.0051314556039869785 0.14300000667572021 249 217 211
0.06893520057201385 0.0051314556039869785 0.14300000667572021 255 243 237
0.06927145272493362 0.0051314556039869785 0.14300000667572021 255 253 249
0.0696076974272728 0.0051314556039869785 0.14300000667572021 255 253 249
0.06945483386516571 0.005095571279525757 0.1420000046491623 254 254 250
0.06978873163461685 0.005095571279525757 0.1420000046491623 255 255 251
0.06962880492210388 0.005059686955064535 0.14100000262260437 255 254 254
0.0699603483080864 0.005059686955064535 0.14100000262260437 255 254 254
0.06979337334632874 0.0050238026306033134 0.14000000059604645 255 252 248
0.07012256979942322 0.0050238026306033134 0.14000000059604645 255 253 249
0.0704517662525177 0.0050238026306033134 0.14000000059604645 255 252 243
0.07027538120746613 0.004987918306142092 0.13899999856948853 255 248 239
0.07060222327709198 0.004987918306142092 0.13899999856948853 255 235 231
0.07092906534671783 0.004987918306142092 0.13899999856948853 247 221 217
0.07125591486692429 0.004987918306142092 0.13899999856948853 226 184 183
0.07158275693655014 0.004987918306142092 0.13899999856948853 175 133 132
0.071909599006176 0.004987918306142092 0.13899999856948853 117 63 66
0.07223644107580185 0.004987918306142092 0.13899999856948853 92 38 41
0.0725632905960083 0.004987918306142092 0.13899999856948853 140 94 90
0.07289013266563416 0.004987918306142092 0.13899999856948853 178 132 128
0.07321697473526001 0.004987918306142092 0.13899999856948853 180 145 140
0.07354381680488586 0.004987918306142092 0.13899999856948853 180 145 140
0.07387066632509232 0.004987918306142092 0.13899999856948853 181 144 141
0.07377419620752335 0.004916149657219648 0.13699999451637268 197 155 152
0.07409633696079254 0.004916149657219648 0.13699999451637268 202 164 157
0.07523670792579651 0.004844381473958492 0.13500000536441803 167 104 108
0.07555414736270905 0.004844381473958492 0.13500000536441803 132 52 62
0.07587158679962158 0.004844381473958492 0.13500000536441803 109 29 39
0.07618902623653412 0.004844381473958492 0.13500000536441803 115 26 32
0.07650645822286606 0.004844381473958492 0.13500000536441803 117 28 34
0.07745877653360367 0.004844381473958492 0.13500000536441803 134 57 59
0.0777762159705162 0.004844381473958492 0.13500000536441803 148 71 73
0.07809365540742874 0.004844381473958492 0.13500000536441803 149 79 81
0.07841108739376068 0.004844381473958492 0.13500000536441803 157 87 89
0.07872852683067322 0.004844381473958492 0.13500000536441803 161 99 100
0.07904596626758575 0.004844381473958492 0.13500000536441803 167 105 106
0.07936340570449829 0.004844381473958492 0.13500000536441803 165 106 109
0.07968084514141083 0.004844381473958492 0.13500000536441803 163 104 107
0.07999828457832336 0.004844381473958492 0.13500000536441803 159 106 104
0.0803157165646553 0.004844381473958492 0.13500000536441803 157 104 102
0.08063315600156784 0.004844381473958492 0.13500000536441803 157 107 102
0.08095059543848038 0.004844381473958492 0.13500000536441803 190 140 135
0.08187001943588257 0.004880265332758427 0.13600000739097595 255 219 216
0.08218980580568314 0.004880265332758427 0.13600000739097595 255 237 234
0.0825095996260643 0.004880265332758427 0.13600000739097595 255 222 219
0.08282938599586487 0.004880265332758427 0.13600000739097595 217 182 179
0.08314917981624603 0.004880265332758427 0.13600000739097595 206 160 154
0.0834689661860466 0.004880265332758427 0.13600000739097595 201 155 149
0.08378876000642776 0.004880265332758427 0.13600000739097595 203 154 142
0.08410854637622833 0.004880265332758427 0.13600000739097595 202 153 141
0.0844283327460289 0.004880265332758427 0.13600000739097595 195 150 137
0.08474812656641006 0.004880265332758427 0.13600000739097595 191 146 133
0.08506791293621063 0.004880265332758427 0.13600000739097595 185 148 132
0.0853877067565918 0.004880265332758427 0.13600000739097595 181 144 128
0.08570749312639236 0.004880265332758427 0.13600000739097595 173 128 117
0.08602728694677353 0.004880265332758427 0.13600000739097595 177 132 121
0.08698198199272156 0.004916149657219648 0.13699999451637268 168 119 109
0.08730412274599075 0.004916149657219648 0.13699999451637268 173 124 114
0.08762626349925995 0.004916149657219648 0.13699999451637268 185 132 126
0.08794840425252914 0.004916149657219648 0.13699999451637268 209 156 150
0.08827054500579834 0.004916149657219648 0.13699999451637268 211 168 163
0.08859268575906754 0.004916149657219648 0.13699999451637268 211 168 163
0.08891482651233673 0.004916149657219648 0.13699999451637268 211 165 159
0.08923696726560593 0.004916149657219648 0.13699999451637268 206 160 154
0.08955910801887512 0.004916149657219648 0.13699999451637268 196 148 140
0.08988124877214432 0.004916149657219648 0.13699999451637268 193 145 137
0.09020338952541351 0.004916149657219648 0.13699999451637268 190 144 136
0.09052553027868271 0.004916149657219648 0.13699999451637268 188 142 134
0.0908476710319519 0.004916149657219648 0.13699999451637268 185 141 139
0.0911698117852211 0.004916149657219648 0.13699999451637268 181 137 135
0.0914919525384903 0.004916149657219648 0.13699999451637268 173 124 125
0.09248427301645279 0.00495203398168087 0.1379999965429306 161 112 113
0.09280876070261002 0.00495203398168087 0.1379999965429306 177 128 129
0.09313325583934784 0.00495203398168087 0.1379999965429306 184 135 136
0.09345774352550507 0.00495203398168087 0.1379999965429306 179 131 137
0.09378223866224289 0.00495203398168087 0.1379999965429306 172 124 130
0.09478866308927536 0.004987918306142092 0.13899999856948853 180 128 137
0.09511550515890121 0.004987918306142092 0.13899999856948853 166 114 123
0.09544235467910767 0.004987918306142092 0.13899999856948853 163 107 111
0.09576919674873352 0.004987918306142092 0.13899999856948853 150 94 98
0.11554283648729324 0.00595679460093379 0.16599999368190765 158 89 86
0.11593317240476608 0.00595679460093379 0.16599999368190765 144 75 72
0.1170242428779602 0.005992678925395012 0.16699999570846558 150 70 62
0.11812002211809158 0.006028563249856234 0.1679999977350235 154 74 66
0.11992595344781876 0.006100331898778677 0.17000000178813934 159 73 62
0.12032569199800491 0.006100331898778677 0.17000000178813934 172 86 75
0.12072542309761047 0.006100331898778677 0.17000000178813934 170 80 64
0.12183766067028046 0.006136216223239899 0.17100000381469727 161 71 55
0.12223975360393524 0.006136216223239899 0.17100000381469727 151 57 44
0.12264183908700943 0.006136216223239899 0.17100000381469727 139 45 32
0.12376348674297333 0.00617210054770112 0.1720000058412552 136 35 34
0.05795464664697647 0.006079476326704025 0.1589999943971634 236 60 59
0.05832852050662041 0.006079476326704025 0.1589999943971634 232 57 58
0.058702390640974045 0.006079476326704025 0.1589999943971634 239 64 65
0.05907626077532768 0.006079476326704025 0.1589999943971634 249 74 77
0.05907623469829559 0.0060412404127418995 0.15800000727176666 251 76 79
0.0594477541744709 0.0060412404127418995 0.15800000727176666 251 75 83
0.05981927365064621 0.0060412404127418995 0.15800000727176666 242 66 74
0.05977686494588852 0.005926533602178097 0.1550000011920929 254 97 101
0.06014132872223854 0.005926533602178097 0.1550000011920929 255 103 107
0.06050579622387886 0.005926533602178097 0.1550000011920929 251 102 101
0.06047755107283592 0.005888297688215971 0.15399999916553497 250 101 100
0.060839664191007614 0.005888297688215971 0.15399999916553497 255 122 118
0.06080436706542969 0.0058500622399151325 0.15299999713897705 255 125 121
0.0607643648982048 0.005811826325953007 0.15199999511241913 255 129 129
0.061121776700019836 0.005811826325953007 0.15199999511241913 255 131 131
0.06147918850183487 0.005811826325953007 0.15199999511241913 250 134 140
0.0618366003036499 0.005811826325953007 0.15199999511241913 239 123 129
0.062194012105464935 0.005811826325953007 0.15199999511241913 207 111 110
0.06255142390727997 0.005811826325953007 0.15199999511241913 204 108 107
0.062908835709095 0.005811826325953007 0.15199999511241913 185 97 89
0.06326624751091003 0.005811826325953007 0.15199999511241913 132 44 36
0.06362365931272507 0.005811826325953007 0.15199999511241913 120 21 19
0.06464166939258575 0.0056206476874649525 0.1469999998807907 255 255 241
0.06498732417821884 0.0056206476874649525 0.1469999998807907 255 255 247
0.06488853693008423 0.005582412239164114 0.1459999978542328 255 255 247
0.06523183733224869 0.005582412239164114 0.1459999978542328 255 255 249
0.06557514518499374 0.005582412239164114 0.1459999978542328 255 255 249
0.0659184455871582 0.005582412239164114 0.1459999978542328 255 253 249
0.06626175343990326 0.005582412239164114 0.1459999978542328 246 241 237
0.06660505384206772 0.005582412239164114 0.1459999978542328 247 226 225
0.0664898082613945 0.005544176325201988 0.14499999582767487 246 225 224
0.06683076173067093 0.005544176325201988 0.14499999582767487 243 195 201
0.06717171519994736 0.005544176325201988 0.14499999582767487 250 202 208
0.06704705953598022 0.00550594087690115 0.14399999380111694 244 181 187
0.06738565862178802 0.00550594087690115 0.14399999380111694 226 163 169
0.06772426515817642 0.00550594087690115 0.14399999380111694 193 122 129
0.06806286424398422 0.00550594087690115 0.14399999380111694 138 67 74
0.06792645156383514 0.005467704962939024 0.14300000667572021 119 69 66
0.06826270371675491 0.005467704962939024 0.14300000667572021 237 187 184
0.06859894841909409 0.005467704962939024 0.14300000667572021 255 250 246
0.06893520057201385 0.005467704962939024 0.14300000667572021 255 251 247
0.06927145272493362 0.005467704962939024 0.14300000667572021 254 255 249
0.0696076974272728 0.005467704962939024 0.14300000667572021 254 255 249
0.06945483386516571 0.0054294695146381855 0.1420000046491623 254 255 251
0.06978873163461685 0.0054294695146381855 0.1420000046491623 254 255 251
0.06962880492210388 0.00539123360067606 0.14100000262260437 254 255 251
0.0699603483080864 0.00539123360067606 0.14100000262260437 254 255 251
0.06979337334632874 0.005352998152375221 0.14000000059604645 253 254 250
0.07012256979942322 0.005352998152375221 0.14000000059604645 254 255 251
0.0704517662525177 0.005352998152375221 0.14000000059604645 254 255 249
0.07027538120746613 0.0053147622384130955 0.13899999856948853 254 255 249
0.07060222327709198 0.0053147622384130955 0.13899999856948853 255 249 249
0.07092906534671783 0.0053147622384130955 0.13899999856948853 251 234 234
0.07125591486692429 0.0053147622384130955 0.13899999856948853 231 195 197
0.07158275693655014 0.0053147622384130955 0.13899999856948853 219 183 185
0.071909599006176 0.0053147622384130955 0.13899999856948853 153 109 107
0.07223644107580185 0.0053147622384130955 0.13899999856948853 154 110 108
0.0725632905960083 0.0053147622384130955 0.13899999856948853 235 211 197
0.07289013266563416 0.0053147622384130955 0.13899999856948853 255 244 230
0.07321697473526001 0.0053147622384130955 0.13899999856948853 255 246 236
0.07354381680488586 0.0053147622384130955 0.13899999856948853 255 237 227
0.07333921641111374 0.00527652632445097 0.1379999965429306 255 224 224
0.07366371154785156 0.00527652632445097 0.1379999965429306 255 220 220
0.07398820668458939 0.00527652632445097 0.1379999965429306 255 219 216
0.07377419620752335 0.005238290876150131 0.13699999451637268 251 214 211
0.07409633696079254 0.005238290876150131 0.13699999451637268 247 210 205
0.07523670792579651 0.005161819513887167 0.13500000536441803 215 166 165
0.07555414736270905 0.005161819513887167 0.13500000536441803 187 127 127
0.07587158679962158 0.005161819513887167 0.13500000536441803 115 55 55
0.07618902623653412 0.005161819513887167 0.13500000536441803 111 44 45
0.07650645822286606 0.005161819513887167 0.13500000536441803 175 108 109
0.07745877653360367 0.005161819513887167 0.13500000536441803 234 176 174
0.0777762159705162 0.005161819513887167 0.13500000536441803 237 179 177
0.07809365540742874 0.005161819513887167 0.13500000536441803 235 185 178
0.07841108739376068 0.005161819513887167 0.13500000536441803 235 185 178
0.07872852683067322 0.005161819513887167 0.13500000536441803 233 183 176
0.07904596626758575 0.005161819513887167 0.13500000536441803 232 182 175
0.07936340570449829 0.005161819513887167 0.13500000536441803 220 174 168
0.07968084514141083 0.005161819513887167 0.13500000536441803 212 166 160
0.07999828457832336 0.005161819513887167 0.13500000536441803 207 164 159
0.0803157165646553 0.005161819513887167 0.13500000536441803 203 160 155
0.08063315600156784 0.005161819513887167 0.13500000536441803 196 155 145
0.08095059543848038 0.005161819513887167 0.13500000536441803 188 147 137
0.08187001943588257 0.0052000549621880054 0.13600000739097595 224 183 173
0.08218980580568314 0.0052000549621880054 0.13600000739097595 238 197 187
0.0825095996260643 0.0052000549621880054 0.13600000739097595 227 190 185
0.08282938599586487 0.0052000549621880054 0.13600000739097595 209 172 167
0.08314917981624603 0.0052000549621880054 0.13600000739097595 210 162 154
0.0834689661860466 0.0052000549621880054 0.13600000739097595 197 149 141
0.08378876000642776 0.0052000549621880054 0.13600000739097595 192 145 132
0.08410854637622833 0.0052000549621880054 0.13600000739097595 190 143 130
0.0844283327460289 0.0052000549621880054 0.13600000739097595 191 146 133
0.08474812656641006 0.0052000549621880054 0.13600000739097595 186 141 128
0.08506791293621063 0.0052000549621880054 0.13600000739097595 181 144 128
0.0853877067565918 0.0052000549621880054 0.13600000739097595 180 143 127
0.08570749312639236 0.0052000549621880054 0.13600000739097595 167 125 113
0.08602728694677353 0.0052000549621880054 0.13600000739097595 163 121 109
0.08698198199272156 0.005238290876150131 0.13699999451637268 171 119 110
0.08730412274599075 0.005238290876150131 0.13699999451637268 191 139 130
0.08762626349925995 0.005238290876150131 0.13699999451637268 198 149 139
0.08794840425252914 0.005238290876150131 0.13699999451637268 198 149 139
0.08827054500579834 0.005238290876150131 0.13699999451637268 196 155 149
0.08859268575906754 0.005238290876150131 0.13699999451637268 202 161 155
0.08891482651233673 0.005238290876150131 0.13699999451637268 208 167 161
0.08923696726560593 0.005238290876150131 0.13699999451637268 192 151 145
0.08955910801887512 0.005238290876150131 0.13699999451637268 200 154 146
0.08988124877214432 0.005238290876150131 0.13699999451637268 190 144 136
0.09020338952541351 0.005238290876150131 0.13699999451637268 185 142 133
0.09052553027868271 0.005238290876150131 0.13699999451637268 184 141 132
0.0908476710319519 0.005238290876150131 0.13699999451637268 182 142 143
0.0911698117852211 0.005238290876150131 0.13699999451637268 178 138 139
0.0914919525384903 0.005238290876150131 0.13699999451637268 176 128 132
0.09248427301645279 0.00527652632445097 0.1379999965429306 162 114 118
0.09280876070261002 0.00527652632445097 0.1379999965429306 166 116 120
0.09313325583934784 0.00527652632445097 0.1379999965429306 178 128 132
0.09345774352550507 0.00527652632445097 0.1379999965429306 178 130 134
0.09378223866224289 0.00527652632445097 0.1379999965429306 179 131 135
0.09478866308927536 0.0053147622384130955 0.13899999856948853 185 135 139
0.09511550515890121 0.0053147622384130955 0.13899999856948853 167 117 121
0.09544235467910767 0.0053147622384130955 0.13899999856948853 163 108 114
0.09576919674873352 0.0053147622384130955 0.13899999856948853 166 111 117
0.09609603881835938 0.0053147622384130955 0.13899999856948853 160 99 102
0.11554283648729324 0.006347126327455044 0.16599999368190765 155 88 87
0.11593317240476608 0.006347126327455044 0.16599999368190765 138 71 70
0.11632350087165833 0.006347126327455044 0.16599999368190765 148 73 65
0.11741692572832108 0.006385361775755882 0.16699999570846558 150 75 67
0.11961789429187775 0.0064618331380188465 0.16899999976158142 154 71 59
0.12001527845859528 0.0064618331380188465 0.16899999976158142 164 77 62
0.12112516164779663 0.006500069051980972 0.17000000178813934 173 86 71
0.12152490019798279 0.006500069051980972 0.17000000178813934 173 79 64
0.12264183908700943 0.006538304500281811 0.17100000381469727 162 68 53
0.12304393202066422 0.006538304500281811 0.17100000381469727 138 40 33
0.05795464664697647 0.006453347858041525 0.1589999943971634 249 73 70
0.05832852050662041 0.006453347858041525 0.1589999943971634 255 81 77
0.058702390640974045 0.006453347858041525 0.1589999943971634 254 80 76
0.058704715222120285 0.006412760820239782 0.15800000727176666 252 77 78
0.05870233476161957 0.00637217378243804 0.15700000524520874 251 76 77
0.05907150357961655 0.00637217378243804 0.15700000524520874 251 75 81
0.05902909114956856 0.006250412203371525 0.15399999916553497 255 92 100
0.05900555104017258 0.006209825165569782 0.15299999713897705 250 96 99
0.05936531350016594 0.006209825165569782 0.15299999713897705 251 97 100
0.05933471769094467 0.00616923812776804 0.15199999511241913 251 102 103
0.059692129492759705 0.00616923812776804 0.15199999511241913 255 116 117
0.06004954129457474 0.00616923812776804 0.15199999511241913 254 114 112
0.06040695309638977 0.00616923812776804 0.15199999511241913 255 116 114
0.0607643648982048 0.00616923812776804 0.15199999511241913 255 126 127
0.061121776700019836 0.00616923812776804 0.15199999511241913 255 130 131
0.061074718832969666 0.006128651089966297 0.1509999930858612 251 133 135
0.06142977997660637 0.006128651089966297 0.1509999930858612 252 134 136
0.06178484112024307 0.006128651089966297 0.1509999930858612 231 130 131
0.062139902263879776 0.006128651089966297 0.1509999930858612 202 101 102
0.06249495968222618 0.006128651089966297 0.1509999930858612 188 96 92
0.06285002082586288 0.006128651089966297 0.1509999930858612 190 98 94
0.06278650462627411 0.006088064052164555 0.15000000596046448 179 90 87
0.06313921511173248 0.006088064052164555 0.15000000596046448 177 88 85
0.06349192559719086 0.006088064052164555 0.15000000596046448 184 95 94
0.06360470503568649 0.005966302938759327 0.1469999998807907 255 246 230
0.0635153204202652 0.005925715435296297 0.1459999978542328 255 249 233
0.06385862827301025 0.005925715435296297 0.1459999978542328 255 255 245
0.06420192867517471 0.005925715435296297 0.1459999978542328 255 255 245
0.06454523652791977 0.005925715435296297 0.1459999978542328 254 255 249
0.06488853693008423 0.005925715435296297 0.1459999978542328 254 255 249
0.06523183733224869 0.005925715435296297 0.1459999978542328 254 255 249
0.06557514518499374 0.005925715435296297 0.1459999978542328 254 255 249
0.0659184455871582 0.005925715435296297 0.1459999978542328 255 255 249
0.06626175343990326 0.005925715435296297 0.1459999978542328 253 253 247
0.06660505384206772 0.005925715435296297 0.1459999978542328 255 252 243
0.0664898082613945 0.0058851283974945545 0.14499999582767487 255 251 242
0.06683076173067093 0.0058851283974945545 0.14499999582767487 255 243 240
0.06670846045017242 0.005844541359692812 0.14399999380111694 253 232 229
0.06704705953598022 0.005844541359692812 0.14399999380111694 255 213 219
0.06738565862178802 0.005844541359692812 0.14399999380111694 250 200 206
0.0672539547085762 0.005803954321891069 0.14300000667572021 245 184 187
0.06759020686149597 0.005803954321891069 0.14300000667572021 204 143 146
0.06792645156383514 0.005803954321891069 0.14300000667572021 170 128 125
0.06826270371675491 0.005803954321891069 0.14300000667572021 255 234 231
0.06859894841909409 0.005803954321891069 0.14300000667572021 255 255 247
0.06893520057201385 0.005803954321891069 0.14300000667572021 255 255 247
0.06878703087568283 0.005763367284089327 0.1420000046491623 254 255 249
0.06912093609571457 0.005763367284089327 0.1420000046491623 254 255 249
0.06945483386516571 0.005763367284089327 0.1420000046491623 254 255 249
0.06929726153612137 0.005722780246287584 0.14100000262260437 254 255 249
0.06962880492210388 0.005722780246287584 0.14100000262260437 254 255 251
0.0699603483080864 0.005722780246287584 0.14100000262260437 254 255 251
0.06979337334632874 0.005682193208485842 0.14000000059604645 254 255 251
0.07012256979942322 0.005682193208485842 0.14000000059604645 254 255 251
0.06994853913784027 0.005641606170684099 0.13899999856948853 254 255 251
0.07027538120746613 0.005641606170684099 0.13899999856948853 254 255 251
0.07060222327709198 0.005641606170684099 0.13899999856948853 255 252 249
0.07092906534671783 0.005641606170684099 0.13899999856948853 255 250 247
0.07125591486692429 0.005641606170684099 0.13899999856948853 249 221 220
0.07158275693655014 0.005641606170684099 0.13899999856948853 215 187 186
0.071909599006176 0.005641606170684099 0.13899999856948853 171 136 131
0.07223644107580185 0.005641606170684099 0.13899999856948853 215 180 175
0.0725632905960083 0.005641606170684099 0.13899999856948853 255 252 236
0.07289013266563416 0.005641606170684099 0.13899999856948853 255 253 237
0.07321697473526001 0.005641606170684099 0.13899999856948853 255 248 243
0.07301472872495651 0.005601019132882357 0.1379999965429306 255 246 241
0.07333921641111374 0.005601019132882357 0.1379999965429306 255 226 231
0.07366371154785156 0.005601019132882357 0.1379999965429306 251 211 216
0.07398820668458939 0.005601019132882357 0.1379999965429306 251 208 210
0.07377419620752335 0.005560431629419327 0.13699999451637268 246 203 205
0.07409633696079254 0.005560431629419327 0.13699999451637268 245 203 202
0.07387527823448181 0.005519844591617584 0.13600000739097595 238 196 195
0.07419507205486298 0.005519844591617584 0.13600000739097595 239 197 194
0.07451485842466354 0.005519844591617584 0.13600000739097595 234 192 189
0.07483465224504471 0.005519844591617584 0.13600000739097595 242 198 196
0.07515443861484528 0.005519844591617584 0.13600000739097595 241 197 195
0.07547422498464584 0.005519844591617584 0.13600000739097595 224 180 180
0.07523670792579651 0.005479257553815842 0.13500000536441803 212 168 168
0.07555414736270905 0.005479257553815842 0.13500000536441803 195 149 145
0.07587158679962158 0.005479257553815842 0.13500000536441803 152 106 102
0.07618902623653412 0.005479257553815842 0.13500000536441803 187 134 130
0.07650645822286606 0.005479257553815842 0.13500000536441803 235 182 178
0.0768238976597786 0.005479257553815842 0.13500000536441803 255 201 198
0.07714133709669113 0.005479257553815842 0.13500000536441803 249 194 191
0.07745877653360367 0.005479257553815842 0.13500000536441803 247 192 191
0.0777762159705162 0.005479257553815842 0.13500000536441803 247 192 191
0.07809365540742874 0.005479257553815842 0.13500000536441803 238 190 182
0.07841108739376068 0.005479257553815842 0.13500000536441803 230 182 174
0.07872852683067322 0.005479257553815842 0.13500000536441803 230 184 176
0.07904596626758575 0.005479257553815842 0.13500000536441803 221 175 167
0.07936340570449829 0.005479257553815842 0.13500000536441803 206 160 156
0.07968084514141083 0.005479257553815842 0.13500000536441803 211 165 161
0.07999828457832336 0.005479257553815842 0.13500000536441803 206 160 154
0.0803157165646553 0.005479257553815842 0.13500000536441803 200 154 148
0.08063315600156784 0.005479257553815842 0.13500000536441803 199 156 149
0.08095059543848038 0.005479257553815842 0.13500000536441803 186 143 136
0.08187001943588257 0.005519844591617584 0.13600000739097595 180 139 129
0.08218980580568314 0.005519844591617584 0.13600000739097595 208 167 157
0.0825095996260643 0.005519844591617584 0.13600000739097595 237 196 186
0.08282938599586487 0.005519844591617584 0.13600000739097595 195 154 144
0.08314917981624603 0.005519844591617584 0.13600000739097595 187 139 131
0.0834689661860466 0.005519844591617584 0.13600000739097595 188 140 132
0.08378876000642776 0.005519844591617584 0.13600000739097595 188 143 132
0.08410854637622833 0.005519844591617584 0.13600000739097595 184 139 128
0.0844283327460289 0.005519844591617584 0.13600000739097595 171 129 117
0.08474812656641006 0.005519844591617584 0.13600000739097595 173 131 119
0.08506791293621063 0.005519844591617584 0.13600000739097595 170 133 119
0.0853877067565918 0.005519844591617584 0.13600000739097595 170 133 119
0.08570749312639236 0.005519844591617584 0.13600000739097595 167 129 118
0.08602728694677353 0.005519844591617584 0.13600000739097595 166 128 117
0.08698198199272156 0.005560431629419327 0.13699999451637268 168 121 108
0.08730412274599075 0.005560431629419327 0.13699999451637268 168 121 108
0.08762626349925995 0.005560431629419327 0.13699999451637268 179 130 120
0.08794840425252914 0.005560431629419327 0.13699999451637268 189 140 130
0.08827054500579834 0.005560431629419327 0.13699999451637268 194 153 145
0.08859268575906754 0.005560431629419327 0.13699999451637268 211 170 162
0.08891482651233673 0.005560431629419327 0.13699999451637268 210 172 165
0.08923696726560593 0.005560431629419327 0.13699999451637268 193 155 148
0.08955910801887512 0.005560431629419327 0.13699999451637268 195 154 148
0.08988124877214432 0.005560431629419327 0.13699999451637268 181 140 134
0.09020338952541351 0.005560431629419327 0.13699999451637268 175 137 130
0.09052553027868271 0.005560431629419327 0.13699999451637268 173 135 128
0.0908476710319519 0.005560431629419327 0.13699999451637268 178 140 140
0.0911698117852211 0.005560431629419327 0.13699999451637268 167 129 129
0.0914919525384903 0.005560431629419327 0.13699999451637268 164 119 122
0.09248427301645279 0.005601019132882357 0.1379999965429306 161 116 119
0.09280876070261002 0.005601019132882357 0.1379999965429306 158 111 112
0.09313325583934784 0.005601019132882357 0.1379999965429306 166 119 120
0.09345774352550507 0.005601019132882357 0.1379999965429306 178 131 132
0.09378223866224289 0.005601019132882357 0.1379999965429306 176 129 130
0.09410673379898071 0.005601019132882357 0.1379999965429306 180 130 134
0.09511550515890121 0.005641606170684099 0.13899999856948853 170 120 124
0.09544235467910767 0.005641606170684099 0.13899999856948853 164 110 113
0.09576919674873352 0.005641606170684099 0.13899999856948853 157 103 106
0.09609603881835938 0.005641606170684099 0.13899999856948853 151 90 93
0.09642288088798523 0.005641606170684099 0.13899999856948853 143 82 85
0.11593317240476608 0.00673745758831501 0.16599999368190765 149 82 83
0.11632350087165833 0.00673745758831501 0.16599999368190765 161 86 80
0.11741692572832108 0.006778044626116753 0.16699999570846558 150 75 69
0.11961789429187775 0.006859218701720238 0.16899999976158142 154 74 66
0.12001527845859528 0.006859218701720238 0.16899999976158142 153 70 58
0.1204126626253128 0.006859218701720238 0.16899999976158142 160 77 65
0.12081004679203033 0.006859218701720238 0.16899999976158142 166 79 64
0.12192463874816895 0.00689980573952198 0.17000000178813934 163 76 61
0.1223243772983551 0.00689980573952198 0.17000000178813934 141 48 37
0.05795464664697647 0.0068272193893790245 0.1589999943971634 239 64 56
0.05832852050662041 0.0068272193893790245 0.1589999943971634 238 63 55
