0.08859268575906754 0.005238290876150131 0.13699999451637268 208 171 157
0.08891482651233673 0.005238290876150131 0.13699999451637268 203 172 159
0.057942748069763184 0.006250412203371525 0.15399999916553497 255 86 92
0.058304861187934875 0.006250412203371525 0.15399999916553497 255 95 101
0.05861989036202431 0.00616923812776804 0.15199999511241913 255 104 117
0.05897730588912964 0.00616923812776804 0.15199999511241913 253 97 110
0.05933471769094467 0.00616923812776804 0.15199999511241913 247 101 108
0.059692129492759705 0.00616923812776804 0.15199999511241913 255 117 124
0.06004954129457474 0.00616923812776804 0.15199999511241913 254 119 122
0.06040695309638977 0.00616923812776804 0.15199999511241913 255 120 123
0.0607643648982048 0.00616923812776804 0.15199999511241913 255 139 136
0.061121776700019836 0.00616923812776804 0.15199999511241913 255 141 138
0.06147918850183487 0.00616923812776804 0.15199999511241913 255 148 150
0.0618366003036499 0.00616923812776804 0.15199999511241913 252 143 145
0.06178484112024307 0.006128651089966297 0.1509999930858612 227 127 134
0.062139902263879776 0.006128651089966297 0.1509999930858612 214 114 121
0.0632590502500534 0.005966302938759327 0.1469999998807907 236 166 166
0.06360470503568649 0.005966302938759327 0.1469999998807907 255 247 237
0.0635153204202652 0.005925715435296297 0.1459999978542328 255 249 239
0.06385862827301025 0.005925715435296297 0.1459999978542328 254 255 245
0.06420192867517471 0.005925715435296297 0.1459999978542328 254 255 245
0.06454523652791977 0.005925715435296297 0.1459999978542328 254 255 249
0.06488853693008423 0.005925715435296297 0.1459999978542328 254 255 249
0.06523183733224869 0.005925715435296297 0.1459999978542328 254 255 249
0.06557514518499374 0.005925715435296297 0.1459999978542328 254 255 249
0.0659184455871582 0.005925715435296297 0.1459999978542328 254 255 247
0.06626175343990326 0.005925715435296297 0.1459999978542328 253 255 246
0.06660505384206772 0.005925715435296297 0.1459999978542328 255 255 247
0.06694836169481277 0.005925715435296297 0.1459999978542328 255 255 247
0.06683076173067093 0.0058851283974945545 0.14499999582767487 255 252 247
0.06717171519994736 0.0058851283974945545 0.14499999582767487 255 244 239
0.06704705953598022 0.005844541359692812 0.14399999380111694 255 227 228
0.06738565862178802 0.005844541359692812 0.14399999380111694 255 219 220
0.0672539547085762 0.005803954321891069 0.14300000667572021 247 189 185
0.06759020686149597 0.005803954321891069 0.14300000667572021 201 143 139
0.06826270371675491 0.005803954321891069 0.14300000667572021 255 239 232
0.06811923533678055 0.005763367284089327 0.1420000046491623 255 254 249
0.06845313310623169 0.005763367284089327 0.1420000046491623 255 254 249
0.06878703087568283 0.005763367284089327 0.1420000046491623 254 255 249
0.06912093609571457 0.005763367284089327 0.1420000046491623 254 255 249
0.06945483386516571 0.005763367284089327 0.1420000046491623 254 255 249
0.06978873163461685 0.005763367284089327 0.1420000046491623 254 255 249
0.070122629404068 0.005763367284089327 0.1420000046491623 254 255 251
0.07045652717351913 0.005763367284089327 0.1420000046491623 254 255 251
0.0702918991446495 0.005722780246287584 0.14100000262260437 254 255 251
0.07062344253063202 0.005722780246287584 0.14100000262260437 254 255 251
0.0704517662525177 0.005682193208485842 0.14000000059604645 254 255 251
0.07078096270561218 0.005682193208485842 0.14000000059604645 254 255 251
0.07060222327709198 0.005641606170684099 0.13899999856948853 255 250 250
0.07092906534671783 0.005641606170684099 0.13899999856948853 255 249 249
0.07074327766895294 0.005601019132882357 0.1379999965429306 222 187 201
0.07106777280569077 0.005601019132882357 0.1379999965429306 226 191 205
0.07171675562858582 0.005601019132882357 0.1379999965429306 214 176 180
0.07204125076532364 0.005601019132882357 0.1379999965429306 255 251 235
0.07236573845148087 0.005601019132882357 0.1379999965429306 255 253 237
0.07269023358821869 0.005601019132882357 0.1379999965429306 255 252 239
0.07301472872495651 0.005601019132882357 0.1379999965429306 255 252 239
0.07333921641111374 0.005601019132882357 0.1379999965429306 255 226 225
0.07366371154785156 0.005601019132882357 0.1379999965429306 244 211 210
0.07398820668458939 0.005601019132882357 0.1379999965429306 255 212 212
0.07431269437074661 0.005601019132882357 0.1379999965429306 255 211 211
0.07463718950748444 0.005601019132882357 0.1379999965429306 255 202 203
0.07496168464422226 0.005601019132882357 0.1379999965429306 251 197 198
0.07474061846733093 0.005560431629419327 0.13699999451637268 249 193 197
0.07506275922060013 0.005560431629419327 0.13699999451637268 249 193 197
0.07570704072713852 0.005560431629419327 0.13699999451637268 245 191 194
0.07547422498464584 0.005519844591617584 0.13600000739097595 231 181 178
0.07579401880502701 0.005519844591617584 0.13600000739097595 218 168 165
0.07611380517482758 0.005519844591617584 0.13600000739097595 204 151 147
0.07707317918539047 0.005519844591617584 0.13600000739097595 252 192 190
0.07739296555519104 0.005519844591617584 0.13600000739097595 255 204 202
0.07771275192499161 0.005519844591617584 0.13600000739097595 255 204 202
0.07803254574537277 0.005519844591617584 0.13600000739097595 255 206 208
0.07835233211517334 0.005519844591617584 0.13600000739097595 255 206 208
0.0786721259355545 0.005519844591617584 0.13600000739097595 255 207 208
0.07899191230535507 0.005519844591617584 0.13600000739097595 249 200 201
0.07931170612573624 0.005519844591617584 0.13600000739097595 252 197 203
0.0796314924955368 0.005519844591617584 0.13600000739097595 234 179 185
0.07995127886533737 0.005519844591617584 0.13600000739097595 220 164 168
0.0805908590555191 0.005519844591617584 0.13600000739097595 204 153 153
0.08091065287590027 0.005519844591617584 0.13600000739097595 204 153 153
0.0825095996260643 0.005519844591617584 0.13600000739097595 221 182 180
0.08282938599586487 0.005519844591617584 0.13600000739097595 207 168 166
0.08827054500579834 0.005560431629419327 0.13699999451637268 201 164 150
0.08859268575906754 0.005560431629419327 0.13699999451637268 211 174 160
0.08891482651233673 0.005560431629419327 0.13699999451637268 207 173 161
0.057942748069763184 0.006612527184188366 0.15399999916553497 255 87 95
0.05754765495657921 0.006526649929583073 0.15199999511241913 255 91 99
0.05790506675839424 0.006526649929583073 0.15199999511241913 255 95 107
0.058262478560209274 0.006526649929583073 0.15199999511241913 255 102 114
0.05861989036202431 0.006526649929583073 0.15199999511241913 255 102 116
0.05897730588912964 0.006526649929583073 0.15199999511241913 247 93 107
0.05933471769094467 0.006526649929583073 0.15199999511241913 248 101 108
0.059692129492759705 0.006526649929583073 0.15199999511241913 255 115 122
0.06004954129457474 0.006526649929583073 0.15199999511241913 252 114 118
0.06040695309638977 0.006526649929583073 0.15199999511241913 251 113 117
0.0607643648982048 0.006526649929583073 0.15199999511241913 248 131 128
0.061121776700019836 0.006526649929583073 0.15199999511241913 255 139 136
0.06147918850183487 0.006526649929583073 0.15199999511241913 255 149 145
0.0618366003036499 0.006526649929583073 0.15199999511241913 255 150 146
0.06178484112024307 0.006483711767941713 0.1509999930858612 252 152 159
0.062139902263879776 0.006483711767941713 0.1509999930858612 243 143 150
0.06249495968222618 0.006483711767941713 0.1509999930858612 218 122 126
0.06243379786610603 0.006440773140639067 0.15000000596046448 203 107 111
0.06278650462627411 0.006440773140639067 0.15000000596046448 207 120 116
0.06271828711032867 0.00639783451333642 0.14900000393390656 211 124 120
0.06306864321231842 0.00639783451333642 0.14900000393390656 212 127 127
0.0629933699965477 0.006354896351695061 0.14800000190734863 207 122 122
0.0632590502500534 0.006311957724392414 0.1469999998807907 255 218 221
0.06360470503568649 0.006311957724392414 0.1469999998807907 255 252 245
0.0635153204202652 0.0062690190970897675 0.1459999978542328 255 252 245
0.06385862827301025 0.0062690190970897675 0.1459999978542328 254 255 247
0.06420192867517471 0.0062690190970897675 0.1459999978542328 254 255 247
0.06454523652791977 0.0062690190970897675 0.1459999978542328 254 255 249
0.06488853693008423 0.0062690190970897675 0.1459999978542328 254 255 249
0.06523183733224869 0.0062690190970897675 0.1459999978542328 254 255 249
0.06557514518499374 0.0062690190970897675 0.1459999978542328 254 255 249
0.0659184455871582 0.0062690190970897675 0.1459999978542328 254 255 249
0.06626175343990326 0.0062690190970897675 0.1459999978542328 249 250 244
0.06660505384206772 0.0062690190970897675 0.1459999978542328 253 254 248
0.0664898082613945 0.006226080935448408 0.14499999582767487 254 255 249
0.06683076173067093 0.006226080935448408 0.14499999582767487 255 254 249
0.06717171519994736 0.006226080935448408 0.14499999582767487 255 254 249
0.06704705953598022 0.0061831423081457615 0.14399999380111694 255 233 234
0.06738565862178802 0.0061831423081457615 0.14399999380111694 254 221 222
0.0672539547085762 0.006140203680843115 0.14300000667572021 244 191 187
0.06759020686149597 0.006140203680843115 0.14300000667572021 242 189 185
0.06745143979787827 0.006097265053540468 0.1420000046491623 255 221 213
0.0677853375673294 0.006097265053540468 0.1420000046491623 255 245 237
0.06811923533678055 0.006097265053540468 0.1420000046491623 255 255 247
0.06845313310623169 0.006097265053540468 0.1420000046491623 255 255 247
0.06878703087568283 0.006097265053540468 0.1420000046491623 254 255 249
0.06912093609571457 0.006097265053540468 0.1420000046491623 254 255 249
0.06945483386516571 0.006097265053540468 0.1420000046491623 254 255 249
0.06978873163461685 0.006097265053540468 0.1420000046491623 254 255 249
0.070122629404068 0.006097265053540468 0.1420000046491623 254 255 249
0.07045652717351913 0.006097265053540468 0.1420000046491623 254 255 249
0.0702918991446495 0.006054326891899109 0.14100000262260437 254 255 249
0.07062344253063202 0.006054326891899109 0.14100000262260437 254 255 249
0.0704517662525177 0.006011388264596462 0.14000000059604645 254 255 249
0.07078096270561218 0.006011388264596462 0.14000000059604645 254 255 249
0.07060222327709198 0.005968449637293816 0.13899999856948853 255 253 251
0.07092906534671783 0.005968449637293816 0.13899999856948853 253 248 246
0.07074327766895294 0.005925511475652456 0.1379999965429306 229 200 206
0.07106777280569077 0.005925511475652456 0.1379999965429306 221 192 198
0.07171675562858582 0.005925511475652456 0.1379999965429306 230 197 198
0.07204125076532364 0.005925511475652456 0.1379999965429306 255 252 236
0.07236573845148087 0.005925511475652456 0.1379999965429306 255 252 236
0.07269023358821869 0.005925511475652456 0.1379999965429306 255 243 232
0.07301472872495651 0.005925511475652456 0.1379999965429306 251 238 227
0.07333921641111374 0.005925511475652456 0.1379999965429306 253 215 215
0.07366371154785156 0.005925511475652456 0.1379999965429306 247 209 209
0.07398820668458939 0.005925511475652456 0.1379999965429306 249 201 197
0.07431269437074661 0.005925511475652456 0.1379999965429306 251 203 199
0.07463718950748444 0.005925511475652456 0.1379999965429306 255 209 206
0.07441847771406174 0.00588257284834981 0.13699999451637268 240 185 182
0.07474061846733093 0.00588257284834981 0.13699999451637268 242 188 189
0.07506275922060013 0.00588257284834981 0.13699999451637268 252 198 199
0.07538489997386932 0.00588257284834981 0.13699999451637268 240 189 189
0.07570704072713852 0.00588257284834981 0.13699999451637268 238 187 187
0.07547422498464584 0.005839634221047163 0.13600000739097595 233 187 183
0.07579401880502701 0.005839634221047163 0.13600000739097595 212 166 162
0.07675338536500931 0.005839634221047163 0.13600000739097595 221 166 163
0.07707317918539047 0.005839634221047163 0.13600000739097595 255 210 207
0.07739296555519104 0.005839634221047163 0.13600000739097595 255 206 204
0.07771275192499161 0.005839634221047163 0.13600000739097595 255 198 196
0.07803254574537277 0.005839634221047163 0.13600000739097595 241 187 190
0.07835233211517334 0.005839634221047163 0.13600000739097595 235 181 184
0.0786721259355545 0.005839634221047163 0.13600000739097595 231 180 182
0.07899191230535507 0.005839634221047163 0.13600000739097595 229 178 180
0.07931170612573624 0.005839634221047163 0.13600000739097595 228 173 179
0.0796314924955368 0.005839634221047163 0.13600000739097595 207 152 158
0.07995127886533737 0.005839634221047163 0.13600000739097595 208 152 154
0.08027107268571854 0.005839634221047163 0.13600000739097595 206 150 152
0.0805908590555191 0.005839634221047163 0.13600000739097595 205 152 148
0.08091065287590027 0.005839634221047163 0.13600000739097595 204 151 147
0.08282938599586487 0.005839634221047163 0.13600000739097595 202 158 156
0.08827054500579834 0.00588257284834981 0.13699999451637268 202 160 148
0.08859268575906754 0.00588257284834981 0.13699999451637268 216 174 162
0.08891482651233673 0.00588257284834981 0.13699999451637268 207 169 162
0.08923696726560593 0.00588257284834981 0.13699999451637268 202 164 157
0.05754765495657921 0.006884062197059393 0.15199999511241913 254 85 93
0.05752411484718323 0.006838771980255842 0.1509999930858612 250 91 100
0.05787917599081993 0.006838771980255842 0.1509999930858612 255 98 107
0.058234233409166336 0.006838771980255842 0.1509999930858612 255 102 119
0.05858929455280304 0.006838771980255842 0.1509999930858612 255 103 120
0.05894435569643974 0.006838771980255842 0.1509999930858612 255 110 120
0.05929941684007645 0.006838771980255842 0.1509999930858612 255 108 118
0.05965447798371315 0.006838771980255842 0.1509999930858612 249 108 113
0.060009539127349854 0.006838771980255842 0.1509999930858612 250 109 114
0.06036459654569626 0.006838771980255842 0.1509999930858612 255 140 138
0.06071965768933296 0.006838771980255842 0.1509999930858612 255 144 142
0.061074718832969666 0.006838771980255842 0.1509999930858612 255 157 153
0.06142977997660637 0.006838771980255842 0.1509999930858612 255 157 153
0.06178484112024307 0.006838771980255842 0.1509999930858612 255 161 165
0.062139902263879776 0.006838771980255842 0.1509999930858612 255 164 168
0.06249495968222618 0.006838771980255842 0.1509999930858612 254 158 164
0.06243379786610603 0.006793482229113579 0.15000000596046448 243 147 153
0.06278650462627411 0.006793482229113579 0.15000000596046448 223 131 129
0.06271828711032867 0.006748192477971315 0.14900000393390656 210 118 116
0.06306864321231842 0.006748192477971315 0.14900000393390656 206 116 118
0.0629933699965477 0.006702902726829052 0.14800000190734863 208 118 120
0.06291339546442032 0.006657612510025501 0.1469999998807907 206 152 155
0.0632590502500534 0.006657612510025501 0.1469999998807907 255 237 240
0.06360470503568649 0.006657612510025501 0.1469999998807907 255 255 247
0.0635153204202652 0.006612322758883238 0.1459999978542328 255 255 247
0.06385862827301025 0.006612322758883238 0.1459999978542328 254 255 249
0.06420192867517471 0.006612322758883238 0.1459999978542328 254 255 249
0.06454523652791977 0.006612322758883238 0.1459999978542328 254 255 249
0.06488853693008423 0.006612322758883238 0.1459999978542328 254 255 249
0.06523183733224869 0.006612322758883238 0.1459999978542328 254 255 249
0.06557514518499374 0.006612322758883238 0.1459999978542328 254 255 249
0.0659184455871582 0.006612322758883238 0.1459999978542328 254 255 249
0.06626175343990326 0.006612322758883238 0.1459999978542328 246 247 241
0.06660505384206772 0.006612322758883238 0.1459999978542328 252 253 247
0.0664898082613945 0.006567033007740974 0.14499999582767487 254 255 249
0.06683076173067093 0.006567033007740974 0.14499999582767487 255 255 249
0.06670846045017242 0.006521742790937424 0.14399999380111694 255 255 249
0.06704705953598022 0.006521742790937424 0.14399999380111694 255 243 241
0.06691770255565643 0.00647645303979516 0.14300000667572021 245 214 212
0.0672539547085762 0.00647645303979516 0.14300000667572021 246 198 190
0.06759020686149597 0.00647645303979516 0.14300000667572021 243 195 187
0.06745143979787827 0.006431163288652897 0.1420000046491623 255 244 232
0.0677853375673294 0.006431163288652897 0.1420000046491623 255 247 235
0.06811923533678055 0.006431163288652897 0.1420000046491623 255 255 245
0.06845313310623169 0.006431163288652897 0.1420000046491623 255 255 245
0.06878703087568283 0.006431163288652897 0.1420000046491623 254 255 249
0.06912093609571457 0.006431163288652897 0.1420000046491623 254 255 249
0.06945483386516571 0.006431163288652897 0.1420000046491623 254 255 249
0.06978873163461685 0.006431163288652897 0.1420000046491623 254 255 249
0.070122629404068 0.006431163288652897 0.1420000046491623 254 255 249
0.07045652717351913 0.006431163288652897 0.1420000046491623 254 255 249
0.0702918991446495 0.0063858735375106335 0.14100000262260437 254 255 249
0.07062344253063202 0.0063858735375106335 0.14100000262260437 254 255 249
0.0704517662525177 0.006340583320707083 0.14000000059604645 254 255 249
0.07078096270561218 0.006340583320707083 0.14000000059604645 254 255 249
0.07060222327709198 0.006295293569564819 0.13899999856948853 255 251 249
0.07092906534671783 0.006295293569564819 0.13899999856948853 255 247 245
0.07074327766895294 0.006250003818422556 0.1379999965429306 237 206 208
0.07106777280569077 0.006250003818422556 0.1379999965429306 205 174 176
0.07171675562858582 0.006250003818422556 0.1379999965429306 237 205 199
0.07204125076532364 0.006250003818422556 0.1379999965429306 255 251 239
0.07236573845148087 0.006250003818422556 0.1379999965429306 255 251 239
0.07269023358821869 0.006250003818422556 0.1379999965429306 255 250 242
0.07301472872495651 0.006250003818422556 0.1379999965429306 254 240 232
0.07333921641111374 0.006250003818422556 0.1379999965429306 254 211 213
0.07366371154785156 0.006250003818422556 0.1379999965429306 240 197 199
0.07398820668458939 0.006250003818422556 0.1379999965429306 247 188 191
0.07431269437074661 0.006250003818422556 0.1379999965429306 249 190 193
0.07409633696079254 0.006204713601619005 0.13699999451637268 250 192 190
0.07441847771406174 0.006204713601619005 0.13699999451637268 237 179 177
0.07474061846733093 0.006204713601619005 0.13699999451637268 226 176 173
0.07451485842466354 0.006159423850476742 0.13600000739097595 229 179 176
0.07483465224504471 0.006159423850476742 0.13600000739097595 213 166 167
0.07515443861484528 0.006159423850476742 0.13600000739097595 221 174 175
0.07547422498464584 0.006159423850476742 0.13600000739097595 218 171 170
0.07579401880502701 0.006159423850476742 0.13600000739097595 206 159 158
0.07675338536500931 0.006159423850476742 0.13600000739097595 229 174 169
0.07739296555519104 0.006159423850476742 0.13600000739097595 255 205 204
0.07771275192499161 0.006159423850476742 0.13600000739097595 255 205 204
0.07803254574537277 0.006159423850476742 0.13600000739097595 224 173 173
0.07835233211517334 0.006159423850476742 0.13600000739097595 215 164 164
0.0786721259355545 0.006159423850476742 0.13600000739097595 209 160 161
0.07899191230535507 0.006159423850476742 0.13600000739097595 213 164 165
0.07931170612573624 0.006159423850476742 0.13600000739097595 217 163 166
0.0796314924955368 0.006159423850476742 0.13600000739097595 209 155 158
0.08794840425252914 0.006204713601619005 0.13699999451637268 204 157 144
0.08859268575906754 0.006204713601619005 0.13699999451637268 206 163 154
0.05720673128962517 0.007289115339517593 0.15299999713897705 251 75 83
0.057190243154764175 0.007241473998874426 0.15199999511241913 248 82 87
0.05754765495657921 0.007241473998874426 0.15199999511241913 255 89 94
0.05752411484718323 0.007193832658231258 0.1509999930858612 255 98 105
0.05787917599081993 0.007193832658231258 0.1509999930858612 255 99 106
0.058234233409166336 0.007193832658231258 0.1509999930858612 254 102 118
0.05858929455280304 0.007193832658231258 0.1509999930858612 255 104 120
0.05894435569643974 0.007193832658231258 0.1509999930858612 255 107 119
0.05929941684007645 0.007193832658231258 0.1509999930858612 255 108 120
0.05965447798371315 0.007193832658231258 0.1509999930858612 252 105 115
0.060009539127349854 0.007193832658231258 0.1509999930858612 255 113 123
0.06036459654569626 0.007193832658231258 0.1509999930858612 255 139 139
0.06071965768933296 0.007193832658231258 0.1509999930858612 255 141 141
0.061074718832969666 0.007193832658231258 0.1509999930858612 255 156 155
0.06142977997660637 0.007193832658231258 0.1509999930858612 255 155 154
0.06178484112024307 0.007193832658231258 0.1509999930858612 255 161 162
0.062139902263879776 0.007193832658231258 0.1509999930858612 255 160 161
0.06208108738064766 0.007146191317588091 0.15000000596046448 252 156 160
0.06243379786610603 0.007146191317588091 0.15000000596046448 252 156 160
0.06278650462627411 0.007146191317588091 0.15000000596046448 251 159 157
0.06271828711032867 0.007098549976944923 0.14900000393390656 246 154 152
0.06264536082744598 0.007050908636301756 0.14800000190734863 223 134 133
0.0629933699965477 0.007050908636301756 0.14800000190734863 217 128 127
0.06291339546442032 0.007003267761319876 0.1469999998807907 237 188 189
0.0632590502500534 0.007003267761319876 0.1469999998807907 255 240 241
0.06360470503568649 0.007003267761319876 0.1469999998807907 255 255 247
0.0635153204202652 0.006955626420676708 0.1459999978542328 255 255 247
0.06385862827301025 0.006955626420676708 0.1459999978542328 254 255 249
0.06420192867517471 0.006955626420676708 0.1459999978542328 254 255 249
0.06454523652791977 0.006955626420676708 0.1459999978542328 254 255 249
0.06488853693008423 0.006955626420676708 0.1459999978542328 254 255 249
0.06523183733224869 0.006955626420676708 0.1459999978542328 254 255 249
0.06557514518499374 0.006955626420676708 0.1459999978542328 254 255 249
0.0659184455871582 0.006955626420676708 0.1459999978542328 254 255 249
0.06626175343990326 0.006955626420676708 0.1459999978542328 249 250 244
0.06660505384206772 0.006955626420676708 0.1459999978542328 252 253 247
0.0664898082613945 0.006907985080033541 0.14499999582767487 254 255 249
0.06683076173067093 0.006907985080033541 0.14499999582767487 255 255 249
0.06670846045017242 0.006860343739390373 0.14399999380111694 253 253 247
0.06704705953598022 0.006860343739390373 0.14399999380111694 255 241 238
0.06691770255565643 0.006812702398747206 0.14300000667572021 240 212 209
0.0672539547085762 0.006812702398747206 0.14300000667572021 249 204 193
0.06711754202842712 0.006765061058104038 0.1420000046491623 234 189 178
0.06745143979787827 0.006765061058104038 0.1420000046491623 255 246 228
0.0677853375673294 0.006765061058104038 0.1420000046491623 255 249 231
0.06811923533678055 0.006765061058104038 0.1420000046491623 255 255 243
0.06845313310623169 0.006765061058104038 0.1420000046491623 255 255 243
0.06878703087568283 0.006765061058104038 0.1420000046491623 254 255 249
0.06912093609571457 0.006765061058104038 0.1420000046491623 254 255 249
0.06945483386516571 0.006765061058104038 0.1420000046491623 254 255 249
0.06978873163461685 0.006765061058104038 0.1420000046491623 254 255 249
0.070122629404068 0.006765061058104038 0.1420000046491623 254 255 249
0.07045652717351913 0.006765061058104038 0.1420000046491623 254 255 249
0.0702918991446495 0.006717419717460871 0.14100000262260437 254 255 249
0.07062344253063202 0.006717419717460871 0.14100000262260437 254 255 249
0.0704517662525177 0.006669778376817703 0.14000000059604645 254 255 249
0.07078096270561218 0.006669778376817703 0.14000000059604645 254 255 249
0.07060222327709198 0.006622137501835823 0.13899999856948853 255 250 249
0.07092906534671783 0.006622137501835823 0.13899999856948853 249 234 233
0.07074327766895294 0.0065744961611926556 0.1379999965429306 224 185 183
0.07106777280569077 0.0065744961611926556 0.1379999965429306 208 169 167
0.07139226794242859 0.0065744961611926556 0.1379999965429306 201 163 154
0.07171675562858582 0.0065744961611926556 0.1379999965429306 236 198 189
0.07204125076532364 0.0065744961611926556 0.1379999965429306 255 248 238
0.07236573845148087 0.0065744961611926556 0.1379999965429306 255 248 238
0.07269023358821869 0.0065744961611926556 0.1379999965429306 255 246 236
0.07301472872495651 0.0065744961611926556 0.1379999965429306 237 222 212
0.07333921641111374 0.0065744961611926556 0.1379999965429306 239 191 195
0.07366371154785156 0.0065744961611926556 0.1379999965429306 240 192 196
0.07398820668458939 0.0065744961611926556 0.1379999965429306 244 183 186
0.07431269437074661 0.0065744961611926556 0.1379999965429306 251 190 193
0.07409633696079254 0.006526854820549488 0.13699999451637268 243 183 181
0.07441847771406174 0.006526854820549488 0.13699999451637268 232 172 170
0.07474061846733093 0.006526854820549488 0.13699999451637268 235 176 179
0.07451485842466354 0.006479213479906321 0.13600000739097595 236 177 180
0.07483465224504471 0.006479213479906321 0.13600000739097595 213 165 169
0.07515443861484528 0.006479213479906321 0.13600000739097595 208 160 164
0.07547422498464584 0.006479213479906321 0.13600000739097595 209 162 163
0.07579401880502701 0.006479213479906321 0.13600000739097595 206 159 160
0.07739296555519104 0.006479213479906321 0.13600000739097595 255 197 197
0.07771275192499161 0.006479213479906321 0.13600000739097595 240 182 182
0.07803254574537277 0.006479213479906321 0.13600000739097595 214 158 160
0.07835233211517334 0.006479213479906321 0.13600000739097595 217 161 163
0.0786721259355545 0.006479213479906321 0.13600000739097595 206 157 156
0.07899191230535507 0.006479213479906321 0.13600000739097595 209 160 159
0.07931170612573624 0.006479213479906321 0.13600000739097595 215 165 162
0.08859268575906754 0.006526854820549488 0.13699999451637268 204 159 148
0.08891482651233673 0.006526854820549488 0.13699999451637268 204 165 161
0.05720673128962517 0.007648878265172243 0.15299999713897705 255 85 90
0.05681399255990982 0.007548893336206675 0.1509999930858612 253 95 97
0.057169053703546524 0.007548893336206675 0.1509999930858612 255 102 104
0.05752411484718323 0.007548893336206675 0.1509999930858612 255 112 119
0.05787917599081993 0.007548893336206675 0.1509999930858612 255 109 116
0.058234233409166336 0.007548893336206675 0.1509999930858612 255 105 118
0.05858929455280304 0.007548893336206675 0.1509999930858612 255 104 117
0.05894435569643974 0.007548893336206675 0.1509999930858612 252 104 114
0.05929941684007645 0.007548893336206675 0.1509999930858612 255 112 122
0.05965447798371315 0.007548893336206675 0.1509999930858612 255 109 116
0.060009539127349854 0.007548893336206675 0.1509999930858612 255 109 116
0.06036459654569626 0.007548893336206675 0.1509999930858612 250 121 122
0.06071965768933296 0.007548893336206675 0.1509999930858612 255 127 128
0.061074718832969666 0.007548893336206675 0.1509999930858612 250 142 141
0.06142977997660637 0.007548893336206675 0.1509999930858612 255 148 147
0.06178484112024307 0.007548893336206675 0.1509999930858612 255 162 159
0.062139902263879776 0.007548893336206675 0.1509999930858612 255 159 156
0.06208108738064766 0.007498900406062603 0.15000000596046448 252 160 156
0.06243379786610603 0.007498900406062603 0.15000000596046448 251 159 155
0.06278650462627411 0.007498900406062603 0.15000000596046448 247 155 151
0.06271828711032867 0.007448907941579819 0.14900000393390656 255 163 159
0.06264536082744598 0.007398915011435747 0.14800000190734863 250 161 158
0.0629933699965477 0.007398915011435747 0.14800000190734863 225 136 133
0.06291339546442032 0.007348922546952963 0.1469999998807907 255 218 214
0.0632590502500534 0.007348922546952963 0.1469999998807907 255 241 237
0.06360470503568649 0.007348922546952963 0.1469999998807907 255 255 247
0.0635153204202652 0.007298929616808891 0.1459999978542328 255 255 247
0.06385862827301025 0.007298929616808891 0.1459999978542328 254 255 249
0.06420192867517471 0.007298929616808891 0.1459999978542328 254 255 249
0.06454523652791977 0.007298929616808891 0.1459999978542328 254 255 249
0.06488853693008423 0.007298929616808891 0.1459999978542328 254 255 249
0.06523183733224869 0.007298929616808891 0.1459999978542328 254 255 249
0.06557514518499374 0.007298929616808891 0.1459999978542328 254 255 249
0.0659184455871582 0.007298929616808891 0.1459999978542328 254 255 249
0.06626175343990326 0.007298929616808891 0.1459999978542328 254 255 249
0.06614885479211807 0.007248937152326107 0.14499999582767487 254 255 249
0.0664898082613945 0.007248937152326107 0.14499999582767487 254 255 249
0.06683076173067093 0.007248937152326107 0.14499999582767487 255 253 249
0.06670846045017242 0.007198944687843323 0.14399999380111694 254 249 245
0.06704705953598022 0.007198944687843323 0.14399999380111694 254 219 216
0.06691770255565643 0.007148951757699251 0.14300000667572021 241 206 203
0.0672539547085762 0.007148951757699251 0.14300000667572021 244 198 182
0.06711754202842712 0.007098959293216467 0.1420000046491623 232 186 170
0.06745143979787827 0.007098959293216467 0.1420000046491623 255 247 228
0.0677853375673294 0.007098959293216467 0.1420000046491623 255 250 231
0.06811923533678055 0.007098959293216467 0.1420000046491623 254 255 243
0.06845313310623169 0.007098959293216467 0.1420000046491623 254 255 243
0.06878703087568283 0.007098959293216467 0.1420000046491623 254 255 249
0.06912093609571457 0.007098959293216467 0.1420000046491623 254 255 249
0.06945483386516571 0.007098959293216467 0.1420000046491623 254 255 249
0.06978873163461685 0.007098959293216467 0.1420000046491623 254 255 249
0.070122629404068 0.007098959293216467 0.1420000046491623 254 255 249
0.07045652717351913 0.007098959293216467 0.1420000046491623 254 255 249
0.0702918991446495 0.007048966363072395 0.14100000262260437 254 255 249
0.07062344253063202 0.007048966363072395 0.14100000262260437 254 255 249
0.0704517662525177 0.006998973898589611 0.14000000059604645 254 254 248
0.07078096270561218 0.006998973898589611 0.14000000059604645 253 253 247
0.07060222327709198 0.0069489809684455395 0.13899999856948853 255 243 242
0.07092906534671783 0.0069489809684455395 0.13899999856948853 247 226 225
0.07074327766895294 0.006898988503962755 0.1379999965429306 242 193 194
0.07106777280569077 0.006898988503962755 0.1379999965429306 222 173 174
0.07139226794242859 0.006898988503962755 0.1379999965429306 210 162 156
0.07171675562858582 0.006898988503962755 0.1379999965429306 237 189 183
0.07204125076532364 0.006898988503962755 0.1379999965429306 255 245 236
0.07236573845148087 0.006898988503962755 0.1379999965429306 255 243 234
0.07269023358821869 0.006898988503962755 0.1379999965429306 255 245 240
0.07301472872495651 0.006898988503962755 0.1379999965429306 238 217 212
0.07333921641111374 0.006898988503962755 0.1379999965429306 237 187 191
0.07366371154785156 0.006898988503962755 0.1379999965429306 238 188 192
0.07398820668458939 0.006898988503962755 0.1379999965429306 245 184 187
0.07377419620752335 0.006848995573818684 0.13699999451637268 240 179 182
0.07409633696079254 0.006848995573818684 0.13699999451637268 231 171 171
0.07441847771406174 0.006848995573818684 0.13699999451637268 231 171 171
0.07474061846733093 0.006848995573818684 0.13699999451637268 233 172 177
0.07506275922060013 0.006848995573818684 0.13699999451637268 236 175 180
0.07515443861484528 0.006799003109335899 0.13600000739097595 214 162 169
0.07547422498464584 0.006799003109335899 0.13600000739097595 203 152 152
0.07707317918539047 0.006799003109335899 0.13600000739097595 224 170 160
0.07739296555519104 0.006799003109335899 0.13600000739097595 244 182 181
0.07771275192499161 0.006799003109335899 0.13600000739097595 223 161 160
0.07803254574537277 0.006799003109335899 0.13600000739097595 210 150 150
0.07835233211517334 0.006799003109335899 0.13600000739097595 217 157 157
0.0786721259355545 0.006799003109335899 0.13600000739097595 207 157 154
0.07899191230535507 0.006799003109335899 0.13600000739097595 207 157 154
0.07931170612573624 0.006799003109335899 0.13600000739097595 210 160 153
0.05608503147959709 0.007851609960198402 0.15000000596046448 253 87 92
0.056437741965055466 0.007851609960198402 0.15000000596046448 252 98 101
0.05679044872522354 0.007851609960198402 0.15000000596046448 255 103 106
0.057143159210681915 0.007851609960198402 0.15000000596046448 255 109 116
0.05749586969614029 0.007851609960198402 0.15000000596046448 255 104 111
0.057848576456308365 0.007851609960198402 0.15000000596046448 249 96 105
0.05820128694176674 0.007851609960198402 0.15000000596046448 250 97 106
0.05894435569643974 0.00790395401418209 0.1509999930858612 255 107 113
0.05929941684007645 0.00790395401418209 0.1509999930858612 255 108 114
0.05965447798371315 0.00790395401418209 0.1509999930858612 253 107 112
0.060009539127349854 0.00790395401418209 0.1509999930858612 255 109 114
0.06036459654569626 0.00790395401418209 0.1509999930858612 245 116 117
0.06071965768933296 0.00790395401418209 0.1509999930858612 255 127 128
0.061074718832969666 0.00790395401418209 0.1509999930858612 255 146 146
0.06142977997660637 0.00790395401418209 0.1509999930858612 255 147 147
0.06178484112024307 0.00790395401418209 0.1509999930858612 255 160 155
0.061728376895189285 0.007851609960198402 0.15000000596046448 255 158 153
0.06208108738064766 0.007851609960198402 0.15000000596046448 255 166 159
0.06243379786610603 0.007851609960198402 0.15000000596046448 255 167 160
0.06236792728304863 0.007799265440553427 0.14900000393390656 255 167 160
0.06271828711032867 0.007799265440553427 0.14900000393390656 255 167 160
0.06264536082744598 0.007746921386569738 0.14800000190734863 244 156 148
0.0629933699965477 0.007746921386569738 0.14800000190734863 231 143 135
0.06291339546442032 0.00769457733258605 0.1469999998807907 255 228 221
0.0632590502500534 0.00769457733258605 0.1469999998807907 255 242 235
0.06360470503568649 0.00769457733258605 0.1469999998807907 255 255 245
0.0635153204202652 0.007642233278602362 0.1459999978542328 255 255 245
0.06385862827301025 0.007642233278602362 0.1459999978542328 254 255 249
0.06420192867517471 0.007642233278602362 0.1459999978542328 254 255 249
0.06454523652791977 0.007642233278602362 0.1459999978542328 254 255 249
0.06488853693008423 0.007642233278602362 0.1459999978542328 254 255 249
0.06523183733224869 0.007642233278602362 0.1459999978542328 254 255 249
0.06557514518499374 0.007642233278602362 0.1459999978542328 254 255 249
0.0659184455871582 0.007642233278602362 0.1459999978542328 254 255 249
0.06626175343990326 0.007642233278602362 0.1459999978542328 254 255 249
0.06614885479211807 0.007589889224618673 0.14499999582767487 253 254 248
0.0664898082613945 0.007589889224618673 0.14499999582767487 254 255 249
0.06636986136436462 0.007537545170634985 0.14399999380111694 255 247 247
0.06670846045017242 0.007537545170634985 0.14399999380111694 255 239 239
0.06658145785331726 0.007485201116651297 0.14300000667572021 242 196 192
0.06691770255565643 0.007485201116651297 0.14300000667572021 251 205 201
0.0672539547085762 0.007485201116651297 0.14300000667572021 246 198 181
0.06711754202842712 0.007432857062667608 0.1420000046491623 231 183 166
0.06745143979787827 0.007432857062667608 0.1420000046491623 255 248 228
0.0677853375673294 0.007432857062667608 0.1420000046491623 255 251 231
0.06811923533678055 0.007432857062667608 0.1420000046491623 254 255 243
0.06845313310623169 0.007432857062667608 0.1420000046491623 254 255 243
0.06878703087568283 0.007432857062667608 0.1420000046491623 254 255 249
0.06912093609571457 0.007432857062667608 0.1420000046491623 254 255 249
0.06945483386516571 0.007432857062667608 0.1420000046491623 254 255 249
0.06978873163461685 0.007432857062667608 0.1420000046491623 254 255 249
0.070122629404068 0.007432857062667608 0.1420000046491623 254 255 249
0.07045652717351913 0.007432857062667608 0.1420000046491623 254 255 249
0.0702918991446495 0.00738051300868392 0.14100000262260437 254 255 249
0.07062344253063202 0.00738051300868392 0.14100000262260437 254 255 249
0.0704517662525177 0.0073281689547002316 0.14000000059604645 255 252 249
0.07078096270561218 0.0073281689547002316 0.14000000059604645 250 247 244
0.07060222327709198 0.007275824900716543 0.13899999856948853 255 239 242
0.07092906534671783 0.007275824900716543 0.13899999856948853 243 210 213
0.07074327766895294 0.007223480846732855 0.1379999965429306 220 157 161
0.07106777280569077 0.007223480846732855 0.1379999965429306 212 149 153
0.07139226794242859 0.007223480846732855 0.1379999965429306 207 154 150
0.07171675562858582 0.007223480846732855 0.1379999965429306 231 178 174
0.07204125076532364 0.007223480846732855 0.1379999965429306 255 245 234
0.07236573845148087 0.007223480846732855 0.1379999965429306 255 245 234
0.07269023358821869 0.007223480846732855 0.1379999965429306 255 237 233
0.07301472872495651 0.007223480846732855 0.1379999965429306 243 217 213
0.07333921641111374 0.007223480846732855 0.1379999965429306 235 188 189
0.07312991470098495 0.0071711367927491665 0.13699999451637268 233 186 187
0.07345205545425415 0.0071711367927491665 0.13699999451637268 245 182 186
0.07377419620752335 0.0071711367927491665 0.13699999451637268 240 177 181
0.07409633696079254 0.0071711367927491665 0.13699999451637268 234 172 173
0.07441847771406174 0.0071711367927491665 0.13699999451637268 223 161 162
0.07474061846733093 0.0071711367927491665 0.13699999451637268 226 160 165
0.07451485842466354 0.007118792738765478 0.13600000739097595 226 160 165
0.07483465224504471 0.007118792738765478 0.13600000739097595 203 146 153
0.07515443861484528 0.007118792738765478 0.13600000739097595 213 156 163
0.07707317918539047 0.007118792738765478 0.13600000739097595 223 167 155
0.07739296555519104 0.007118792738765478 0.13600000739097595 228 164 159
0.07771275192499161 0.007118792738765478 0.13600000739097595 224 160 155
0.07803254574537277 0.007118792738765478 0.13600000739097595 218 156 153
0.07835233211517334 0.007118792738765478 0.13600000739097595 216 154 151
0.0786721259355545 0.007118792738765478 0.13600000739097595 206 151 146
0.07899191230535507 0.007118792738765478 0.13600000739097595 201 146 141
0.08859268575906754 0.0071711367927491665 0.13699999451637268 201 153 134
0.08891482651233673 0.0071711367927491665 0.13699999451637268 201 153 145
0.08923696726560593 0.0071711367927491665 0.13699999451637268 206 158 150
0.08955910801887512 0.0071711367927491665 0.13699999451637268 205 158 157
0.05536077544093132 0.008149622939527035 0.14900000393390656 255 105 109
0.055711131542921066 0.008149622939527035 0.14900000393390656 255 112 116
0.05606149137020111 0.008149622939527035 0.14900000393390656 255 119 124
0.05641184747219086 0.008149622939527035 0.14900000393390656 254 101 106
0.0567622035741806 0.008149622939527035 0.14900000393390656 255 103 110
0.05711256340146065 0.008149622939527035 0.14900000393390656 255 104 111
0.057848576456308365 0.008204318583011627 0.15000000596046448 255 103 110
0.05820128694176674 0.008204318583011627 0.15000000596046448 254 101 108
0.05855399742722511 0.008204318583011627 0.15000000596046448 255 106 110
0.05929941684007645 0.00825901422649622 0.1509999930858612 252 102 106
0.05965447798371315 0.00825901422649622 0.1509999930858612 249 106 108
0.060009539127349854 0.00825901422649622 0.1509999930858612 255 118 120
0.06036459654569626 0.00825901422649622 0.1509999930858612 252 123 124
0.06071965768933296 0.00825901422649622 0.1509999930858612 255 127 128
0.061074718832969666 0.00825901422649622 0.1509999930858612 255 144 145
0.06142977997660637 0.00825901422649622 0.1509999930858612 255 146 147
0.06137567013502121 0.008204318583011627 0.15000000596046448 255 153 150
0.061728376895189285 0.008204318583011627 0.15000000596046448 255 156 153
0.06208108738064766 0.008204318583011627 0.15000000596046448 250 155 147
0.062017571181058884 0.008149622939527035 0.14900000393390656 247 152 144
0.06236792728304863 0.008149622939527035 0.14900000393390656 248 155 144
0.06271828711032867 0.008149622939527035 0.14900000393390656 252 159 148
0.06264536082744598 0.008094928227365017 0.14800000190734863 243 153 141
0.0629933699965477 0.008094928227365017 0.14800000190734863 237 147 135
0.06291339546442032 0.008040232583880424 0.1469999998807907 255 227 215
0.0632590502500534 0.008040232583880424 0.1469999998807907 255 243 231
0.06360470503568649 0.008040232583880424 0.1469999998807907 255 255 243
0.0635153204202652 0.007985536940395832 0.1459999978542328 255 255 243
0.06385862827301025 0.007985536940395832 0.1459999978542328 254 255 249
0.06420192867517471 0.007985536940395832 0.1459999978542328 254 255 249
0.06454523652791977 0.007985536940395832 0.1459999978542328 254 255 249
0.06488853693008423 0.007985536940395832 0.1459999978542328 254 255 249
0.06523183733224869 0.007985536940395832 0.1459999978542328 254 255 249
0.06557514518499374 0.007985536940395832 0.1459999978542328 254 255 249
0.0659184455871582 0.007985536940395832 0.1459999978542328 254 255 249
0.06626175343990326 0.007985536940395832 0.1459999978542328 254 255 249
0.06614885479211807 0.00793084129691124 0.14499999582767487 255 254 249
0.0664898082613945 0.00793084129691124 0.14499999582767487 243 240 235
0.06636986136436462 0.007876145653426647 0.14399999380111694 241 208 209
0.06670846045017242 0.007876145653426647 0.14399999380111694 233 200 201
0.06658145785331726 0.00782145094126463 0.14300000667572021 247 194 188
0.06691770255565643 0.00782145094126463 0.14300000667572021 254 201 195
0.0672539547085762 0.00782145094126463 0.14300000667572021 247 195 175
0.06711754202842712 0.00776675483211875 0.1420000046491623 232 180 160
0.06745143979787827 0.00776675483211875 0.1420000046491623 255 247 227
0.0677853375673294 0.00776675483211875 0.1420000046491623 255 251 231
0.06811923533678055 0.00776675483211875 0.1420000046491623 254 255 245
0.06845313310623169 0.00776675483211875 0.1420000046491623 254 255 245
0.06878703087568283 0.00776675483211875 0.1420000046491623 254 255 249
0.06912093609571457 0.00776675483211875 0.1420000046491623 254 255 249
0.06945483386516571 0.00776675483211875 0.1420000046491623 254 255 249
0.06978873163461685 0.00776675483211875 0.1420000046491623 254 255 249
0.070122629404068 0.00776675483211875 0.1420000046491623 254 255 249
0.07045652717351913 0.00776675483211875 0.1420000046491623 254 255 249
0.0702918991446495 0.0077120596542954445 0.14100000262260437 254 255 249
0.07012256979942322 0.007657364010810852 0.14000000059604645 254 255 249
0.0704517662525177 0.007657364010810852 0.14000000059604645 255 250 249
0.07078096270561218 0.007657364010810852 0.14000000059604645 239 231 230
0.07060222327709198 0.007602668832987547 0.13899999856948853 249 204 209
0.07092906534671783 0.007602668832987547 0.13899999856948853 234 189 194
0.07074327766895294 0.0075479731895029545 0.1379999965429306 235 165 169
0.07106777280569077 0.0075479731895029545 0.1379999965429306 223 153 157
0.07171675562858582 0.0075479731895029545 0.1379999965429306 227 170 163
0.07204125076532364 0.0075479731895029545 0.1379999965429306 255 244 234
0.07236573845148087 0.0075479731895029545 0.1379999965429306 255 245 235
0.07269023358821869 0.0075479731895029545 0.1379999965429306 255 230 223
0.07301472872495651 0.0075479731895029545 0.1379999965429306 245 220 213
0.07333921641111374 0.0075479731895029545 0.1379999965429306 248 201 200
0.07312991470098495 0.007493277546018362 0.13699999451637268 230 183 182
0.07345205545425415 0.007493277546018362 0.13699999451637268 240 180 178
0.07377419620752335 0.007493277546018362 0.13699999451637268 233 173 171
0.07409633696079254 0.007493277546018362 0.13699999451637268 231 166 164
0.07441847771406174 0.007493277546018362 0.13699999451637268 227 162 160
0.07419507205486298 0.007438582368195057 0.13600000739097595 229 164 164
0.07451485842466354 0.007438582368195057 0.13600000739097595 229 164 164
0.07483465224504471 0.007438582368195057 0.13600000739097595 208 152 154
0.07515443861484528 0.007438582368195057 0.13600000739097595 211 155 157
0.07675338536500931 0.007438582368195057 0.13600000739097595 205 147 133
0.07707317918539047 0.007438582368195057 0.13600000739097595 218 160 146
0.07739296555519104 0.007438582368195057 0.13600000739097595 229 166 156
0.07771275192499161 0.007438582368195057 0.13600000739097595 225 162 152
0.07803254574537277 0.007438582368195057 0.13600000739097595 223 162 154
0.07835233211517334 0.007438582368195057 0.13600000739097595 210 149 141
0.0786721259355545 0.007438582368195057 0.13600000739097595 201 143 139
0.05321621894836426 0.008328840136528015 0.1459999978542328 255 79 86
0.05355951935052872 0.008328840136528015 0.1459999978542328 255 86 92
0.054989226162433624 0.008442933671176434 0.14800000190734863 255 105 111
0.05533723160624504 0.008442933671176434 0.14800000190734863 255 108 114
0.05568523705005646 0.008442933671176434 0.14800000190734863 255 112 119
0.05603324621915817 0.008442933671176434 0.14800000190734863 250 97 104
0.05638125166296959 0.008442933671176434 0.14800000190734863 247 92 100
0.05711256340146065 0.00849998090416193 0.14900000393390656 247 92 100
0.057462919503450394 0.00849998090416193 0.14900000393390656 248 93 101
0.05781327933073044 0.00849998090416193 0.14900000393390656 254 99 107
0.05855399742722511 0.008557028137147427 0.15000000596046448 255 110 113
0.05890670418739319 0.008557028137147427 0.15000000596046448 255 113 116
0.05965447798371315 0.008614074438810349 0.1509999930858612 255 115 117
0.060009539127349854 0.008614074438810349 0.1509999930858612 255 116 118
0.06036459654569626 0.008614074438810349 0.1509999930858612 255 126 127
0.06071965768933296 0.008614074438810349 0.1509999930858612 255 129 130
0.061074718832969666 0.008614074438810349 0.1509999930858612 254 138 142
0.061022959649562836 0.008557028137147427 0.15000000596046448 255 140 144
0.06137567013502121 0.008557028137147427 0.15000000596046448 255 149 145
0.061728376895189285 0.008557028137147427 0.15000000596046448 255 150 146
0.06166721135377884 0.00849998090416193 0.14900000393390656 251 152 141
0.062017571181058884 0.00849998090416193 0.14900000393390656 250 151 140
0.06236792728304863 0.00849998090416193 0.14900000393390656 252 153 142
0.062297359108924866 0.008442933671176434 0.14800000190734863 255 157 146
0.06264536082744598 0.008442933671176434 0.14800000190734863 245 148 134
0.0629933699965477 0.008442933671176434 0.14800000190734863 239 142 128
0.06291339546442032 0.008385887369513512 0.1469999998807907 255 211 193
0.0632590502500534 0.008385887369513512 0.1469999998807907 255 243 225
0.06360470503568649 0.008385887369513512 0.1469999998807907 255 255 241
0.0635153204202652 0.008328840136528015 0.1459999978542328 255 255 241
0.06385862827301025 0.008328840136528015 0.1459999978542328 254 255 249
0.06420192867517471 0.008328840136528015 0.1459999978542328 254 255 249
0.06454523652791977 0.008328840136528015 0.1459999978542328 254 255 249
0.06488853693008423 0.008328840136528015 0.1459999978542328 254 255 249
0.06523183733224869 0.008328840136528015 0.1459999978542328 254 255 249
0.06557514518499374 0.008328840136528015 0.1459999978542328 254 255 249
0.0659184455871582 0.008328840136528015 0.1459999978542328 254 255 249
0.06580790132284164 0.008271793834865093 0.14499999582767487 254 255 249
0.06614885479211807 0.008271793834865093 0.14499999582767487 254 242 242
0.06603125482797623 0.008214746601879597 0.14399999380111694 240 228 228
0.06636986136436462 0.008214746601879597 0.14399999380111694 236 196 197
0.06624520570039749 0.008157700300216675 0.14300000667572021 234 194 195
0.06658145785331726 0.008157700300216675 0.14300000667572021 249 192 185
0.06691770255565643 0.008157700300216675 0.14300000667572021 249 192 185
0.0672539547085762 0.008157700300216675 0.14300000667572021 247 190 171
0.06711754202842712 0.008100653067231178 0.1420000046491623 232 175 156
0.06745143979787827 0.008100653067231178 0.1420000046491623 252 229 210
0.0677853375673294 0.008100653067231178 0.1420000046491623 255 250 231
0.06811923533678055 0.008100653067231178 0.1420000046491623 254 255 245
0.06845313310623169 0.008100653067231178 0.1420000046491623 254 255 245
