0.08187001943588257 0.004560476168990135 0.13600000739097595 255 236 226
0.08218980580568314 0.004560476168990135 0.13600000739097595 255 233 223
0.08955910801887512 0.004594008903950453 0.13699999451637268 191 155 157
0.08988124877214432 0.004594008903950453 0.13699999451637268 193 157 159
0.09020338952541351 0.004594008903950453 0.13699999451637268 192 159 158
0.09052553027868271 0.004594008903950453 0.13699999451637268 191 158 157
0.06533297896385193 0.005274992901831865 0.1469999998807907 255 254 244
0.06523183733224869 0.005239108577370644 0.1459999978542328 255 255 247
0.06557514518499374 0.005239108577370644 0.1459999978542328 255 255 247
0.0659184455871582 0.005239108577370644 0.1459999978542328 255 253 246
0.06626175343990326 0.005239108577370644 0.1459999978542328 255 252 245
0.06660505384206772 0.005239108577370644 0.1459999978542328 255 229 229
0.0664898082613945 0.005203224252909422 0.14499999582767487 235 204 204
0.08187001943588257 0.004880265332758427 0.13600000739097595 255 238 232
0.08218980580568314 0.004880265332758427 0.13600000739097595 255 232 226
0.08891482651233673 0.004916149657219648 0.13699999451637268 202 170 175
0.08923696726560593 0.004916149657219648 0.13699999451637268 204 172 177
0.08955910801887512 0.004916149657219648 0.13699999451637268 191 164 167
0.08988124877214432 0.004916149657219648 0.13699999451637268 188 161 164
0.09020338952541351 0.004916149657219648 0.13699999451637268 186 163 158
0.09052553027868271 0.004916149657219648 0.13699999451637268 185 162 157
0.0908476710319519 0.004916149657219648 0.13699999451637268 187 155 151
0.0911698117852211 0.004916149657219648 0.13699999451637268 173 141 137
0.06429601460695267 0.0056206476874649525 0.1469999998807907 255 255 245
0.06464166939258575 0.0056206476874649525 0.1469999998807907 255 255 245
0.06498732417821884 0.0056206476874649525 0.1469999998807907 254 255 247
0.06533297896385193 0.0056206476874649525 0.1469999998807907 254 255 247
0.06523183733224869 0.005582412239164114 0.1459999978542328 254 255 249
0.06557514518499374 0.005582412239164114 0.1459999978542328 254 255 249
0.0659184455871582 0.005582412239164114 0.1459999978542328 254 255 249
0.06626175343990326 0.005582412239164114 0.1459999978542328 253 254 248
0.06660505384206772 0.005582412239164114 0.1459999978542328 254 242 240
0.0664898082613945 0.005544176325201988 0.14499999582767487 234 222 220
0.06683076173067093 0.005544176325201988 0.14499999582767487 253 220 221
0.06717171519994736 0.005544176325201988 0.14499999582767487 254 221 222
0.06826270371675491 0.005467704962939024 0.14300000667572021 255 241 230
0.07204125076532364 0.00527652632445097 0.1379999965429306 255 246 236
0.07236573845148087 0.00527652632445097 0.1379999965429306 255 247 237
0.08891482651233673 0.005238290876150131 0.13699999451637268 202 170 175
0.08923696726560593 0.005238290876150131 0.13699999451637268 195 163 168
0.08955910801887512 0.005238290876150131 0.13699999451637268 179 159 162
0.08988124877214432 0.005238290876150131 0.13699999451637268 178 158 161
0.09020338952541351 0.005238290876150131 0.13699999451637268 175 154 149
0.09052553027868271 0.005238290876150131 0.13699999451637268 177 156 151
0.0908476710319519 0.005238290876150131 0.13699999451637268 178 151 145
0.0911698117852211 0.005238290876150131 0.13699999451637268 173 146 140
0.06360470503568649 0.005966302938759327 0.1469999998807907 255 253 239
0.0635153204202652 0.005925715435296297 0.1459999978542328 255 253 239
0.06385862827301025 0.005925715435296297 0.1459999978542328 254 255 247
0.06420192867517471 0.005925715435296297 0.1459999978542328 254 255 247
0.06454523652791977 0.005925715435296297 0.1459999978542328 254 255 249
0.06488853693008423 0.005925715435296297 0.1459999978542328 254 255 249
0.06523183733224869 0.005925715435296297 0.1459999978542328 254 255 249
0.06557514518499374 0.005925715435296297 0.1459999978542328 254 255 249
0.0659184455871582 0.005925715435296297 0.1459999978542328 254 255 249
0.06626175343990326 0.005925715435296297 0.1459999978542328 254 255 249
0.06660505384206772 0.005925715435296297 0.1459999978542328 254 254 248
0.0664898082613945 0.0058851283974945545 0.14499999582767487 254 254 248
0.06683076173067093 0.0058851283974945545 0.14499999582767487 255 251 249
0.06717171519994736 0.0058851283974945545 0.14499999582767487 255 249 247
0.06704705953598022 0.005844541359692812 0.14399999380111694 255 229 231
0.06792645156383514 0.005803954321891069 0.14300000667572021 255 241 226
0.06826270371675491 0.005803954321891069 0.14300000667572021 255 248 233
0.07171675562858582 0.005601019132882357 0.1379999965429306 255 237 230
0.07204125076532364 0.005601019132882357 0.1379999965429306 255 253 237
0.07236573845148087 0.005601019132882357 0.1379999965429306 255 253 237
0.08891482651233673 0.005560431629419327 0.13699999451637268 206 178 179
0.08923696726560593 0.005560431629419327 0.13699999451637268 193 165 166
0.08955910801887512 0.005560431629419327 0.13699999451637268 177 155 159
0.08988124877214432 0.005560431629419327 0.13699999451637268 177 155 159
0.09020338952541351 0.005560431629419327 0.13699999451637268 177 154 149
0.09052553027868271 0.005560431629419327 0.13699999451637268 176 153 148
0.0908476710319519 0.005560431629419327 0.13699999451637268 177 147 142
0.0911698117852211 0.005560431629419327 0.13699999451637268 172 142 137
0.0632590502500534 0.006311957724392414 0.1469999998807907 255 240 229
0.06317202001810074 0.0062690190970897675 0.1459999978542328 255 255 239
0.0635153204202652 0.0062690190970897675 0.1459999978542328 255 255 239
0.06385862827301025 0.0062690190970897675 0.1459999978542328 254 255 249
0.06420192867517471 0.0062690190970897675 0.1459999978542328 254 255 249
0.06454523652791977 0.0062690190970897675 0.1459999978542328 254 255 249
0.06488853693008423 0.0062690190970897675 0.1459999978542328 254 255 249
0.06567863374948502 0.006311957724392414 0.1469999998807907 254 255 249
0.0660242885351181 0.006311957724392414 0.1469999998807907 254 255 249
0.0659184455871582 0.0062690190970897675 0.1459999978542328 254 255 249
0.06626175343990326 0.0062690190970897675 0.1459999978542328 254 255 249
0.06660505384206772 0.0062690190970897675 0.1459999978542328 254 255 249
0.0664898082613945 0.006226080935448408 0.14499999582767487 254 255 249
0.06683076173067093 0.006226080935448408 0.14499999582767487 255 255 249
0.06717171519994736 0.006226080935448408 0.14499999582767487 255 255 249
0.06704705953598022 0.0061831423081457615 0.14399999380111694 255 241 244
0.06691770255565643 0.006140203680843115 0.14300000667572021 246 213 216
0.06792645156383514 0.006140203680843115 0.14300000667572021 255 248 234
0.06826270371675491 0.006140203680843115 0.14300000667572021 255 251 237
0.06912093609571457 0.006097265053540468 0.1420000046491623 254 255 249
0.06945483386516571 0.006097265053540468 0.1420000046491623 254 255 249
0.069908507168293 0.00588257284834981 0.13699999451637268 249 232 232
0.07236573845148087 0.005925511475652456 0.1379999965429306 255 252 236
0.07269023358821869 0.005925511475652456 0.1379999965429306 255 244 238
0.07301472872495651 0.005925511475652456 0.1379999965429306 249 235 229
0.07333921641111374 0.005925511475652456 0.1379999965429306 250 214 218
0.08891482651233673 0.00588257284834981 0.13699999451637268 196 166 161
0.08923696726560593 0.00588257284834981 0.13699999451637268 188 158 153
0.08955910801887512 0.00588257284834981 0.13699999451637268 183 157 157
0.08988124877214432 0.00588257284834981 0.13699999451637268 176 150 150
0.09020338952541351 0.00588257284834981 0.13699999451637268 174 147 141
0.09052553027868271 0.00588257284834981 0.13699999451637268 177 150 144
0.0908476710319519 0.00588257284834981 0.13699999451637268 176 141 138
0.0911698117852211 0.00588257284834981 0.13699999451637268 167 132 129
0.0632590502500534 0.006657612510025501 0.1469999998807907 255 241 228
0.06317202001810074 0.006612322758883238 0.1459999978542328 255 255 241
0.0635153204202652 0.006612322758883238 0.1459999978542328 255 255 241
0.06385862827301025 0.006612322758883238 0.1459999978542328 254 255 249
0.06420192867517471 0.006612322758883238 0.1459999978542328 254 255 249
0.06454523652791977 0.006612322758883238 0.1459999978542328 254 255 249
0.06488853693008423 0.006612322758883238 0.1459999978542328 254 255 249
0.06567863374948502 0.006657612510025501 0.1469999998807907 254 255 249
0.0660242885351181 0.006657612510025501 0.1469999998807907 254 255 249
0.0659184455871582 0.006612322758883238 0.1459999978542328 254 255 249
0.06626175343990326 0.006612322758883238 0.1459999978542328 254 255 249
0.06660505384206772 0.006612322758883238 0.1459999978542328 254 255 249
0.0664898082613945 0.006567033007740974 0.14499999582767487 254 255 249
0.06683076173067093 0.006567033007740974 0.14499999582767487 255 255 249
0.06717171519994736 0.006567033007740974 0.14499999582767487 255 255 249
0.06704705953598022 0.006521742790937424 0.14399999380111694 255 229 230
0.06691770255565643 0.00647645303979516 0.14300000667572021 244 211 212
0.06759020686149597 0.00647645303979516 0.14300000667572021 255 231 227
0.06792645156383514 0.00647645303979516 0.14300000667572021 255 253 241
0.06826270371675491 0.00647645303979516 0.14300000667572021 255 253 241
0.06859894841909409 0.00647645303979516 0.14300000667572021 254 255 245
0.06893520057201385 0.00647645303979516 0.14300000667572021 254 255 245
0.06878703087568283 0.006431163288652897 0.1420000046491623 254 255 249
0.06912093609571457 0.006431163288652897 0.1420000046491623 254 255 249
0.06945483386516571 0.006431163288652897 0.1420000046491623 254 255 249
0.06978873163461685 0.006431163288652897 0.1420000046491623 254 255 249
0.070122629404068 0.006431163288652897 0.1420000046491623 254 255 249
0.07009429484605789 0.006250003818422556 0.1379999965429306 255 249 249
0.069908507168293 0.006204713601619005 0.13699999451637268 241 224 224
0.07171675562858582 0.006250003818422556 0.1379999965429306 255 238 235
0.07236573845148087 0.006250003818422556 0.1379999965429306 255 253 239
0.07269023358821869 0.006250003818422556 0.1379999965429306 255 247 244
0.07301472872495651 0.006250003818422556 0.1379999965429306 242 226 223
0.08891482651233673 0.006204713601619005 0.13699999451637268 196 164 158
0.08923696726560593 0.006204713601619005 0.13699999451637268 205 173 167
0.08955910801887512 0.006204713601619005 0.13699999451637268 188 155 158
0.08988124877214432 0.006204713601619005 0.13699999451637268 183 150 153
0.06291339546442032 0.007003267761319876 0.1469999998807907 255 242 227
0.0632590502500534 0.007003267761319876 0.1469999998807907 255 246 231
0.06317202001810074 0.006955626420676708 0.1459999978542328 255 255 241
0.0635153204202652 0.006955626420676708 0.1459999978542328 255 255 241
0.06385862827301025 0.006955626420676708 0.1459999978542328 254 255 249
0.06420192867517471 0.006955626420676708 0.1459999978542328 254 255 249
0.06454523652791977 0.006955626420676708 0.1459999978542328 254 255 249
0.06488853693008423 0.006955626420676708 0.1459999978542328 254 255 249
0.06567863374948502 0.007003267761319876 0.1469999998807907 254 255 249
0.0660242885351181 0.007003267761319876 0.1469999998807907 254 255 249
0.0659184455871582 0.006955626420676708 0.1459999978542328 254 255 249
0.06626175343990326 0.006955626420676708 0.1459999978542328 254 255 249
0.06660505384206772 0.006955626420676708 0.1459999978542328 254 255 249
0.0664898082613945 0.006907985080033541 0.14499999582767487 254 255 249
0.06683076173067093 0.006907985080033541 0.14499999582767487 255 253 249
0.06670846045017242 0.006860343739390373 0.14399999380111694 255 252 248
0.06704705953598022 0.006860343739390373 0.14399999380111694 247 214 213
0.06691770255565643 0.006812702398747206 0.14300000667572021 239 206 205
0.06759020686149597 0.006812702398747206 0.14300000667572021 255 228 220
0.06792645156383514 0.006812702398747206 0.14300000667572021 255 254 241
0.06826270371675491 0.006812702398747206 0.14300000667572021 255 254 241
0.06811923533678055 0.006765061058104038 0.1420000046491623 254 255 245
0.06845313310623169 0.006765061058104038 0.1420000046491623 254 255 245
0.06878703087568283 0.006765061058104038 0.1420000046491623 254 255 249
0.06912093609571457 0.006765061058104038 0.1420000046491623 254 255 249
0.06945483386516571 0.006765061058104038 0.1420000046491623 254 255 249
0.06978873163461685 0.006765061058104038 0.1420000046491623 254 255 249
0.070122629404068 0.006765061058104038 0.1420000046491623 254 255 249
0.06976979970932007 0.0065744961611926556 0.1379999965429306 254 255 249
0.07009429484605789 0.0065744961611926556 0.1379999965429306 255 246 250
0.069908507168293 0.006526854820549488 0.13699999451637268 239 215 219
0.07171675562858582 0.0065744961611926556 0.1379999965429306 255 234 228
0.07204125076532364 0.0065744961611926556 0.1379999965429306 255 252 239
0.07236573845148087 0.0065744961611926556 0.1379999965429306 255 252 239
0.07269023358821869 0.0065744961611926556 0.1379999965429306 246 226 229
0.07301472872495651 0.0065744961611926556 0.1379999965429306 237 217 220
0.06291339546442032 0.007348922546952963 0.1469999998807907 255 246 229
0.0632590502500534 0.007348922546952963 0.1469999998807907 255 248 231
0.06360470503568649 0.007348922546952963 0.1469999998807907 254 255 241
0.0635153204202652 0.007298929616808891 0.1459999978542328 254 255 241
0.06385862827301025 0.007298929616808891 0.1459999978542328 254 255 249
0.06420192867517471 0.007298929616808891 0.1459999978542328 254 255 249
0.06454523652791977 0.007298929616808891 0.1459999978542328 254 255 249
0.06488853693008423 0.007298929616808891 0.1459999978542328 254 255 249
0.06567863374948502 0.007348922546952963 0.1469999998807907 254 255 249
0.0660242885351181 0.007348922546952963 0.1469999998807907 254 255 249
0.0659184455871582 0.007298929616808891 0.1459999978542328 254 255 249
0.06626175343990326 0.007298929616808891 0.1459999978542328 254 255 249
0.06660505384206772 0.007298929616808891 0.1459999978542328 254 255 249
0.0664898082613945 0.007248937152326107 0.14499999582767487 254 255 249
0.06683076173067093 0.007248937152326107 0.14499999582767487 255 250 248
0.06670846045017242 0.007198944687843323 0.14399999380111694 251 239 237
0.06745143979787827 0.007098959293216467 0.1420000046491623 255 253 238
0.0677853375673294 0.007098959293216467 0.1420000046491623 255 254 239
0.06811923533678055 0.007098959293216467 0.1420000046491623 254 255 245
0.06845313310623169 0.007098959293216467 0.1420000046491623 254 255 245
0.06878703087568283 0.007098959293216467 0.1420000046491623 254 255 249
0.06912093609571457 0.007098959293216467 0.1420000046491623 254 255 249
0.06945483386516571 0.007098959293216467 0.1420000046491623 254 255 249
0.06978873163461685 0.007098959293216467 0.1420000046491623 254 255 249
0.070122629404068 0.007098959293216467 0.1420000046491623 254 255 249
0.0699603483080864 0.007048966363072395 0.14100000262260437 254 255 249
0.0702918991446495 0.007048966363072395 0.14100000262260437 254 255 249
0.06994853913784027 0.0069489809684455395 0.13899999856948853 255 255 249
0.06976979970932007 0.006898988503962755 0.1379999965429306 255 255 249
0.07009429484605789 0.006898988503962755 0.1379999965429306 255 229 233
0.07041878998279572 0.006898988503962755 0.1379999965429306 241 212 216
0.07171675562858582 0.006898988503962755 0.1379999965429306 255 233 227
0.07204125076532364 0.006898988503962755 0.1379999965429306 255 251 240
0.07236573845148087 0.006898988503962755 0.1379999965429306 255 252 241
0.07269023358821869 0.006898988503962755 0.1379999965429306 252 229 237
0.07301472872495651 0.006898988503962755 0.1379999965429306 232 209 217
0.06291339546442032 0.00769457733258605 0.1469999998807907 255 247 230
0.0632590502500534 0.00769457733258605 0.1469999998807907 255 247 230
0.06360470503568649 0.00769457733258605 0.1469999998807907 254 255 243
0.0635153204202652 0.007642233278602362 0.1459999978542328 254 255 243
0.06385862827301025 0.007642233278602362 0.1459999978542328 254 255 249
0.06420192867517471 0.007642233278602362 0.1459999978542328 254 255 249
0.06454523652791977 0.007642233278602362 0.1459999978542328 254 255 249
0.06488853693008423 0.007642233278602362 0.1459999978542328 254 255 249
0.06567863374948502 0.00769457733258605 0.1469999998807907 254 255 249
0.0660242885351181 0.00769457733258605 0.1469999998807907 254 255 249
0.0659184455871582 0.007642233278602362 0.1459999978542328 254 255 249
0.06626175343990326 0.007642233278602362 0.1459999978542328 254 255 249
0.06660505384206772 0.007642233278602362 0.1459999978542328 255 252 247
0.0664898082613945 0.007589889224618673 0.14499999582767487 255 253 248
0.06683076173067093 0.007589889224618673 0.14499999582767487 252 226 226
0.06670846045017242 0.007537545170634985 0.14399999380111694 240 214 214
0.06745143979787827 0.007432857062667608 0.1420000046491623 255 254 235
0.0677853375673294 0.007432857062667608 0.1420000046491623 255 254 235
0.06811923533678055 0.007432857062667608 0.1420000046491623 254 255 243
0.06845313310623169 0.007432857062667608 0.1420000046491623 254 255 243
0.06878703087568283 0.007432857062667608 0.1420000046491623 254 255 249
0.06912093609571457 0.007432857062667608 0.1420000046491623 254 255 249
0.06945483386516571 0.007432857062667608 0.1420000046491623 254 255 249
0.06978873163461685 0.007432857062667608 0.1420000046491623 254 255 249
0.070122629404068 0.007432857062667608 0.1420000046491623 254 255 249
0.0699603483080864 0.00738051300868392 0.14100000262260437 254 255 249
0.0702918991446495 0.00738051300868392 0.14100000262260437 254 255 249
0.06962169706821442 0.007275824900716543 0.13899999856948853 254 255 249
0.06994853913784027 0.007275824900716543 0.13899999856948853 255 252 250
0.06976979970932007 0.007223480846732855 0.1379999965429306 255 252 250
0.07009429484605789 0.007223480846732855 0.1379999965429306 250 214 218
0.07041878998279572 0.007223480846732855 0.1379999965429306 235 199 203
0.07171675562858582 0.007223480846732855 0.1379999965429306 255 231 222
0.07204125076532364 0.007223480846732855 0.1379999965429306 255 251 241
0.07236573845148087 0.007223480846732855 0.1379999965429306 255 251 241
0.07269023358821869 0.007223480846732855 0.1379999965429306 255 231 235
0.07301472872495651 0.007223480846732855 0.1379999965429306 240 216 220
0.06291339546442032 0.008040232583880424 0.1469999998807907 255 246 229
0.0632590502500534 0.008040232583880424 0.1469999998807907 255 247 230
0.06360470503568649 0.008040232583880424 0.1469999998807907 254 255 243
0.0635153204202652 0.007985536940395832 0.1459999978542328 254 255 243
0.06385862827301025 0.007985536940395832 0.1459999978542328 254 255 249
0.06420192867517471 0.007985536940395832 0.1459999978542328 254 255 249
0.06454523652791977 0.007985536940395832 0.1459999978542328 254 255 249
0.06488853693008423 0.007985536940395832 0.1459999978542328 254 255 249
0.06567863374948502 0.008040232583880424 0.1469999998807907 254 255 249
0.0660242885351181 0.008040232583880424 0.1469999998807907 254 255 249
0.0659184455871582 0.007985536940395832 0.1459999978542328 254 255 249
0.06626175343990326 0.007985536940395832 0.1459999978542328 253 254 248
0.06660505384206772 0.007985536940395832 0.1459999978542328 253 245 242
0.0664898082613945 0.00793084129691124 0.14499999582767487 237 229 226
0.06683076173067093 0.00793084129691124 0.14499999582767487 242 211 211
0.06670846045017242 0.007876145653426647 0.14399999380111694 244 213 213
0.06792645156383514 0.00782145094126463 0.14300000667572021 255 253 230
0.0677853375673294 0.00776675483211875 0.1420000046491623 255 253 230
0.06811923533678055 0.00776675483211875 0.1420000046491623 254 255 243
0.06845313310623169 0.00776675483211875 0.1420000046491623 254 255 243
0.06878703087568283 0.00776675483211875 0.1420000046491623 254 255 249
0.06912093609571457 0.00776675483211875 0.1420000046491623 254 255 249
0.06945483386516571 0.00776675483211875 0.1420000046491623 254 255 249
0.06978873163461685 0.00776675483211875 0.1420000046491623 254 255 249
0.070122629404068 0.00776675483211875 0.1420000046491623 254 255 249
0.0699603483080864 0.0077120596542954445 0.14100000262260437 254 255 249
0.06979337334632874 0.007657364010810852 0.14000000059604645 254 255 249
0.06962169706821442 0.007602668832987547 0.13899999856948853 254 255 249
0.06994853913784027 0.007602668832987547 0.13899999856948853 255 248 245
0.06976979970932007 0.0075479731895029545 0.1379999965429306 244 236 233
0.07204125076532364 0.0075479731895029545 0.1379999965429306 255 251 237
0.07236573845148087 0.0075479731895029545 0.1379999965429306 255 251 237
0.07269023358821869 0.0075479731895029545 0.1379999965429306 255 229 232
0.07301472872495651 0.0075479731895029545 0.1379999965429306 245 218 221
0.06291339546442032 0.008385887369513512 0.1469999998807907 255 244 228
0.0632590502500534 0.008385887369513512 0.1469999998807907 255 247 231
0.06360470503568649 0.008385887369513512 0.1469999998807907 255 255 243
0.06395035982131958 0.008385887369513512 0.1469999998807907 255 255 243
0.06385862827301025 0.008328840136528015 0.1459999978542328 254 255 249
0.06420192867517471 0.008328840136528015 0.1459999978542328 254 255 249
0.06454523652791977 0.008328840136528015 0.1459999978542328 254 255 249
0.06488853693008423 0.008328840136528015 0.1459999978542328 254 255 249
0.06567863374948502 0.008385887369513512 0.1469999998807907 254 255 249
0.06557514518499374 0.008328840136528015 0.1459999978542328 254 255 249
0.0659184455871582 0.008328840136528015 0.1459999978542328 254 255 249
0.06626175343990326 0.008328840136528015 0.1459999978542328 252 253 247
0.06660505384206772 0.008328840136528015 0.1459999978542328 255 243 242
0.0664898082613945 0.008271793834865093 0.14499999582767487 246 231 230
0.06792645156383514 0.008157700300216675 0.14300000667572021 255 250 226
0.0677853375673294 0.008100653067231178 0.1420000046491623 255 253 229
0.06811923533678055 0.008100653067231178 0.1420000046491623 254 255 241
0.06845313310623169 0.008100653067231178 0.1420000046491623 254 255 241
0.06878703087568283 0.008100653067231178 0.1420000046491623 254 255 249
0.06912093609571457 0.008100653067231178 0.1420000046491623 254 255 249
0.06945483386516571 0.008100653067231178 0.1420000046491623 254 255 249
0.06978873163461685 0.008100653067231178 0.1420000046491623 254 255 249
0.06962880492210388 0.008043605834245682 0.14100000262260437 254 255 249
0.0699603483080864 0.008043605834245682 0.14100000262260437 254 255 249
0.06979337334632874 0.00798655953258276 0.14000000059604645 254 255 249
0.06962169706821442 0.007929512299597263 0.13899999856948853 254 255 249
0.06994853913784027 0.007929512299597263 0.13899999856948853 255 251 246
0.06976979970932007 0.007872465997934341 0.1379999965429306 249 238 233
0.07204125076532364 0.007872465997934341 0.1379999965429306 255 250 235
0.07236573845148087 0.007872465997934341 0.1379999965429306 255 250 235
0.07269023358821869 0.007872465997934341 0.1379999965429306 252 223 227
0.07301472872495651 0.007872465997934341 0.1379999965429306 242 213 217
0.06291339546442032 0.008731542155146599 0.1469999998807907 255 245 227
0.0632590502500534 0.008731542155146599 0.1469999998807907 255 247 229
0.06360470503568649 0.008731542155146599 0.1469999998807907 255 255 243
0.06395035982131958 0.008731542155146599 0.1469999998807907 255 255 243
0.06385862827301025 0.008672144263982773 0.1459999978542328 254 255 249
0.06420192867517471 0.008672144263982773 0.1459999978542328 254 255 249
0.06454523652791977 0.008672144263982773 0.1459999978542328 254 255 249
0.06488853693008423 0.008672144263982773 0.1459999978542328 254 255 249
0.06523183733224869 0.008672144263982773 0.1459999978542328 254 255 249
0.06557514518499374 0.008672144263982773 0.1459999978542328 254 255 249
0.0659184455871582 0.008672144263982773 0.1459999978542328 255 255 249
0.06626175343990326 0.008672144263982773 0.1459999978542328 251 251 245
0.06614885479211807 0.008612745441496372 0.14499999582767487 255 236 235
0.0664898082613945 0.008612745441496372 0.14499999582767487 241 218 217
0.06792645156383514 0.008493948727846146 0.14300000667572021 255 248 223
0.0677853375673294 0.00843455083668232 0.1420000046491623 255 252 227
0.06811923533678055 0.00843455083668232 0.1420000046491623 254 255 243
0.06845313310623169 0.00843455083668232 0.1420000046491623 254 255 243
0.06878703087568283 0.00843455083668232 0.1420000046491623 254 255 249
0.06912093609571457 0.00843455083668232 0.1420000046491623 254 255 249
0.06945483386516571 0.00843455083668232 0.1420000046491623 254 255 249
0.06978873163461685 0.00843455083668232 0.1420000046491623 254 255 249
0.06962880492210388 0.008375152945518494 0.14100000262260437 254 255 249
0.0699603483080864 0.008375152945518494 0.14100000262260437 254 255 249
0.06979337334632874 0.008315754123032093 0.14000000059604645 254 255 249
0.07012256979942322 0.008315754123032093 0.14000000059604645 254 255 249
0.06994853913784027 0.008256356231868267 0.13899999856948853 255 239 239
0.06976979970932007 0.008196958340704441 0.1379999965429306 248 222 222
0.07204125076532364 0.008196958340704441 0.1379999965429306 255 246 234
0.07236573845148087 0.008196958340704441 0.1379999965429306 255 247 235
0.07269023358821869 0.008196958340704441 0.1379999965429306 244 217 220
0.07301472872495651 0.008196958340704441 0.1379999965429306 240 213 216
0.06291339546442032 0.009077196940779686 0.1469999998807907 255 244 227
0.0632590502500534 0.009077196940779686 0.1469999998807907 255 246 229
0.06360470503568649 0.009077196940779686 0.1469999998807907 255 255 245
0.06395035982131958 0.009077196940779686 0.1469999998807907 255 255 245
0.06385862827301025 0.009015447460114956 0.1459999978542328 254 255 249
0.06420192867517471 0.009015447460114956 0.1459999978542328 254 255 249
0.06454523652791977 0.009015447460114956 0.1459999978542328 254 255 249
0.06488853693008423 0.009015447460114956 0.1459999978542328 254 255 249
0.06523183733224869 0.009015447460114956 0.1459999978542328 254 255 249
0.06557514518499374 0.009015447460114956 0.1459999978542328 254 255 249
0.0659184455871582 0.009015447460114956 0.1459999978542328 255 253 249
0.06580790132284164 0.008953697979450226 0.14499999582767487 254 249 245
0.06614885479211807 0.008953697979450226 0.14499999582767487 247 211 213
0.0664898082613945 0.008953697979450226 0.14499999582767487 229 193 195
0.06745143979787827 0.008768448606133461 0.1420000046491623 255 242 222
0.0677853375673294 0.008768448606133461 0.1420000046491623 255 249 229
0.06811923533678055 0.008768448606133461 0.1420000046491623 254 255 245
0.06845313310623169 0.008768448606133461 0.1420000046491623 254 255 245
0.06878703087568283 0.008768448606133461 0.1420000046491623 254 255 249
0.06912093609571457 0.008768448606133461 0.1420000046491623 254 255 249
0.06945483386516571 0.008768448606133461 0.1420000046491623 254 255 249
0.06978873163461685 0.008768448606133461 0.1420000046491623 254 255 249
0.06962880492210388 0.008706699125468731 0.14100000262260437 254 255 249
0.0699603483080864 0.008706699125468731 0.14100000262260437 254 255 249
0.06979337334632874 0.008644949644804 0.14000000059604645 255 254 247
0.07012256979942322 0.008644949644804 0.14000000059604645 255 251 244
0.07204125076532364 0.00852145068347454 0.1379999965429306 255 243 231
0.07236573845148087 0.00852145068347454 0.1379999965429306 255 242 230
0.07269023358821869 0.00852145068347454 0.1379999965429306 255 231 235
0.07301472872495651 0.00852145068347454 0.1379999965429306 255 227 231
0.06291339546442032 0.009422851726412773 0.1469999998807907 255 235 222
0.0632590502500534 0.009422851726412773 0.1469999998807907 255 241 228
0.06360470503568649 0.009422851726412773 0.1469999998807907 255 254 245
0.06395035982131958 0.009422851726412773 0.1469999998807907 255 254 245
0.06385862827301025 0.009358750656247139 0.1459999978542328 254 255 249
0.06420192867517471 0.009358750656247139 0.1459999978542328 254 255 249
0.06454523652791977 0.009358750656247139 0.1459999978542328 254 255 249
0.06488853693008423 0.009358750656247139 0.1459999978542328 254 255 249
0.06523183733224869 0.009358750656247139 0.1459999978542328 254 255 249
0.06557514518499374 0.009358750656247139 0.1459999978542328 254 255 249
0.0659184455871582 0.009358750656247139 0.1459999978542328 255 245 240
0.06580790132284164 0.009294649586081505 0.14499999582767487 246 235 230
0.0677853375673294 0.009102347306907177 0.1420000046491623 255 247 231
0.06811923533678055 0.009102347306907177 0.1420000046491623 254 255 245
0.06845313310623169 0.009102347306907177 0.1420000046491623 254 255 245
0.06878703087568283 0.009102347306907177 0.1420000046491623 254 255 249
0.06912093609571457 0.009102347306907177 0.1420000046491623 254 255 249
0.06945483386516571 0.009102347306907177 0.1420000046491623 254 255 249
0.06978873163461685 0.009102347306907177 0.1420000046491623 254 255 249
0.06962880492210388 0.009038246236741543 0.14100000262260437 254 255 249
0.0699603483080864 0.009038246236741543 0.14100000262260437 249 250 244
0.0702918991446495 0.009038246236741543 0.14100000262260437 249 238 233
0.07012256979942322 0.008974145166575909 0.14000000059604645 240 229 224
0.07204125076532364 0.00884594302624464 0.1379999965429306 255 231 219
0.07236573845148087 0.00884594302624464 0.1379999965429306 255 239 227
0.07269023358821869 0.00884594302624464 0.1379999965429306 255 240 244
0.07301472872495651 0.00884594302624464 0.1379999965429306 255 221 225
0.0632590502500534 0.00976850651204586 0.1469999998807907 255 237 226
0.06360470503568649 0.00976850651204586 0.1469999998807907 255 253 245
0.06395035982131958 0.00976850651204586 0.1469999998807907 255 253 245
0.06385862827301025 0.009702054783701897 0.1459999978542328 254 255 247
0.06420192867517471 0.009702054783701897 0.1459999978542328 254 255 247
0.06454523652791977 0.009702054783701897 0.1459999978542328 254 255 247
0.06488853693008423 0.009702054783701897 0.1459999978542328 254 255 247
0.06523183733224869 0.009702054783701897 0.1459999978542328 255 255 247
0.06557514518499374 0.009702054783701897 0.1459999978542328 255 255 247
0.06546695530414581 0.009635602124035358 0.14499999582767487 252 231 228
0.06580790132284164 0.009635602124035358 0.14499999582767487 232 211 208
0.0677853375673294 0.009436245076358318 0.1420000046491623 255 245 233
0.06811923533678055 0.009436245076358318 0.1420000046491623 255 255 247
0.06845313310623169 0.009436245076358318 0.1420000046491623 255 255 247
0.06878703087568283 0.009436245076358318 0.1420000046491623 254 255 249
0.06912093609571457 0.009436245076358318 0.1420000046491623 254 255 249
0.06945483386516571 0.009436245076358318 0.1420000046491623 254 255 249
0.06978873163461685 0.009436245076358318 0.1420000046491623 254 255 249
0.06962880492210388 0.00936979241669178 0.14100000262260437 255 255 247
0.0699603483080864 0.00936979241669178 0.14100000262260437 253 254 245
0.06979337334632874 0.009303339757025242 0.14000000059604645 255 243 243
0.07012256979942322 0.009303339757025242 0.14000000059604645 251 225 225
0.07236573845148087 0.00917043536901474 0.1379999965429306 255 225 216
0.07269023358821869 0.00917043536901474 0.1379999965429306 255 218 228
0.0632590502500534 0.010114162229001522 0.1469999998807907 255 229 222
0.06360470503568649 0.010114162229001522 0.1469999998807907 255 253 239
0.06395035982131958 0.010114162229001522 0.1469999998807907 255 253 239
0.06385862827301025 0.01004535797983408 0.1459999978542328 255 255 243
0.06420192867517471 0.01004535797983408 0.1459999978542328 255 255 243
0.06454523652791977 0.01004535797983408 0.1459999978542328 254 255 245
0.06488853693008423 0.01004535797983408 0.1459999978542328 254 255 245
0.06523183733224869 0.01004535797983408 0.1459999978542328 255 254 243
0.06512600183486938 0.009976554661989212 0.14499999582767487 255 252 241
0.06546695530414581 0.009976554661989212 0.14499999582767487 255 229 224
0.0677853375673294 0.00977014284580946 0.1420000046491623 255 242 229
0.06811923533678055 0.00977014284580946 0.1420000046491623 255 254 243
0.06845313310623169 0.00977014284580946 0.1420000046491623 255 254 243
0.06878703087568283 0.00977014284580946 0.1420000046491623 254 255 247
0.06912093609571457 0.00977014284580946 0.1420000046491623 254 255 247
0.06945483386516571 0.00977014284580946 0.1420000046491623 253 254 248
0.06978873163461685 0.00977014284580946 0.1420000046491623 254 255 249
0.06962880492210388 0.009701338596642017 0.14100000262260437 255 250 245
0.0699603483080864 0.009701338596642017 0.14100000262260437 253 242 237
0.06979337334632874 0.00963253527879715 0.14000000059604645 255 217 220
0.07012256979942322 0.00963253527879715 0.14000000059604645 255 216 219
0.06360470503568649 0.01045981701463461 0.1469999998807907 255 244 232
0.0635153204202652 0.010388661175966263 0.1459999978542328 255 245 233
0.06385862827301025 0.010388661175966263 0.1459999978542328 255 253 238
0.06420192867517471 0.010388661175966263 0.1459999978542328 255 254 239
0.06454523652791977 0.010388661175966263 0.1459999978542328 255 255 241
0.06488853693008423 0.010388661175966263 0.1459999978542328 255 255 241
0.06523183733224869 0.010388661175966263 0.1459999978542328 255 248 238
0.06512600183486938 0.010317506268620491 0.14499999582767487 250 228 218
0.0677853375673294 0.010104040615260601 0.1420000046491623 255 234 222
0.06811923533678055 0.010104040615260601 0.1420000046491623 255 254 237
0.06845313310623169 0.010104040615260601 0.1420000046491623 255 254 237
0.06878703087568283 0.010104040615260601 0.1420000046491623 255 255 247
0.06912093609571457 0.010104040615260601 0.1420000046491623 255 255 247
0.06945483386516571 0.010104040615260601 0.1420000046491623 255 253 248
0.06929726153612137 0.01003288570791483 0.14100000262260437 255 252 247
0.06962880492210388 0.01003288570791483 0.14100000262260437 255 232 233
0.0699603483080864 0.01003288570791483 0.14100000262260437 255 230 231
0.0635153204202652 0.01073196530342102 0.1459999978542328 255 224 220
0.06385862827301025 0.01073196530342102 0.1459999978542328 255 243 232
0.06420192867517471 0.01073196530342102 0.1459999978542328 255 244 233
0.06454523652791977 0.01073196530342102 0.1459999978542328 255 245 235
0.06488853693008423 0.01073196530342102 0.1459999978542328 255 238 228
0.06523183733224869 0.01073196530342102 0.1459999978542328 255 219 217
0.06811923533678055 0.010437938384711742 0.1420000046491623 255 241 235
0.06845313310623169 0.010437938384711742 0.1420000046491623 255 241 235
0.06878703087568283 0.010437938384711742 0.1420000046491623 255 248 241
0.06912093609571457 0.010437938384711742 0.1420000046491623 255 248 241
0.06945483386516571 0.010437938384711742 0.1420000046491623 255 238 241
0.06929726153612137 0.010364431887865067 0.14100000262260437 255 225 228
0.0699603483080864 0.010364431887865067 0.14100000262260437 255 220 227
