0.0908476710319519 0.006526854820549488 0.13699999451637268 174 137 132
0.0911698117852211 0.006526854820549488 0.13699999451637268 173 136 131
0.0914919525384903 0.006526854820549488 0.13699999451637268 176 130 126
0.05647541955113411 0.007598885800689459 0.15199999511241913 250 77 84
0.05683283135294914 0.007598885800689459 0.15199999511241913 253 80 87
0.057190243154764175 0.007598885800689459 0.15199999511241913 255 91 97
0.05754765495657921 0.007598885800689459 0.15199999511241913 255 95 101
0.05790506675839424 0.007598885800689459 0.15199999511241913 253 95 104
0.058262478560209274 0.007598885800689459 0.15199999511241913 255 102 111
0.05861989036202431 0.007598885800689459 0.15199999511241913 255 104 111
0.05897730588912964 0.007598885800689459 0.15199999511241913 247 94 101
0.05933471769094467 0.007598885800689459 0.15199999511241913 252 99 108
0.059692129492759705 0.007598885800689459 0.15199999511241913 253 100 109
0.05965447798371315 0.007548893336206675 0.1509999930858612 249 102 107
0.060009539127349854 0.007548893336206675 0.1509999930858612 249 102 107
0.06036459654569626 0.007548893336206675 0.1509999930858612 251 120 120
0.06071965768933296 0.007548893336206675 0.1509999930858612 255 134 134
0.061074718832969666 0.007548893336206675 0.1509999930858612 255 142 136
0.06142977997660637 0.007548893336206675 0.1509999930858612 255 142 136
0.06178484112024307 0.007548893336206675 0.1509999930858612 255 157 151
0.062139902263879776 0.007548893336206675 0.1509999930858612 255 156 150
0.06208108738064766 0.007498900406062603 0.15000000596046448 255 153 150
0.06243379786610603 0.007498900406062603 0.15000000596046448 255 153 150
0.06236792728304863 0.007448907941579819 0.14900000393390656 255 158 154
0.06271828711032867 0.007448907941579819 0.14900000393390656 255 158 154
0.06264536082744598 0.007398915011435747 0.14800000190734863 241 147 141
0.0629933699965477 0.007398915011435747 0.14800000190734863 228 134 128
0.06334137916564941 0.007398915011435747 0.14800000190734863 246 198 190
0.0632590502500534 0.007348922546952963 0.1469999998807907 255 241 233
0.06360470503568649 0.007348922546952963 0.1469999998807907 255 255 243
0.06395035982131958 0.007348922546952963 0.1469999998807907 255 255 243
0.06385862827301025 0.007298929616808891 0.1459999978542328 254 255 249
0.06420192867517471 0.007298929616808891 0.1459999978542328 254 255 249
0.06454523652791977 0.007298929616808891 0.1459999978542328 254 255 249
0.06488853693008423 0.007298929616808891 0.1459999978542328 254 255 249
0.06523183733224869 0.007298929616808891 0.1459999978542328 254 255 249
0.06557514518499374 0.007298929616808891 0.1459999978542328 254 255 249
0.06546695530414581 0.007248937152326107 0.14499999582767487 253 254 248
0.06580790132284164 0.007248937152326107 0.14499999582767487 249 250 244
0.06614885479211807 0.007248937152326107 0.14499999582767487 253 255 246
0.06603125482797623 0.007198944687843323 0.14399999380111694 254 255 247
0.06636986136436462 0.007198944687843323 0.14399999380111694 255 250 240
0.06624520570039749 0.007148951757699251 0.14300000667572021 243 228 218
0.06658145785331726 0.007148951757699251 0.14300000667572021 245 202 197
0.06691770255565643 0.007148951757699251 0.14300000667572021 246 203 198
0.0672539547085762 0.007148951757699251 0.14300000667572021 246 200 182
0.06759020686149597 0.007148951757699251 0.14300000667572021 242 196 178
0.06745143979787827 0.007098959293216467 0.1420000046491623 255 248 229
0.0677853375673294 0.007098959293216467 0.1420000046491623 255 250 231
0.06811923533678055 0.007098959293216467 0.1420000046491623 254 255 245
0.06845313310623169 0.007098959293216467 0.1420000046491623 254 255 245
0.06878703087568283 0.007098959293216467 0.1420000046491623 254 255 249
0.06912093609571457 0.007098959293216467 0.1420000046491623 254 255 249
0.06945483386516571 0.007098959293216467 0.1420000046491623 254 255 249
0.06978873163461685 0.007098959293216467 0.1420000046491623 254 255 249
0.070122629404068 0.007098959293216467 0.1420000046491623 254 255 249
0.0699603483080864 0.007048966363072395 0.14100000262260437 254 255 249
0.0702918991446495 0.007048966363072395 0.14100000262260437 254 255 249
0.07012256979942322 0.006998973898589611 0.14000000059604645 254 255 249
0.0704517662525177 0.006998973898589611 0.14000000059604645 254 251 246
0.07027538120746613 0.0069489809684455395 0.13899999856948853 252 249 244
0.07009429484605789 0.006898988503962755 0.1379999965429306 255 231 232
0.07041878998279572 0.006898988503962755 0.1379999965429306 255 227 228
0.07074327766895294 0.006898988503962755 0.1379999965429306 218 167 169
0.07171675562858582 0.006898988503962755 0.1379999965429306 224 174 171
0.07204125076532364 0.006898988503962755 0.1379999965429306 255 242 230
0.07184135168790817 0.006848995573818684 0.13699999451637268 255 247 235
0.07216349244117737 0.006848995573818684 0.13699999451637268 253 227 216
0.07248563319444656 0.006848995573818684 0.13699999451637268 251 225 214
0.07280777394771576 0.006848995573818684 0.13699999451637268 237 188 189
0.07312991470098495 0.006848995573818684 0.13699999451637268 230 181 182
0.07345205545425415 0.006848995573818684 0.13699999451637268 225 169 173
0.07377419620752335 0.006848995573818684 0.13699999451637268 233 177 181
0.07355549186468124 0.006799003109335899 0.13600000739097595 223 169 172
0.07387527823448181 0.006799003109335899 0.13600000739097595 225 171 174
0.07364951819181442 0.006749010644853115 0.13500000536441803 218 169 168
0.07396695762872696 0.006749010644853115 0.13500000536441803 220 171 170
0.0742843970656395 0.006749010644853115 0.13500000536441803 205 161 159
0.07460182905197144 0.006749010644853115 0.13500000536441803 193 149 147
0.07491926848888397 0.006749010644853115 0.13500000536441803 199 153 147
0.07523670792579651 0.006749010644853115 0.13500000536441803 185 139 133
0.07555414736270905 0.006749010644853115 0.13500000536441803 187 135 124
0.07587158679962158 0.006749010644853115 0.13500000536441803 175 123 112
0.07618902623653412 0.006749010644853115 0.13500000536441803 215 157 143
0.07650645822286606 0.006749010644853115 0.13500000536441803 222 164 150
0.0768238976597786 0.006749010644853115 0.13500000536441803 216 164 153
0.07771275192499161 0.006799003109335899 0.13600000739097595 220 168 157
0.07803254574537277 0.006799003109335899 0.13600000739097595 199 150 149
0.07835233211517334 0.006799003109335899 0.13600000739097595 194 145 144
0.0786721259355545 0.006799003109335899 0.13600000739097595 194 145 144
0.07899191230535507 0.006799003109335899 0.13600000739097595 196 147 146
0.07931170612573624 0.006799003109335899 0.13600000739097595 201 151 146
0.0796314924955368 0.006799003109335899 0.13600000739097595 193 143 138
0.07995127886533737 0.006799003109335899 0.13600000739097595 191 142 132
0.08027107268571854 0.006799003109335899 0.13600000739097595 186 137 127
0.0805908590555191 0.006799003109335899 0.13600000739097595 180 135 122
0.08091065287590027 0.006799003109335899 0.13600000739097595 176 131 118
0.08123043924570084 0.006799003109335899 0.13600000739097595 172 128 110
0.081550233066082 0.006799003109335899 0.13600000739097595 169 125 107
0.08218980580568314 0.006799003109335899 0.13600000739097595 172 126 108
0.08282938599586487 0.006799003109335899 0.13600000739097595 179 132 110
0.08314917981624603 0.006799003109335899 0.13600000739097595 195 148 126
0.0834689661860466 0.006799003109335899 0.13600000739097595 188 141 119
0.08378876000642776 0.006799003109335899 0.13600000739097595 190 141 129
0.08410854637622833 0.006799003109335899 0.13600000739097595 182 133 121
0.0844283327460289 0.006799003109335899 0.13600000739097595 174 124 117
0.08474812656641006 0.006799003109335899 0.13600000739097595 179 129 122
0.08506791293621063 0.006799003109335899 0.13600000739097595 179 129 126
0.0873064398765564 0.006799003109335899 0.13600000739097595 186 133 120
0.08827054500579834 0.006848995573818684 0.13699999451637268 183 132 118
0.08859268575906754 0.006848995573818684 0.13699999451637268 200 149 135
0.08891482651233673 0.006848995573818684 0.13699999451637268 188 145 138
0.08923696726560593 0.006848995573818684 0.13699999451637268 189 146 139
0.08955910801887512 0.006848995573818684 0.13699999451637268 185 143 140
0.08988124877214432 0.006848995573818684 0.13699999451637268 183 141 138
0.09020338952541351 0.006848995573818684 0.13699999451637268 179 142 137
0.09052553027868271 0.006848995573818684 0.13699999451637268 177 140 135
0.0908476710319519 0.006848995573818684 0.13699999451637268 171 136 131
0.0911698117852211 0.006848995573818684 0.13699999451637268 164 129 124
0.0914919525384903 0.006848995573818684 0.13699999451637268 168 126 123
0.055760595947504044 0.007956298068165779 0.15199999511241913 252 69 80
0.05647541955113411 0.007956298068165779 0.15199999511241913 245 74 85
0.05683283135294914 0.007956298068165779 0.15199999511241913 255 85 96
0.057190243154764175 0.007956298068165779 0.15199999511241913 255 94 102
0.05754765495657921 0.007956298068165779 0.15199999511241913 255 96 104
0.05790506675839424 0.007956298068165779 0.15199999511241913 255 96 103
0.058262478560209274 0.007956298068165779 0.15199999511241913 255 103 110
0.05861989036202431 0.007956298068165779 0.15199999511241913 255 107 114
0.05897730588912964 0.007956298068165779 0.15199999511241913 255 103 110
0.05894435569643974 0.00790395401418209 0.1509999930858612 255 102 108
0.05929941684007645 0.00790395401418209 0.1509999930858612 250 95 101
0.05965447798371315 0.00790395401418209 0.1509999930858612 247 101 101
0.060009539127349854 0.00790395401418209 0.1509999930858612 254 108 108
0.06036459654569626 0.00790395401418209 0.1509999930858612 249 117 112
0.06071965768933296 0.00790395401418209 0.1509999930858612 254 122 117
0.061074718832969666 0.00790395401418209 0.1509999930858612 253 133 124
0.06142977997660637 0.00790395401418209 0.1509999930858612 255 140 131
0.06137567013502121 0.007851609960198402 0.15000000596046448 255 146 141
0.061728376895189285 0.007851609960198402 0.15000000596046448 255 146 141
0.06208108738064766 0.007851609960198402 0.15000000596046448 255 146 143
0.062017571181058884 0.007799265440553427 0.14900000393390656 255 146 143
0.06236792728304863 0.007799265440553427 0.14900000393390656 253 147 143
0.06271828711032867 0.007799265440553427 0.14900000393390656 255 151 147
0.06264536082744598 0.007746921386569738 0.14800000190734863 253 155 148
0.0629933699965477 0.007746921386569738 0.14800000190734863 239 141 134
0.06291339546442032 0.00769457733258605 0.1469999998807907 248 203 192
0.0632590502500534 0.00769457733258605 0.1469999998807907 255 242 231
0.06360470503568649 0.00769457733258605 0.1469999998807907 255 255 243
0.06395035982131958 0.00769457733258605 0.1469999998807907 255 255 243
0.06385862827301025 0.007642233278602362 0.1459999978542328 254 255 249
0.06420192867517471 0.007642233278602362 0.1459999978542328 254 255 249
0.06454523652791977 0.007642233278602362 0.1459999978542328 254 255 249
0.06488853693008423 0.007642233278602362 0.1459999978542328 254 255 249
0.06523183733224869 0.007642233278602362 0.1459999978542328 254 255 249
0.06557514518499374 0.007642233278602362 0.1459999978542328 254 255 249
0.06546695530414581 0.007589889224618673 0.14499999582767487 254 255 249
0.06580790132284164 0.007589889224618673 0.14499999582767487 254 255 249
0.06614885479211807 0.007589889224618673 0.14499999582767487 255 255 247
0.06603125482797623 0.007537545170634985 0.14399999380111694 255 253 245
0.06636986136436462 0.007537545170634985 0.14399999380111694 255 238 236
0.06624520570039749 0.007485201116651297 0.14300000667572021 244 213 211
0.06658145785331726 0.007485201116651297 0.14300000667572021 239 189 182
0.06691770255565643 0.007485201116651297 0.14300000667572021 243 193 186
0.0672539547085762 0.007485201116651297 0.14300000667572021 242 194 175
0.06759020686149597 0.007485201116651297 0.14300000667572021 239 191 172
0.06745143979787827 0.007432857062667608 0.1420000046491623 255 247 226
0.0677853375673294 0.007432857062667608 0.1420000046491623 255 250 229
0.06811923533678055 0.007432857062667608 0.1420000046491623 254 255 243
0.06845313310623169 0.007432857062667608 0.1420000046491623 254 255 243
0.06878703087568283 0.007432857062667608 0.1420000046491623 254 255 249
0.06912093609571457 0.007432857062667608 0.1420000046491623 254 255 249
0.06945483386516571 0.007432857062667608 0.1420000046491623 254 255 249
0.06978873163461685 0.007432857062667608 0.1420000046491623 254 255 249
0.06962880492210388 0.00738051300868392 0.14100000262260437 254 255 249
0.0699603483080864 0.00738051300868392 0.14100000262260437 254 255 249
0.0702918991446495 0.00738051300868392 0.14100000262260437 254 255 249
0.07012256979942322 0.0073281689547002316 0.14000000059604645 254 255 249
0.0704517662525177 0.0073281689547002316 0.14000000059604645 255 251 247
0.07027538120746613 0.007275824900716543 0.13899999856948853 246 241 237
0.07009429484605789 0.007223480846732855 0.1379999965429306 254 217 224
0.07041878998279572 0.007223480846732855 0.1379999965429306 228 191 198
0.07074327766895294 0.007223480846732855 0.1379999965429306 212 153 158
0.07171675562858582 0.007223480846732855 0.1379999965429306 221 171 166
0.07204125076532364 0.007223480846732855 0.1379999965429306 255 234 221
0.07236573845148087 0.007223480846732855 0.1379999965429306 255 246 233
0.07269023358821869 0.007223480846732855 0.1379999965429306 255 230 220
0.07248563319444656 0.0071711367927491665 0.13699999451637268 250 221 211
0.07280777394771576 0.0071711367927491665 0.13699999451637268 243 192 194
0.07312991470098495 0.0071711367927491665 0.13699999451637268 226 175 177
0.07345205545425415 0.0071711367927491665 0.13699999451637268 227 169 169
0.07377419620752335 0.0071711367927491665 0.13699999451637268 237 179 179
0.07355549186468124 0.007118792738765478 0.13600000739097595 224 169 168
0.07387527823448181 0.007118792738765478 0.13600000739097595 222 167 166
0.07364951819181442 0.00706644868478179 0.13500000536441803 223 169 170
0.07396695762872696 0.00706644868478179 0.13500000536441803 223 169 170
0.0742843970656395 0.00706644868478179 0.13500000536441803 214 164 161
0.07460182905197144 0.00706644868478179 0.13500000536441803 203 153 150
0.07491926848888397 0.00706644868478179 0.13500000536441803 191 138 132
0.07523670792579651 0.00706644868478179 0.13500000536441803 187 134 128
0.07555414736270905 0.00706644868478179 0.13500000536441803 188 132 116
0.07618902623653412 0.00706644868478179 0.13500000536441803 214 151 137
0.07650645822286606 0.00706644868478179 0.13500000536441803 213 150 136
0.0768238976597786 0.00706644868478179 0.13500000536441803 216 159 150
0.07771275192499161 0.007118792738765478 0.13600000739097595 214 157 148
0.07803254574537277 0.007118792738765478 0.13600000739097595 200 144 146
0.07835233211517334 0.007118792738765478 0.13600000739097595 200 144 146
0.0786721259355545 0.007118792738765478 0.13600000739097595 198 145 143
0.07899191230535507 0.007118792738765478 0.13600000739097595 195 142 140
0.07931170612573624 0.007118792738765478 0.13600000739097595 188 135 129
0.0796314924955368 0.007118792738765478 0.13600000739097595 192 139 133
0.07995127886533737 0.007118792738765478 0.13600000739097595 195 146 136
0.08027107268571854 0.007118792738765478 0.13600000739097595 180 131 121
0.0805908590555191 0.007118792738765478 0.13600000739097595 175 130 119
0.08091065287590027 0.007118792738765478 0.13600000739097595 171 126 115
0.08222034573554993 0.00706644868478179 0.13500000536441803 178 128 105
0.08253778517246246 0.00706644868478179 0.13500000536441803 189 139 118
0.082855224609375 0.00706644868478179 0.13500000536441803 180 130 109
0.08317266404628754 0.00706644868478179 0.13500000536441803 176 124 113
0.08410854637622833 0.007118792738765478 0.13600000739097595 189 137 126
0.0844283327460289 0.007118792738765478 0.13600000739097595 180 127 121
0.08474812656641006 0.007118792738765478 0.13600000739097595 182 129 123
0.08506791293621063 0.007118792738765478 0.13600000739097595 185 132 130
0.0873064398765564 0.007118792738765478 0.13600000739097595 176 123 108
0.08827054500579834 0.0071711367927491665 0.13699999451637268 192 139 124
0.08859268575906754 0.0071711367927491665 0.13699999451637268 194 141 126
0.08891482651233673 0.0071711367927491665 0.13699999451637268 189 142 131
0.08923696726560593 0.0071711367927491665 0.13699999451637268 192 145 134
0.08955910801887512 0.0071711367927491665 0.13699999451637268 184 143 137
0.08988124877214432 0.0071711367927491665 0.13699999451637268 174 133 127
0.09020338952541351 0.0071711367927491665 0.13699999451637268 184 148 140
0.09052553027868271 0.0071711367927491665 0.13699999451637268 176 140 132
0.0908476710319519 0.0071711367927491665 0.13699999451637268 170 133 128
0.0911698117852211 0.0071711367927491665 0.13699999451637268 162 125 120
0.055760595947504044 0.008313709869980812 0.15199999511241913 254 76 85
0.05611800774931908 0.008313709869980812 0.15199999511241913 253 75 84
0.056103870272636414 0.00825901422649622 0.1509999930858612 244 79 90
0.05645893141627312 0.00825901422649622 0.1509999930858612 255 99 110
0.05681399255990982 0.00825901422649622 0.1509999930858612 255 101 110
0.057169053703546524 0.00825901422649622 0.1509999930858612 255 96 105
0.05752411484718323 0.00825901422649622 0.1509999930858612 253 95 104
0.05787917599081993 0.00825901422649622 0.1509999930858612 250 92 101
0.058234233409166336 0.00825901422649622 0.1509999930858612 254 96 103
0.05858929455280304 0.00825901422649622 0.1509999930858612 255 97 104
0.05894435569643974 0.00825901422649622 0.1509999930858612 252 98 101
0.05929941684007645 0.00825901422649622 0.1509999930858612 254 100 103
0.05965447798371315 0.00825901422649622 0.1509999930858612 254 109 109
0.060009539127349854 0.00825901422649622 0.1509999930858612 255 111 111
0.06036459654569626 0.00825901422649622 0.1509999930858612 252 120 115
0.06071965768933296 0.00825901422649622 0.1509999930858612 255 127 122
0.061074718832969666 0.00825901422649622 0.1509999930858612 255 137 128
0.06142977997660637 0.00825901422649622 0.1509999930858612 255 139 130
0.06137567013502121 0.008204318583011627 0.15000000596046448 253 139 133
0.061728376895189285 0.008204318583011627 0.15000000596046448 253 139 133
0.06208108738064766 0.008204318583011627 0.15000000596046448 251 142 136
0.062017571181058884 0.008149622939527035 0.14900000393390656 254 145 139
0.06236792728304863 0.008149622939527035 0.14900000393390656 255 148 145
0.062297359108924866 0.008094928227365017 0.14800000190734863 254 146 143
0.06264536082744598 0.008094928227365017 0.14800000190734863 253 150 145
0.0629933699965477 0.008094928227365017 0.14800000190734863 246 143 138
0.06291339546442032 0.008040232583880424 0.1469999998807907 243 198 187
0.0632590502500534 0.008040232583880424 0.1469999998807907 255 242 231
0.06360470503568649 0.008040232583880424 0.1469999998807907 255 255 243
0.0635153204202652 0.007985536940395832 0.1459999978542328 255 255 243
0.06385862827301025 0.007985536940395832 0.1459999978542328 254 255 249
0.06420192867517471 0.007985536940395832 0.1459999978542328 254 255 249
0.06454523652791977 0.007985536940395832 0.1459999978542328 254 255 249
0.06488853693008423 0.007985536940395832 0.1459999978542328 254 255 249
0.06523183733224869 0.007985536940395832 0.1459999978542328 254 255 249
0.06557514518499374 0.007985536940395832 0.1459999978542328 254 255 249
0.06546695530414581 0.00793084129691124 0.14499999582767487 254 255 249
0.06580790132284164 0.00793084129691124 0.14499999582767487 253 254 248
0.06569265574216843 0.007876145653426647 0.14399999380111694 254 244 244
0.06603125482797623 0.007876145653426647 0.14399999380111694 239 229 229
0.06636986136436462 0.007876145653426647 0.14399999380111694 252 213 211
0.06624520570039749 0.00782145094126463 0.14300000667572021 244 205 203
0.06658145785331726 0.00782145094126463 0.14300000667572021 248 192 180
0.06691770255565643 0.00782145094126463 0.14300000667572021 250 194 182
0.0672539547085762 0.00782145094126463 0.14300000667572021 242 187 166
0.06759020686149597 0.00782145094126463 0.14300000667572021 241 186 165
0.06745143979787827 0.00776675483211875 0.1420000046491623 255 247 228
0.0677853375673294 0.00776675483211875 0.1420000046491623 255 250 231
0.06811923533678055 0.00776675483211875 0.1420000046491623 254 255 243
0.06845313310623169 0.00776675483211875 0.1420000046491623 254 255 243
0.06878703087568283 0.00776675483211875 0.1420000046491623 254 255 249
0.06912093609571457 0.00776675483211875 0.1420000046491623 254 255 249
0.06945483386516571 0.00776675483211875 0.1420000046491623 254 255 249
0.06978873163461685 0.00776675483211875 0.1420000046491623 254 255 249
0.06962880492210388 0.0077120596542954445 0.14100000262260437 254 255 249
0.0699603483080864 0.0077120596542954445 0.14100000262260437 254 255 249
0.06979337334632874 0.007657364010810852 0.14000000059604645 254 255 249
0.07012256979942322 0.007657364010810852 0.14000000059604645 251 252 246
0.06994853913784027 0.007602668832987547 0.13899999856948853 249 239 237
0.07027538120746613 0.007602668832987547 0.13899999856948853 246 236 234
0.07009429484605789 0.0075479731895029545 0.1379999965429306 248 203 208
0.07041878998279572 0.0075479731895029545 0.1379999965429306 230 185 190
0.07074327766895294 0.0075479731895029545 0.1379999965429306 222 161 164
0.07171675562858582 0.0075479731895029545 0.1379999965429306 216 164 153
0.07204125076532364 0.0075479731895029545 0.1379999965429306 255 228 216
0.07236573845148087 0.0075479731895029545 0.1379999965429306 255 244 232
0.07269023358821869 0.0075479731895029545 0.1379999965429306 254 224 219
0.07301472872495651 0.0075479731895029545 0.1379999965429306 242 212 207
0.07280777394771576 0.007493277546018362 0.13699999451637268 244 194 198
0.07312991470098495 0.007493277546018362 0.13699999451637268 223 173 177
0.07345205545425415 0.007493277546018362 0.13699999451637268 222 166 168
0.07377419620752335 0.007493277546018362 0.13699999451637268 232 176 178
0.07355549186468124 0.007438582368195057 0.13600000739097595 224 170 171
0.07387527823448181 0.007438582368195057 0.13600000739097595 218 164 165
0.07364951819181442 0.0073838867247104645 0.13500000536441803 219 165 168
0.07396695762872696 0.0073838867247104645 0.13500000536441803 214 160 163
0.0742843970656395 0.0073838867247104645 0.13500000536441803 219 158 161
0.07460182905197144 0.0073838867247104645 0.13500000536441803 207 146 149
0.07491926848888397 0.0073838867247104645 0.13500000536441803 195 134 126
0.07523670792579651 0.0073838867247104645 0.13500000536441803 191 130 122
0.07555414736270905 0.0073838867247104645 0.13500000536441803 192 129 115
0.07587158679962158 0.0073838867247104645 0.13500000536441803 182 119 105
0.07618902623653412 0.0073838867247104645 0.13500000536441803 195 127 115
0.07650645822286606 0.0073838867247104645 0.13500000536441803 218 150 138
0.0768238976597786 0.0073838867247104645 0.13500000536441803 222 164 152
0.07771275192499161 0.007438582368195057 0.13600000739097595 216 158 146
0.07803254574537277 0.007438582368195057 0.13600000739097595 203 148 147
0.07835233211517334 0.007438582368195057 0.13600000739097595 201 146 145
0.0786721259355545 0.007438582368195057 0.13600000739097595 196 141 140
0.07899191230535507 0.007438582368195057 0.13600000739097595 203 148 147
0.07931170612573624 0.007438582368195057 0.13600000739097595 197 142 139
0.0796314924955368 0.007438582368195057 0.13600000739097595 194 139 136
0.07995127886533737 0.007438582368195057 0.13600000739097595 193 139 131
0.08027107268571854 0.007438582368195057 0.13600000739097595 183 129 121
0.0805908590555191 0.007438582368195057 0.13600000739097595 170 123 112
0.08091065287590027 0.007438582368195057 0.13600000739097595 170 123 112
0.08123043924570084 0.007438582368195057 0.13600000739097595 170 128 114
0.08222034573554993 0.0073838867247104645 0.13500000536441803 179 127 105
0.08253778517246246 0.0073838867247104645 0.13500000536441803 183 133 112
0.082855224609375 0.0073838867247104645 0.13500000536441803 180 130 109
0.08317266404628754 0.0073838867247104645 0.13500000536441803 176 127 115
0.08349010348320007 0.0073838867247104645 0.13500000536441803 183 134 122
0.08380754292011261 0.0073838867247104645 0.13500000536441803 181 131 126
0.08412497490644455 0.0073838867247104645 0.13500000536441803 180 130 125
0.08506791293621063 0.007438582368195057 0.13600000739097595 188 134 135
0.0853877067565918 0.007438582368195057 0.13600000739097595 176 122 123
0.0873064398765564 0.007438582368195057 0.13600000739097595 177 126 110
0.08827054500579834 0.007493277546018362 0.13699999451637268 185 132 119
0.08859268575906754 0.007493277546018362 0.13699999451637268 194 141 128
0.08891482651233673 0.007493277546018362 0.13699999451637268 185 138 127
0.08923696726560593 0.007493277546018362 0.13699999451637268 187 140 129
0.08955910801887512 0.007493277546018362 0.13699999451637268 184 143 133
0.08988124877214432 0.007493277546018362 0.13699999451637268 175 134 124
0.09020338952541351 0.007493277546018362 0.13699999451637268 170 132 123
0.09052553027868271 0.007493277546018362 0.13699999451637268 172 134 125
0.0908476710319519 0.007493277546018362 0.13699999451637268 172 134 127
0.0911698117852211 0.007493277546018362 0.13699999451637268 173 135 128
0.0914919525384903 0.007493277546018362 0.13699999451637268 169 125 123
0.055393751710653305 0.008614074438810349 0.1509999930858612 255 86 97
0.05574881285429001 0.008614074438810349 0.1509999930858612 255 85 96
0.056103870272636414 0.008614074438810349 0.1509999930858612 255 98 107
0.05645893141627312 0.008614074438810349 0.1509999930858612 255 104 113
0.05681399255990982 0.008614074438810349 0.1509999930858612 255 103 112
0.057169053703546524 0.008614074438810349 0.1509999930858612 254 96 105
0.05752411484718323 0.008614074438810349 0.1509999930858612 251 98 105
0.05787917599081993 0.008614074438810349 0.1509999930858612 246 93 100
0.058234233409166336 0.008614074438810349 0.1509999930858612 237 82 90
0.05858929455280304 0.008614074438810349 0.1509999930858612 247 92 100
0.05894435569643974 0.008614074438810349 0.1509999930858612 253 100 105
0.05929941684007645 0.008614074438810349 0.1509999930858612 255 103 108
0.05965447798371315 0.008614074438810349 0.1509999930858612 252 107 107
0.060009539127349854 0.008614074438810349 0.1509999930858612 254 109 109
0.06036459654569626 0.008614074438810349 0.1509999930858612 253 121 116
0.06071965768933296 0.008614074438810349 0.1509999930858612 255 127 122
0.061074718832969666 0.008614074438810349 0.1509999930858612 254 132 124
0.061022959649562836 0.008557028137147427 0.15000000596046448 255 133 125
0.06137567013502121 0.008557028137147427 0.15000000596046448 255 139 132
0.061728376895189285 0.008557028137147427 0.15000000596046448 255 140 133
0.06166721135377884 0.00849998090416193 0.14900000393390656 255 144 137
0.062017571181058884 0.00849998090416193 0.14900000393390656 254 143 136
0.06236792728304863 0.00849998090416193 0.14900000393390656 250 139 134
0.062297359108924866 0.008442933671176434 0.14800000190734863 246 135 130
0.06264536082744598 0.008442933671176434 0.14800000190734863 243 135 132
0.06256774067878723 0.008385887369513512 0.1469999998807907 241 133 130
0.06291339546442032 0.008385887369513512 0.1469999998807907 233 188 177
0.0632590502500534 0.008385887369513512 0.1469999998807907 255 242 231
0.06360470503568649 0.008385887369513512 0.1469999998807907 255 255 243
0.0635153204202652 0.008328840136528015 0.1459999978542328 255 255 243
0.06385862827301025 0.008328840136528015 0.1459999978542328 254 255 249
0.06420192867517471 0.008328840136528015 0.1459999978542328 254 255 249
0.06454523652791977 0.008328840136528015 0.1459999978542328 254 255 249
0.06488853693008423 0.008328840136528015 0.1459999978542328 254 255 249
0.06523183733224869 0.008328840136528015 0.1459999978542328 254 255 249
0.06512600183486938 0.008271793834865093 0.14499999582767487 254 255 249
0.06546695530414581 0.008271793834865093 0.14499999582767487 254 255 249
0.06580790132284164 0.008271793834865093 0.14499999582767487 252 253 247
0.06569265574216843 0.008214746601879597 0.14399999380111694 244 229 230
0.06603125482797623 0.008214746601879597 0.14399999380111694 234 219 220
0.06636986136436462 0.008214746601879597 0.14399999380111694 248 201 202
0.06624520570039749 0.008157700300216675 0.14300000667572021 236 189 190
0.06658145785331726 0.008157700300216675 0.14300000667572021 251 186 175
0.06691770255565643 0.008157700300216675 0.14300000667572021 251 186 175
0.0672539547085762 0.008157700300216675 0.14300000667572021 241 182 164
0.06759020686149597 0.008157700300216675 0.14300000667572021 236 177 159
0.06745143979787827 0.008100653067231178 0.1420000046491623 250 226 212
0.0677853375673294 0.008100653067231178 0.1420000046491623 255 249 235
0.06811923533678055 0.008100653067231178 0.1420000046491623 254 255 247
0.06845313310623169 0.008100653067231178 0.1420000046491623 254 255 247
0.06878703087568283 0.008100653067231178 0.1420000046491623 254 255 249
0.06912093609571457 0.008100653067231178 0.1420000046491623 254 255 249
0.06945483386516571 0.008100653067231178 0.1420000046491623 254 255 249
0.06929726153612137 0.008043605834245682 0.14100000262260437 254 255 249
0.06962880492210388 0.008043605834245682 0.14100000262260437 254 255 249
0.0699603483080864 0.008043605834245682 0.14100000262260437 254 255 249
0.06979337334632874 0.00798655953258276 0.14000000059604645 254 255 249
0.06962169706821442 0.007929512299597263 0.13899999856948853 251 252 246
0.06994853913784027 0.007929512299597263 0.13899999856948853 255 243 245
0.07027538120746613 0.007929512299597263 0.13899999856948853 253 231 233
0.07009429484605789 0.007872465997934341 0.1379999965429306 240 188 193
0.07041878998279572 0.007872465997934341 0.1379999965429306 235 183 188
0.07074327766895294 0.007872465997934341 0.1379999965429306 220 155 155
0.07171675562858582 0.007872465997934341 0.1379999965429306 212 154 142
0.07204125076532364 0.007872465997934341 0.1379999965429306 255 228 218
0.07236573845148087 0.007872465997934341 0.1379999965429306 255 245 235
0.07269023358821869 0.007872465997934341 0.1379999965429306 255 226 230
0.07301472872495651 0.007872465997934341 0.1379999965429306 245 209 213
0.07280777394771576 0.007815418764948845 0.13699999451637268 244 194 198
0.07312991470098495 0.007815418764948845 0.13699999451637268 232 182 186
0.07345205545425415 0.007815418764948845 0.13699999451637268 219 165 166
0.07377419620752335 0.007815418764948845 0.13699999451637268 223 169 170
0.07355549186468124 0.007758371997624636 0.13600000739097595 232 181 183
0.07387527823448181 0.007758371997624636 0.13600000739097595 223 172 174
0.07364951819181442 0.0077013252303004265 0.13500000536441803 217 163 166
0.07396695762872696 0.0077013252303004265 0.13500000536441803 211 157 160
0.0742843970656395 0.0077013252303004265 0.13500000536441803 224 158 163
0.07460182905197144 0.0077013252303004265 0.13500000536441803 219 153 158
0.07491926848888397 0.0077013252303004265 0.13500000536441803 204 135 130
0.07523670792579651 0.0077013252303004265 0.13500000536441803 196 127 122
0.07555414736270905 0.0077013252303004265 0.13500000536441803 193 123 109
0.07587158679962158 0.0077013252303004265 0.13500000536441803 189 119 105
0.07618902623653412 0.0077013252303004265 0.13500000536441803 193 126 111
0.07650645822286606 0.0077013252303004265 0.13500000536441803 217 150 135
0.0768238976597786 0.0077013252303004265 0.13500000536441803 210 151 142
0.07771275192499161 0.007758371997624636 0.13600000739097595 211 152 143
0.07803254574537277 0.007758371997624636 0.13600000739097595 213 157 159
0.07835233211517334 0.007758371997624636 0.13600000739097595 201 145 147
0.0786721259355545 0.007758371997624636 0.13600000739097595 191 132 137
0.07899191230535507 0.007758371997624636 0.13600000739097595 194 135 140
0.07931170612573624 0.007758371997624636 0.13600000739097595 186 127 130
0.0796314924955368 0.007758371997624636 0.13600000739097595 191 132 135
0.07995127886533737 0.007758371997624636 0.13600000739097595 190 128 125
0.08027107268571854 0.007758371997624636 0.13600000739097595 184 122 119
0.0805908590555191 0.007758371997624636 0.13600000739097595 176 122 114
0.08091065287590027 0.007758371997624636 0.13600000739097595 177 123 115
0.08123043924570084 0.007758371997624636 0.13600000739097595 173 126 113
0.08095059543848038 0.0077013252303004265 0.13500000536441803 175 128 115
0.08126803487539291 0.0077013252303004265 0.13500000536441803 175 124 108
0.08222034573554993 0.0077013252303004265 0.13500000536441803 176 124 104
0.08253778517246246 0.0077013252303004265 0.13500000536441803 182 134 115
0.082855224609375 0.0077013252303004265 0.13500000536441803 181 133 114
0.08317266404628754 0.0077013252303004265 0.13500000536441803 181 132 122
0.08349010348320007 0.0077013252303004265 0.13500000536441803 179 130 120
0.08380754292011261 0.0077013252303004265 0.13500000536441803 173 123 118
0.08412497490644455 0.0077013252303004265 0.13500000536441803 181 131 126
0.08506791293621063 0.007758371997624636 0.13600000739097595 184 128 130
0.08827054500579834 0.007815418764948845 0.13699999451637268 179 122 113
0.08859268575906754 0.007815418764948845 0.13699999451637268 187 130 121
0.08891482651233673 0.007815418764948845 0.13699999451637268 183 131 122
0.08923696726560593 0.007815418764948845 0.13699999451637268 190 138 129
0.08955910801887512 0.007815418764948845 0.13699999451637268 185 139 131
0.08988124877214432 0.007815418764948845 0.13699999451637268 177 131 123
0.09020338952541351 0.007815418764948845 0.13699999451637268 178 135 128
0.09052553027868271 0.007815418764948845 0.13699999451637268 177 134 127
0.0908476710319519 0.007815418764948845 0.13699999451637268 173 127 121
0.0911698117852211 0.007815418764948845 0.13699999451637268 170 124 118
0.0914919525384903 0.007815418764948845 0.13699999451637268 172 121 121
0.055393751710653305 0.008969135582447052 0.1509999930858612 253 86 96
0.05537961423397064 0.008909736759960651 0.15000000596046448 255 96 106
0.055732324719429016 0.008909736759960651 0.15000000596046448 255 106 114
0.05608503147959709 0.008909736759960651 0.15000000596046448 255 104 112
0.056437741965055466 0.008909736759960651 0.15000000596046448 255 105 113
0.05679044872522354 0.008909736759960651 0.15000000596046448 250 95 103
0.057143159210681915 0.008909736759960651 0.15000000596046448 254 96 105
0.05749586969614029 0.008909736759960651 0.15000000596046448 255 99 108
0.058234233409166336 0.008969135582447052 0.1509999930858612 250 92 99
0.05858929455280304 0.008969135582447052 0.1509999930858612 245 87 94
0.05894435569643974 0.008969135582447052 0.1509999930858612 247 94 99
0.05929941684007645 0.008969135582447052 0.1509999930858612 254 101 106
0.05965447798371315 0.008969135582447052 0.1509999930858612 255 114 117
0.060009539127349854 0.008969135582447052 0.1509999930858612 254 108 111
0.06036459654569626 0.008969135582447052 0.1509999930858612 254 120 116
0.06071965768933296 0.008969135582447052 0.1509999930858612 255 129 125
0.061074718832969666 0.008969135582447052 0.1509999930858612 253 128 119
0.061022959649562836 0.008909736759960651 0.15000000596046448 255 131 122
0.06137567013502121 0.008909736759960651 0.15000000596046448 253 135 126
0.06131685525178909 0.008850338868796825 0.14900000393390656 255 141 132
0.06166721135377884 0.008850338868796825 0.14900000393390656 254 140 132
0.062017571181058884 0.008850338868796825 0.14900000393390656 249 135 127
0.06194935366511345 0.008790940046310425 0.14800000190734863 247 133 127
0.062297359108924866 0.008790940046310425 0.14800000190734863 248 134 128
0.06264536082744598 0.008790940046310425 0.14800000190734863 245 133 131
0.06256774067878723 0.008731542155146599 0.1469999998807907 237 125 123
0.06291339546442032 0.008731542155146599 0.1469999998807907 237 188 176
0.0632590502500534 0.008731542155146599 0.1469999998807907 255 241 229
0.06360470503568649 0.008731542155146599 0.1469999998807907 255 255 241
0.0635153204202652 0.008672144263982773 0.1459999978542328 255 255 241
0.06385862827301025 0.008672144263982773 0.1459999978542328 254 255 247
0.06420192867517471 0.008672144263982773 0.1459999978542328 254 255 247
0.06454523652791977 0.008672144263982773 0.1459999978542328 254 255 249
0.06444409489631653 0.008612745441496372 0.14499999582767487 254 255 249
0.06478504836559296 0.008612745441496372 0.14499999582767487 254 255 249
0.06512600183486938 0.008612745441496372 0.14499999582767487 254 255 249
0.06546695530414581 0.008612745441496372 0.14499999582767487 255 255 251
0.06580790132284164 0.008612745441496372 0.14499999582767487 254 254 250
0.06569265574216843 0.008553347550332546 0.14399999380111694 244 217 222
0.06603125482797623 0.008553347550332546 0.14399999380111694 237 210 215
0.06590895354747772 0.008493948727846146 0.14300000667572021 250 194 196
0.06624520570039749 0.008493948727846146 0.14300000667572021 235 179 181
0.06658145785331726 0.008493948727846146 0.14300000667572021 238 166 157
0.06691770255565643 0.008493948727846146 0.14300000667572021 244 172 163
0.0672539547085762 0.008493948727846146 0.14300000667572021 234 174 159
0.06759020686149597 0.008493948727846146 0.14300000667572021 217 157 142
0.06745143979787827 0.00843455083668232 0.1420000046491623 214 190 174
0.0677853375673294 0.00843455083668232 0.1420000046491623 255 249 233
0.06811923533678055 0.00843455083668232 0.1420000046491623 255 255 245
0.06845313310623169 0.00843455083668232 0.1420000046491623 255 255 245
0.06878703087568283 0.00843455083668232 0.1420000046491623 254 255 249
0.06912093609571457 0.00843455083668232 0.1420000046491623 254 255 249
0.06945483386516571 0.00843455083668232 0.1420000046491623 254 255 249
0.06929726153612137 0.008375152945518494 0.14100000262260437 254 255 249
0.06962880492210388 0.008375152945518494 0.14100000262260437 254 255 249
0.0699603483080864 0.008375152945518494 0.14100000262260437 254 255 249
0.06979337334632874 0.008315754123032093 0.14000000059604645 254 251 246
0.06962169706821442 0.008256356231868267 0.13899999856948853 228 225 220
0.06994853913784027 0.008256356231868267 0.13899999856948853 255 219 221
0.07027538120746613 0.008256356231868267 0.13899999856948853 255 219 221
0.07009429484605789 0.008196958340704441 0.1379999965429306 246 186 186
0.07041878998279572 0.008196958340704441 0.1379999965429306 222 162 162
0.07074327766895294 0.008196958340704441 0.1379999965429306 219 147 145
0.07139226794242859 0.008196958340704441 0.1379999965429306 188 120 110
0.07171675562858582 0.008196958340704441 0.1379999965429306 211 143 133
0.07204125076532364 0.008196958340704441 0.1379999965429306 255 218 214
0.07236573845148087 0.008196958340704441 0.1379999965429306 255 241 237
0.07269023358821869 0.008196958340704441 0.1379999965429306 255 228 238
0.07301472872495651 0.008196958340704441 0.1379999965429306 252 206 216
0.07333921641111374 0.008196958340704441 0.1379999965429306 246 194 203
0.07366371154785156 0.008196958340704441 0.1379999965429306 245 193 202
0.07345205545425415 0.00813755951821804 0.13699999451637268 231 176 184
0.07377419620752335 0.00813755951821804 0.13699999451637268 220 165 173
0.07355549186468124 0.008078161627054214 0.13600000739097595 221 171 175
0.07387527823448181 0.008078161627054214 0.13600000739097595 214 164 168
0.07419507205486298 0.008078161627054214 0.13600000739097595 217 161 165
0.07396695762872696 0.008018762804567814 0.13500000536441803 206 150 154
0.0742843970656395 0.008018762804567814 0.13500000536441803 203 141 142
0.07460182905197144 0.008018762804567814 0.13500000536441803 199 137 138
0.07491926848888397 0.008018762804567814 0.13500000536441803 187 122 113
0.07523670792579651 0.008018762804567814 0.13500000536441803 189 124 115
0.07555414736270905 0.008018762804567814 0.13500000536441803 185 119 99
0.07587158679962158 0.008018762804567814 0.13500000536441803 187 121 101
0.07618902623653412 0.008018762804567814 0.13500000536441803 191 124 109
0.07650645822286606 0.008018762804567814 0.13500000536441803 207 140 125
0.0768238976597786 0.008018762804567814 0.13500000536441803 205 147 143
0.07771275192499161 0.008078161627054214 0.13600000739097595 210 152 148
0.07803254574537277 0.008078161627054214 0.13600000739097595 212 153 158
0.07835233211517334 0.008078161627054214 0.13600000739097595 203 144 149
0.0786721259355545 0.008078161627054214 0.13600000739097595 194 134 142
0.07899191230535507 0.008078161627054214 0.13600000739097595 185 125 133
0.07931170612573624 0.008078161627054214 0.13600000739097595 190 130 130
0.0796314924955368 0.008078161627054214 0.13600000739097595 187 127 127
0.07995127886533737 0.008078161627054214 0.13600000739097595 193 129 124
0.08027107268571854 0.008078161627054214 0.13600000739097595 184 120 115
0.0805908590555191 0.008078161627054214 0.13600000739097595 187 128 119
0.08091065287590027 0.008078161627054214 0.13600000739097595 182 123 114
0.08222034573554993 0.008018762804567814 0.13500000536441803 177 124 107
0.08253778517246246 0.008018762804567814 0.13500000536441803 178 127 109
0.082855224609375 0.008018762804567814 0.13500000536441803 180 129 111
0.08317266404628754 0.008018762804567814 0.13500000536441803 180 131 119
0.08349010348320007 0.008018762804567814 0.13500000536441803 176 127 115
0.08380754292011261 0.008018762804567814 0.13500000536441803 180 127 121
0.08412497490644455 0.008018762804567814 0.13500000536441803 180 127 121
0.08827054500579834 0.00813755951821804 0.13699999451637268 178 125 112
0.08859268575906754 0.00813755951821804 0.13699999451637268 178 125 112
0.08891482651233673 0.00813755951821804 0.13699999451637268 190 138 127
0.08923696726560593 0.00813755951821804 0.13699999451637268 191 139 128
0.08955910801887512 0.00813755951821804 0.13699999451637268 189 140 130
0.08988124877214432 0.00813755951821804 0.13699999451637268 185 136 126
0.09020338952541351 0.00813755951821804 0.13699999451637268 186 136 129
0.09052553027868271 0.00813755951821804 0.13699999451637268 183 133 126
0.0908476710319519 0.00813755951821804 0.13699999451637268 176 126 121
0.0911698117852211 0.00813755951821804 0.13699999451637268 171 121 116
0.0914919525384903 0.00813755951821804 0.13699999451637268 178 120 120
0.05502690374851227 0.00926244631409645 0.15000000596046448 255 94 100
0.05537961423397064 0.00926244631409645 0.15000000596046448 255 110 116
0.05536077544093132 0.00920069683343172 0.14900000393390656 255 111 120
0.055711131542921066 0.00920069683343172 0.14900000393390656 255 103 112
0.05606149137020111 0.00920069683343172 0.14900000393390656 253 100 109
0.05641184747219086 0.00920069683343172 0.14900000393390656 246 93 102
0.057143159210681915 0.00926244631409645 0.15000000596046448 255 97 106
0.05749586969614029 0.00926244631409645 0.15000000596046448 255 98 107
0.057848576456308365 0.00926244631409645 0.15000000596046448 254 96 103
0.05820128694176674 0.00926244631409645 0.15000000596046448 252 94 101
0.05894435569643974 0.009324195794761181 0.1509999930858612 254 101 106
0.05929941684007645 0.009324195794761181 0.1509999930858612 255 106 111
0.05965447798371315 0.009324195794761181 0.1509999930858612 255 109 112
0.060009539127349854 0.009324195794761181 0.1509999930858612 252 106 109
0.06036459654569626 0.009324195794761181 0.1509999930858612 255 118 115
0.06071965768933296 0.009324195794761181 0.1509999930858612 255 118 115
0.06067024916410446 0.00926244631409645 0.15000000596046448 255 124 117
0.061022959649562836 0.00926244631409645 0.15000000596046448 255 129 122
0.06137567013502121 0.00926244631409645 0.15000000596046448 255 136 126
0.06131685525178909 0.00920069683343172 0.14900000393390656 255 140 130
0.06166721135377884 0.00920069683343172 0.14900000393390656 238 121 114
0.061601344496011734 0.009138946421444416 0.14800000190734863 247 130 123
0.06194935366511345 0.009138946421444416 0.14800000190734863 243 125 125
0.062297359108924866 0.009138946421444416 0.14800000190734863 248 130 130
0.062222085893154144 0.009077196940779686 0.1469999998807907 241 126 125
0.06256774067878723 0.009077196940779686 0.1469999998807907 234 119 118
0.06291339546442032 0.009077196940779686 0.1469999998807907 252 194 182
0.0632590502500534 0.009077196940779686 0.1469999998807907 255 239 227
0.06317202001810074 0.009015447460114956 0.1459999978542328 255 255 237
0.0635153204202652 0.009015447460114956 0.1459999978542328 255 255 237
0.06385862827301025 0.009015447460114956 0.1459999978542328 254 255 245
0.06420192867517471 0.009015447460114956 0.1459999978542328 254 255 245
0.06454523652791977 0.009015447460114956 0.1459999978542328 254 255 249
0.06444409489631653 0.008953697979450226 0.14499999582767487 254 255 249
0.06478504836559296 0.008953697979450226 0.14499999582767487 254 255 249
0.06512600183486938 0.008953697979450226 0.14499999582767487 254 255 249
0.06546695530414581 0.008953697979450226 0.14499999582767487 255 251 252
0.06535405665636063 0.008891948498785496 0.14399999380111694 246 242 243
0.06569265574216843 0.008891948498785496 0.14399999380111694 249 212 219
0.06603125482797623 0.008891948498785496 0.14399999380111694 240 203 210
0.06590895354747772 0.008830198086798191 0.14300000667572021 255 188 189
0.06624520570039749 0.008830198086798191 0.14300000667572021 239 172 173
0.06658145785331726 0.008830198086798191 0.14300000667572021 237 162 154
0.06691770255565643 0.008830198086798191 0.14300000667572021 244 169 161
0.0672539547085762 0.008830198086798191 0.14300000667572021 231 168 156
0.06759020686149597 0.008830198086798191 0.14300000667572021 211 148 136
0.06792645156383514 0.008830198086798191 0.14300000667572021 201 173 154
0.0677853375673294 0.008768448606133461 0.1420000046491623 255 248 229
0.06811923533678055 0.008768448606133461 0.1420000046491623 255 255 241
0.06845313310623169 0.008768448606133461 0.1420000046491623 255 255 241
0.06878703087568283 0.008768448606133461 0.1420000046491623 254 255 247
0.06912093609571457 0.008768448606133461 0.1420000046491623 254 255 247
0.06945483386516571 0.008768448606133461 0.1420000046491623 254 255 249
0.06929726153612137 0.008706699125468731 0.14100000262260437 254 255 249
0.06962880492210388 0.008706699125468731 0.14100000262260437 254 255 249
0.0699603483080864 0.008706699125468731 0.14100000262260437 254 255 249
0.06979337334632874 0.008644949644804 0.14000000059604645 255 250 248
0.06962169706821442 0.00858320016413927 0.13899999856948853 239 227 225
0.06994853913784027 0.00858320016413927 0.13899999856948853 248 200 204
0.07027538120746613 0.00858320016413927 0.13899999856948853 247 199 203
0.07009429484605789 0.00852145068347454 0.1379999965429306 255 188 191
0.07041878998279572 0.00852145068347454 0.1379999965429306 236 163 166
0.07074327766895294 0.00852145068347454 0.1379999965429306 224 146 144
0.07106777280569077 0.00852145068347454 0.1379999965429306 221 143 141
0.07171675562858582 0.00852145068347454 0.1379999965429306 213 136 127
0.07204125076532364 0.00852145068347454 0.1379999965429306 255 199 199
0.07236573845148087 0.00852145068347454 0.1379999965429306 255 206 206
0.07269023358821869 0.00852145068347454 0.1379999965429306 255 207 220
0.07301472872495651 0.00852145068347454 0.1379999965429306 253 202 215
0.07333921641111374 0.00852145068347454 0.1379999965429306 252 196 211
0.07366371154785156 0.00852145068347454 0.1379999965429306 237 181 196
0.07345205545425415 0.008459700271487236 0.13699999451637268 228 168 176
0.07377419620752335 0.008459700271487236 0.13699999451637268 220 160 168
0.07409633696079254 0.008459700271487236 0.13699999451637268 214 160 163
0.07387527823448181 0.008397950790822506 0.13600000739097595 218 164 167
0.07419507205486298 0.008397950790822506 0.13600000739097595 222 163 166
0.07396695762872696 0.008336201310157776 0.13500000536441803 207 148 151
0.0742843970656395 0.008336201310157776 0.13500000536441803 207 147 147
