0.09215977787971497 0.00495203398168087 0.1379999965429306 185 130 136
0.09248427301645279 0.00495203398168087 0.1379999965429306 163 108 114
0.09280876070261002 0.00495203398168087 0.1379999965429306 164 114 118
0.09313325583934784 0.00495203398168087 0.1379999965429306 196 146 150
0.09413497895002365 0.004987918306142092 0.13899999856948853 188 149 147
0.0944618210196495 0.004987918306142092 0.13899999856948853 186 147 145
0.09478866308927536 0.004987918306142092 0.13899999856948853 176 134 133
0.09511550515890121 0.004987918306142092 0.13899999856948853 173 131 130
0.09544235467910767 0.004987918306142092 0.13899999856948853 172 120 125
0.09645818173885345 0.0050238026306033134 0.14000000059604645 157 105 110
0.11307144165039062 0.005849141627550125 0.16300000250339508 152 88 97
0.11345471441745758 0.005849141627550125 0.16300000250339508 152 81 88
0.11453638225793839 0.005885025952011347 0.164000004529953 158 87 94
0.11632350087165833 0.00595679460093379 0.16599999368190765 162 77 84
0.11741692572832108 0.005992678925395012 0.16699999570846558 166 81 88
0.11851505935192108 0.006028563249856234 0.1679999977350235 174 84 86
0.11961789429187775 0.006064447574317455 0.16899999976158142 159 69 71
0.12001527845859528 0.006064447574317455 0.16899999976158142 160 71 70
0.06178484112024307 0.005773590411990881 0.1509999930858612 205 108 114
0.062139902263879776 0.005773590411990881 0.1509999930858612 201 104 110
0.06385862827301025 0.005582412239164114 0.1459999978542328 255 255 239
0.06420192867517471 0.005582412239164114 0.1459999978542328 255 255 239
0.06454523652791977 0.005582412239164114 0.1459999978542328 255 255 247
0.06488853693008423 0.005582412239164114 0.1459999978542328 255 255 247
0.06478504836559296 0.005544176325201988 0.14499999582767487 255 255 249
0.06512600183486938 0.005544176325201988 0.14499999582767487 255 255 249
0.06546695530414581 0.005544176325201988 0.14499999582767487 255 253 248
0.06580790132284164 0.005544176325201988 0.14499999582767487 252 249 244
0.06614885479211807 0.005544176325201988 0.14499999582767487 255 243 242
0.06603125482797623 0.00550594087690115 0.14399999380111694 255 240 239
0.06636986136436462 0.00550594087690115 0.14399999380111694 255 224 230
0.06624520570039749 0.005467704962939024 0.14300000667572021 240 206 212
0.06658145785331726 0.005467704962939024 0.14300000667572021 236 183 195
0.06691770255565643 0.005467704962939024 0.14300000667572021 210 157 169
0.0672539547085762 0.005467704962939024 0.14300000667572021 168 96 112
0.06711754202842712 0.0054294695146381855 0.1420000046491623 129 57 73
0.06745143979787827 0.0054294695146381855 0.1420000046491623 162 106 110
0.0677853375673294 0.0054294695146381855 0.1420000046491623 255 222 226
0.06811923533678055 0.0054294695146381855 0.1420000046491623 255 252 245
0.06845313310623169 0.0054294695146381855 0.1420000046491623 255 252 245
0.06945483386516571 0.0054294695146381855 0.1420000046491623 254 255 251
0.06978873163461685 0.0054294695146381855 0.1420000046491623 254 255 251
0.06962880492210388 0.00539123360067606 0.14100000262260437 254 255 251
0.0699603483080864 0.00539123360067606 0.14100000262260437 254 255 251
0.0702918991446495 0.00539123360067606 0.14100000262260437 254 255 251
0.07062344253063202 0.00539123360067606 0.14100000262260437 254 255 251
0.07060222327709198 0.0053147622384130955 0.13899999856948853 255 248 247
0.07092906534671783 0.0053147622384130955 0.13899999856948853 255 241 240
0.07074327766895294 0.00527652632445097 0.1379999965429306 255 211 218
0.07106777280569077 0.00527652632445097 0.1379999965429306 219 162 169
0.07216349244117737 0.005238290876150131 0.13699999451637268 255 241 243
0.07248563319444656 0.005238290876150131 0.13699999451637268 255 237 239
0.07280777394771576 0.005238290876150131 0.13699999451637268 255 227 236
0.07312991470098495 0.005238290876150131 0.13699999451637268 255 224 233
0.07523670792579651 0.005161819513887167 0.13500000536441803 212 165 166
0.07555414736270905 0.005161819513887167 0.13500000536441803 166 106 106
0.07587158679962158 0.005161819513887167 0.13500000536441803 115 55 55
0.07618902623653412 0.005161819513887167 0.13500000536441803 131 61 61
0.07650645822286606 0.005161819513887167 0.13500000536441803 182 112 112
0.07745877653360367 0.005161819513887167 0.13500000536441803 241 174 177
0.0777762159705162 0.005161819513887167 0.13500000536441803 243 176 179
0.07809365540742874 0.005161819513887167 0.13500000536441803 234 179 189
0.07841108739376068 0.005161819513887167 0.13500000536441803 234 179 189
0.07872852683067322 0.005161819513887167 0.13500000536441803 224 183 191
0.07904596626758575 0.005161819513887167 0.13500000536441803 222 181 189
0.07936340570449829 0.005161819513887167 0.13500000536441803 221 181 184
0.07968084514141083 0.005161819513887167 0.13500000536441803 218 178 181
0.07999828457832336 0.005161819513887167 0.13500000536441803 216 175 169
0.0803157165646553 0.005161819513887167 0.13500000536441803 210 169 163
0.08063315600156784 0.005161819513887167 0.13500000536441803 180 142 135
0.08095059543848038 0.005161819513887167 0.13500000536441803 199 161 154
0.08126803487539291 0.005161819513887167 0.13500000536441803 255 216 216
0.08218980580568314 0.0052000549621880054 0.13600000739097595 255 211 211
0.0825095996260643 0.0052000549621880054 0.13600000739097595 239 195 193
0.08222034573554993 0.005161819513887167 0.13500000536441803 228 184 182
0.08253778517246246 0.005161819513887167 0.13500000536441803 206 168 161
0.082855224609375 0.005161819513887167 0.13500000536441803 193 155 148
0.08317266404628754 0.005161819513887167 0.13500000536441803 191 157 147
0.08349010348320007 0.005161819513887167 0.13500000536441803 178 144 134
0.08380754292011261 0.005161819513887167 0.13500000536441803 180 144 132
0.08412497490644455 0.005161819513887167 0.13500000536441803 179 143 131
0.08444241434335709 0.005161819513887167 0.13500000536441803 179 139 126
0.08475985378026962 0.005161819513887167 0.13500000536441803 173 133 120
0.08507729321718216 0.005161819513887167 0.13500000536441803 176 133 124
0.08602728694677353 0.0052000549621880054 0.13600000739097595 169 126 117
0.0863470733165741 0.0052000549621880054 0.13600000739097595 164 118 114
0.08666686713695526 0.0052000549621880054 0.13600000739097595 187 141 137
0.08698665350675583 0.0052000549621880054 0.13600000739097595 211 162 161
0.0873064398765564 0.0052000549621880054 0.13600000739097595 211 162 161
0.08827054500579834 0.005238290876150131 0.13699999451637268 214 167 166
0.08859268575906754 0.005238290876150131 0.13699999451637268 219 172 171
0.08891482651233673 0.005238290876150131 0.13699999451637268 199 164 161
0.08923696726560593 0.005238290876150131 0.13699999451637268 191 156 153
0.08955910801887512 0.005238290876150131 0.13699999451637268 189 154 151
0.08988124877214432 0.005238290876150131 0.13699999451637268 185 150 147
0.09020338952541351 0.005238290876150131 0.13699999451637268 185 145 146
0.09052553027868271 0.005238290876150131 0.13699999451637268 182 142 143
0.0908476710319519 0.005238290876150131 0.13699999451637268 183 138 143
0.0911698117852211 0.005238290876150131 0.13699999451637268 170 125 130
0.09215977787971497 0.00527652632445097 0.1379999965429306 182 131 133
0.09248427301645279 0.00527652632445097 0.1379999965429306 162 111 113
0.09280876070261002 0.00527652632445097 0.1379999965429306 156 109 110
0.09313325583934784 0.00527652632445097 0.1379999965429306 184 137 138
0.09413497895002365 0.0053147622384130955 0.13899999856948853 173 136 131
0.0944618210196495 0.0053147622384130955 0.13899999856948853 174 137 132
0.09478866308927536 0.0053147622384130955 0.13899999856948853 175 136 134
0.09511550515890121 0.0053147622384130955 0.13899999856948853 174 135 133
0.09612898528575897 0.005352998152375221 0.14000000059604645 163 118 121
0.09645818173885345 0.005352998152375221 0.14000000059604645 150 105 108
0.09678737819194794 0.005352998152375221 0.14000000059604645 148 93 101
0.09711657464504242 0.005352998152375221 0.14000000059604645 147 92 100
0.11523477733135223 0.006308890413492918 0.16500000655651093 154 88 93
0.11562275886535645 0.006308890413492918 0.16500000655651093 150 68 72
0.11671383678913116 0.006347126327455044 0.16599999368190765 151 69 73
0.11780960857868195 0.006385361775755882 0.16699999570846558 160 73 71
0.11891008913516998 0.006423597689718008 0.1679999977350235 163 76 74
0.11930512636899948 0.006423597689718008 0.1679999977350235 162 79 67
0.06178484112024307 0.006128651089966297 0.1509999930858612 234 139 140
0.062139902263879776 0.006128651089966297 0.1509999930858612 214 119 120
0.06208108738064766 0.006088064052164555 0.15000000596046448 185 96 93
0.06243379786610603 0.006088064052164555 0.15000000596046448 185 96 93
0.06278650462627411 0.006088064052164555 0.15000000596046448 182 91 84
0.06313921511173248 0.006088064052164555 0.15000000596046448 188 97 90
0.06360470503568649 0.005966302938759327 0.1469999998807907 255 251 237
0.06395035982131958 0.005966302938759327 0.1469999998807907 255 251 237
0.06385862827301025 0.005925715435296297 0.1459999978542328 254 255 243
0.06420192867517471 0.005925715435296297 0.1459999978542328 254 255 243
0.06454523652791977 0.005925715435296297 0.1459999978542328 254 255 249
0.06488853693008423 0.005925715435296297 0.1459999978542328 254 255 249
0.06523183733224869 0.005925715435296297 0.1459999978542328 254 255 249
0.06557514518499374 0.005925715435296297 0.1459999978542328 254 255 249
0.06546695530414581 0.0058851283974945545 0.14499999582767487 254 255 249
0.06580790132284164 0.0058851283974945545 0.14499999582767487 247 248 242
0.06614885479211807 0.0058851283974945545 0.14499999582767487 254 254 248
0.06603125482797623 0.005844541359692812 0.14399999380111694 255 255 249
0.06636986136436462 0.005844541359692812 0.14399999380111694 255 250 251
0.06624520570039749 0.005803954321891069 0.14300000667572021 255 241 242
0.06658145785331726 0.005803954321891069 0.14300000667572021 255 219 226
0.06691770255565643 0.005803954321891069 0.14300000667572021 245 206 213
0.0672539547085762 0.005803954321891069 0.14300000667572021 234 174 184
0.06711754202842712 0.005763367284089327 0.1420000046491623 188 128 138
0.06745143979787827 0.005763367284089327 0.1420000046491623 210 171 169
0.0677853375673294 0.005763367284089327 0.1420000046491623 255 243 241
0.06811923533678055 0.005763367284089327 0.1420000046491623 255 255 245
0.06945483386516571 0.005763367284089327 0.1420000046491623 254 255 249
0.06978873163461685 0.005763367284089327 0.1420000046491623 254 255 249
0.06962880492210388 0.005722780246287584 0.14100000262260437 254 255 249
0.0699603483080864 0.005722780246287584 0.14100000262260437 254 255 249
0.0702918991446495 0.005722780246287584 0.14100000262260437 254 255 249
0.07062344253063202 0.005722780246287584 0.14100000262260437 254 255 249
0.07060222327709198 0.005641606170684099 0.13899999856948853 255 251 245
0.07041878998279572 0.005601019132882357 0.1379999965429306 255 248 242
0.07074327766895294 0.005601019132882357 0.1379999965429306 250 202 206
0.07106777280569077 0.005601019132882357 0.1379999965429306 241 193 197
0.07139226794242859 0.005601019132882357 0.1379999965429306 180 120 132
0.07280777394771576 0.005560431629419327 0.13699999451637268 255 226 235
0.07312991470098495 0.005560431629419327 0.13699999451637268 242 205 214
0.07345205545425415 0.005560431629419327 0.13699999451637268 244 203 213
0.07323569804430008 0.005519844591617584 0.13600000739097595 249 208 218
0.07355549186468124 0.005519844591617584 0.13600000739097595 250 206 217
0.07387527823448181 0.005519844591617584 0.13600000739097595 238 194 205
0.07419507205486298 0.005519844591617584 0.13600000739097595 233 190 194
0.07396695762872696 0.005479257553815842 0.13500000536441803 232 189 193
0.0742843970656395 0.005479257553815842 0.13500000536441803 231 188 190
0.07460182905197144 0.005479257553815842 0.13500000536441803 230 187 189
0.07491926848888397 0.005479257553815842 0.13500000536441803 222 174 178
0.07523670792579651 0.005479257553815842 0.13500000536441803 219 171 175
0.07555414736270905 0.005479257553815842 0.13500000536441803 203 154 155
0.07587158679962158 0.005479257553815842 0.13500000536441803 144 95 96
0.07618902623653412 0.005479257553815842 0.13500000536441803 203 144 147
0.07650645822286606 0.005479257553815842 0.13500000536441803 249 190 193
0.07714133709669113 0.005479257553815842 0.13500000536441803 255 196 192
0.07745877653360367 0.005479257553815842 0.13500000536441803 245 192 190
0.0777762159705162 0.005479257553815842 0.13500000536441803 249 196 194
0.07809365540742874 0.005479257553815842 0.13500000536441803 240 197 199
0.07841108739376068 0.005479257553815842 0.13500000536441803 231 188 190
0.07872852683067322 0.005479257553815842 0.13500000536441803 223 185 187
0.07904596626758575 0.005479257553815842 0.13500000536441803 222 184 186
0.07936340570449829 0.005479257553815842 0.13500000536441803 216 176 177
0.07968084514141083 0.005479257553815842 0.13500000536441803 210 170 171
0.07999828457832336 0.005479257553815842 0.13500000536441803 203 164 160
0.0803157165646553 0.005479257553815842 0.13500000536441803 196 157 153
0.08063315600156784 0.005479257553815842 0.13500000536441803 185 147 138
0.08095059543848038 0.005479257553815842 0.13500000536441803 185 147 138
0.08126803487539291 0.005479257553815842 0.13500000536441803 202 159 150
0.08218980580568314 0.005519844591617584 0.13600000739097595 218 175 166
0.0825095996260643 0.005519844591617584 0.13600000739097595 203 161 149
0.08222034573554993 0.005479257553815842 0.13500000536441803 210 168 156
0.08253778517246246 0.005479257553815842 0.13500000536441803 193 150 141
0.082855224609375 0.005479257553815842 0.13500000536441803 197 154 145
0.08317266404628754 0.005479257553815842 0.13500000536441803 193 155 144
0.08349010348320007 0.005479257553815842 0.13500000536441803 181 143 132
0.08380754292011261 0.005479257553815842 0.13500000536441803 183 146 132
0.08412497490644455 0.005479257553815842 0.13500000536441803 178 141 127
0.08444241434335709 0.005479257553815842 0.13500000536441803 178 141 125
0.08475985378026962 0.005479257553815842 0.13500000536441803 172 135 119
0.08507729321718216 0.005479257553815842 0.13500000536441803 168 128 115
0.08602728694677353 0.005519844591617584 0.13600000739097595 165 125 112
0.0863470733165741 0.005519844591617584 0.13600000739097595 168 122 116
0.08666686713695526 0.005519844591617584 0.13600000739097595 172 126 120
0.08698665350675583 0.005519844591617584 0.13600000739097595 192 144 140
0.0873064398765564 0.005519844591617584 0.13600000739097595 196 148 144
0.08827054500579834 0.005560431629419327 0.13699999451637268 209 161 157
0.08859268575906754 0.005560431629419327 0.13699999451637268 221 173 169
0.08891482651233673 0.005560431629419327 0.13699999451637268 207 168 166
0.08923696726560593 0.005560431629419327 0.13699999451637268 197 158 156
0.08955910801887512 0.005560431629419327 0.13699999451637268 188 155 156
0.08988124877214432 0.005560431629419327 0.13699999451637268 172 139 140
0.09020338952541351 0.005560431629419327 0.13699999451637268 185 147 147
0.09052553027868271 0.005560431629419327 0.13699999451637268 180 142 142
0.0908476710319519 0.005560431629419327 0.13699999451637268 182 140 139
0.09183528274297714 0.005601019132882357 0.1379999965429306 175 133 132
0.09215977787971497 0.005601019132882357 0.1379999965429306 175 126 125
0.09248427301645279 0.005601019132882357 0.1379999965429306 163 114 113
0.09280876070261002 0.005601019132882357 0.1379999965429306 156 109 108
0.09313325583934784 0.005601019132882357 0.1379999965429306 172 125 124
0.09413497895002365 0.005641606170684099 0.13899999856948853 158 120 113
0.0944618210196495 0.005641606170684099 0.13899999856948853 174 136 129
0.09478866308927536 0.005641606170684099 0.13899999856948853 177 138 134
0.09511550515890121 0.005641606170684099 0.13899999856948853 161 122 118
0.09612898528575897 0.005682193208485842 0.14000000059604645 163 118 123
0.09645818173885345 0.005682193208485842 0.14000000059604645 160 115 120
0.09678737819194794 0.005682193208485842 0.14000000059604645 147 92 102
0.09711657464504242 0.005682193208485842 0.14000000059604645 143 88 98
0.11523477733135223 0.0066968705505132675 0.16500000655651093 149 86 90
0.11562275886535645 0.0066968705505132675 0.16500000655651093 145 68 70
0.11671383678913116 0.00673745758831501 0.16599999368190765 133 56 58
0.11710416525602341 0.00673745758831501 0.16599999368190765 151 72 61
0.11820229142904282 0.006778044626116753 0.16699999570846558 160 81 70
0.061022959649562836 0.006440773140639067 0.15000000596046448 255 158 156
0.06178484112024307 0.006483711767941713 0.1509999930858612 255 165 162
0.062139902263879776 0.006483711767941713 0.1509999930858612 241 146 143
0.06208108738064766 0.006440773140639067 0.15000000596046448 214 128 117
0.06243379786610603 0.006440773140639067 0.15000000596046448 201 115 104
0.06264536082744598 0.006354896351695061 0.14800000190734863 220 132 124
0.0629933699965477 0.006354896351695061 0.14800000190734863 210 122 114
0.06291339546442032 0.006311957724392414 0.1469999998807907 201 143 139
0.0632590502500534 0.006311957724392414 0.1469999998807907 255 229 225
0.06360470503568649 0.006311957724392414 0.1469999998807907 255 254 241
0.06395035982131958 0.006311957724392414 0.1469999998807907 255 254 241
0.06385862827301025 0.0062690190970897675 0.1459999978542328 254 255 247
0.06420192867517471 0.0062690190970897675 0.1459999978542328 254 255 247
0.06454523652791977 0.0062690190970897675 0.1459999978542328 254 255 249
0.06488853693008423 0.0062690190970897675 0.1459999978542328 254 255 249
0.06523183733224869 0.0062690190970897675 0.1459999978542328 254 255 249
0.06557514518499374 0.0062690190970897675 0.1459999978542328 254 255 249
0.06546695530414581 0.006226080935448408 0.14499999582767487 254 255 249
0.06580790132284164 0.006226080935448408 0.14499999582767487 246 247 241
0.06614885479211807 0.006226080935448408 0.14499999582767487 252 252 248
0.06603125482797623 0.0061831423081457615 0.14399999380111694 255 255 251
0.06636986136436462 0.0061831423081457615 0.14399999380111694 255 254 251
0.06624520570039749 0.006140203680843115 0.14300000667572021 255 253 250
0.06658145785331726 0.006140203680843115 0.14300000667572021 255 233 239
0.06691770255565643 0.006140203680843115 0.14300000667572021 255 225 231
0.0672539547085762 0.006140203680843115 0.14300000667572021 255 211 213
0.06711754202842712 0.006097265053540468 0.1420000046491623 226 175 177
0.06745143979787827 0.006097265053540468 0.1420000046491623 255 239 234
0.0677853375673294 0.006097265053540468 0.1420000046491623 255 246 241
0.06811923533678055 0.006097265053540468 0.1420000046491623 255 255 245
0.06845313310623169 0.006097265053540468 0.1420000046491623 255 255 245
0.06878703087568283 0.006097265053540468 0.1420000046491623 254 255 249
0.06912093609571457 0.006097265053540468 0.1420000046491623 254 255 249
0.06945483386516571 0.006097265053540468 0.1420000046491623 254 255 249
0.06929726153612137 0.006054326891899109 0.14100000262260437 254 255 249
0.06962880492210388 0.006054326891899109 0.14100000262260437 254 255 249
0.0699603483080864 0.006054326891899109 0.14100000262260437 254 255 249
0.06979337334632874 0.006011388264596462 0.14000000059604645 254 255 249
0.07012256979942322 0.006011388264596462 0.14000000059604645 254 255 249
0.06994853913784027 0.005968449637293816 0.13899999856948853 254 255 249
0.07027538120746613 0.005968449637293816 0.13899999856948853 254 255 249
0.07009429484605789 0.005925511475652456 0.1379999965429306 255 251 245
0.07041878998279572 0.005925511475652456 0.1379999965429306 255 243 237
0.07074327766895294 0.005925511475652456 0.1379999965429306 238 189 190
0.07106777280569077 0.005925511475652456 0.1379999965429306 231 182 183
0.07087492942810059 0.00588257284834981 0.13699999451637268 191 139 144
0.07119707018136978 0.00588257284834981 0.13699999451637268 250 198 203
0.07151921093463898 0.00588257284834981 0.13699999451637268 255 249 249
0.07184135168790817 0.00588257284834981 0.13699999451637268 255 249 249
0.07216349244117737 0.00588257284834981 0.13699999451637268 255 240 244
0.07248563319444656 0.00588257284834981 0.13699999451637268 251 229 233
0.07280777394771576 0.00588257284834981 0.13699999451637268 255 218 227
0.07312991470098495 0.00588257284834981 0.13699999451637268 254 217 226
0.07345205545425415 0.00588257284834981 0.13699999451637268 242 196 206
0.07323569804430008 0.005839634221047163 0.13600000739097595 235 189 199
0.07355549186468124 0.005839634221047163 0.13600000739097595 237 191 201
0.07387527823448181 0.005839634221047163 0.13600000739097595 234 188 198
0.07419507205486298 0.005839634221047163 0.13600000739097595 226 181 188
0.07396695762872696 0.005796696059405804 0.13500000536441803 224 179 186
0.0742843970656395 0.005796696059405804 0.13500000536441803 226 178 182
0.07460182905197144 0.005796696059405804 0.13500000536441803 229 181 185
0.07491926848888397 0.005796696059405804 0.13500000536441803 224 172 177
0.07523670792579651 0.005796696059405804 0.13500000536441803 211 159 164
0.07555414736270905 0.005796696059405804 0.13500000536441803 199 152 153
0.07587158679962158 0.005796696059405804 0.13500000536441803 190 143 144
0.07618902623653412 0.005796696059405804 0.13500000536441803 230 181 180
0.07650645822286606 0.005796696059405804 0.13500000536441803 253 204 203
0.0768238976597786 0.005796696059405804 0.13500000536441803 255 207 204
0.07714133709669113 0.005796696059405804 0.13500000536441803 247 197 194
0.07745877653360367 0.005796696059405804 0.13500000536441803 241 193 189
0.0777762159705162 0.005796696059405804 0.13500000536441803 232 184 180
0.07809365540742874 0.005796696059405804 0.13500000536441803 218 179 175
0.07841108739376068 0.005796696059405804 0.13500000536441803 213 174 170
0.07872852683067322 0.005796696059405804 0.13500000536441803 210 174 176
0.07904596626758575 0.005796696059405804 0.13500000536441803 206 170 172
0.07936340570449829 0.005796696059405804 0.13500000536441803 199 157 156
0.07968084514141083 0.005796696059405804 0.13500000536441803 197 155 154
0.07999828457832336 0.005796696059405804 0.13500000536441803 197 154 149
0.0803157165646553 0.005796696059405804 0.13500000536441803 200 157 152
0.08063315600156784 0.005796696059405804 0.13500000536441803 194 153 143
0.08095059543848038 0.005796696059405804 0.13500000536441803 180 139 129
0.08126803487539291 0.005796696059405804 0.13500000536441803 175 136 118
0.08218980580568314 0.005839634221047163 0.13600000739097595 181 142 124
0.0825095996260643 0.005839634221047163 0.13600000739097595 189 150 132
0.08282938599586487 0.005839634221047163 0.13600000739097595 198 159 141
0.08253778517246246 0.005796696059405804 0.13500000536441803 191 151 136
0.082855224609375 0.005796696059405804 0.13500000536441803 189 149 134
0.08317266404628754 0.005796696059405804 0.13500000536441803 188 145 136
0.08349010348320007 0.005796696059405804 0.13500000536441803 177 134 125
0.08380754292011261 0.005796696059405804 0.13500000536441803 177 137 124
0.08412497490644455 0.005796696059405804 0.13500000536441803 179 139 126
0.08444241434335709 0.005796696059405804 0.13500000536441803 178 141 127
0.08475985378026962 0.005796696059405804 0.13500000536441803 178 141 127
0.08570749312639236 0.005839634221047163 0.13600000739097595 171 128 119
0.08602728694677353 0.005839634221047163 0.13600000739097595 164 121 112
0.0863470733165741 0.005839634221047163 0.13600000739097595 158 112 106
0.08666686713695526 0.005839634221047163 0.13600000739097595 163 117 111
0.08698665350675583 0.005839634221047163 0.13600000739097595 171 123 117
0.0873064398765564 0.005839634221047163 0.13600000739097595 192 144 138
0.08827054500579834 0.00588257284834981 0.13699999451637268 200 157 152
0.08859268575906754 0.00588257284834981 0.13699999451637268 202 159 154
0.08891482651233673 0.00588257284834981 0.13699999451637268 199 155 155
0.08923696726560593 0.00588257284834981 0.13699999451637268 199 155 155
0.08955910801887512 0.00588257284834981 0.13699999451637268 182 145 152
0.08988124877214432 0.00588257284834981 0.13699999451637268 176 139 146
0.09020338952541351 0.00588257284834981 0.13699999451637268 181 148 149
0.09052553027868271 0.00588257284834981 0.13699999451637268 174 141 142
0.0908476710319519 0.00588257284834981 0.13699999451637268 167 129 122
0.09183528274297714 0.005925511475652456 0.1379999965429306 164 126 119
0.09215977787971497 0.005925511475652456 0.1379999965429306 172 123 122
0.09248427301645279 0.005925511475652456 0.1379999965429306 163 114 113
0.09280876070261002 0.005925511475652456 0.1379999965429306 158 110 106
0.09313325583934784 0.005925511475652456 0.1379999965429306 172 124 120
0.09413497895002365 0.005968449637293816 0.13899999856948853 172 131 125
0.0944618210196495 0.005968449637293816 0.13899999856948853 183 142 136
0.09478866308927536 0.005968449637293816 0.13899999856948853 170 128 125
0.09511550515890121 0.005968449637293816 0.13899999856948853 162 120 117
0.09612898528575897 0.006011388264596462 0.14000000059604645 153 108 113
0.09645818173885345 0.006011388264596462 0.14000000059604645 152 107 112
0.09678737819194794 0.006011388264596462 0.14000000059604645 152 100 109
0.09711657464504242 0.006011388264596462 0.14000000059604645 141 89 98
0.0974457710981369 0.006011388264596462 0.14000000059604645 146 87 90
0.11632350087165833 0.007127788849174976 0.16599999368190765 139 67 63
0.11671383678913116 0.007127788849174976 0.16599999368190765 149 77 73
0.11710416525602341 0.007127788849174976 0.16599999368190765 151 75 63
0.11749449372291565 0.007127788849174976 0.16599999368190765 156 80 68
0.11859497427940369 0.007170727476477623 0.16699999570846558 157 83 59
0.06137567013502121 0.006793482229113579 0.15000000596046448 252 160 156
0.061728376895189285 0.006793482229113579 0.15000000596046448 251 159 155
0.06208108738064766 0.006793482229113579 0.15000000596046448 244 158 147
0.06243379786610603 0.006793482229113579 0.15000000596046448 234 148 137
0.06291339546442032 0.006657612510025501 0.1469999998807907 235 182 178
0.0632590502500534 0.006657612510025501 0.1469999998807907 255 239 235
0.06360470503568649 0.006657612510025501 0.1469999998807907 255 255 245
0.06395035982131958 0.006657612510025501 0.1469999998807907 255 255 245
0.06385862827301025 0.006612322758883238 0.1459999978542328 254 255 249
0.06420192867517471 0.006612322758883238 0.1459999978542328 254 255 249
0.06454523652791977 0.006612322758883238 0.1459999978542328 254 255 249
0.06488853693008423 0.006612322758883238 0.1459999978542328 254 255 249
0.06523183733224869 0.006612322758883238 0.1459999978542328 254 255 249
0.06557514518499374 0.006612322758883238 0.1459999978542328 254 255 249
0.06546695530414581 0.006567033007740974 0.14499999582767487 254 255 249
0.06580790132284164 0.006567033007740974 0.14499999582767487 249 250 244
0.06614885479211807 0.006567033007740974 0.14499999582767487 245 246 240
0.06603125482797623 0.006521742790937424 0.14399999380111694 253 254 248
0.06636986136436462 0.006521742790937424 0.14399999380111694 255 255 251
0.06624520570039749 0.00647645303979516 0.14300000667572021 255 255 251
0.06658145785331726 0.00647645303979516 0.14300000667572021 255 232 238
0.06691770255565643 0.00647645303979516 0.14300000667572021 251 217 223
0.0672539547085762 0.00647645303979516 0.14300000667572021 254 207 208
0.06711754202842712 0.006431163288652897 0.1420000046491623 244 197 198
0.06745143979787827 0.006431163288652897 0.1420000046491623 255 245 237
0.0677853375673294 0.006431163288652897 0.1420000046491623 255 247 239
0.06811923533678055 0.006431163288652897 0.1420000046491623 254 255 245
0.06845313310623169 0.006431163288652897 0.1420000046491623 254 255 245
0.06878703087568283 0.006431163288652897 0.1420000046491623 254 255 249
0.06912093609571457 0.006431163288652897 0.1420000046491623 254 255 249
0.06945483386516571 0.006431163288652897 0.1420000046491623 254 255 249
0.06929726153612137 0.0063858735375106335 0.14100000262260437 254 255 249
0.06962880492210388 0.0063858735375106335 0.14100000262260437 254 255 249
0.0699603483080864 0.0063858735375106335 0.14100000262260437 254 255 249
0.06979337334632874 0.006340583320707083 0.14000000059604645 254 255 249
0.07012256979942322 0.006340583320707083 0.14000000059604645 254 255 249
0.06994853913784027 0.006295293569564819 0.13899999856948853 254 255 249
0.07027538120746613 0.006295293569564819 0.13899999856948853 254 255 249
0.07009429484605789 0.006250003818422556 0.1379999965429306 255 249 246
0.07041878998279572 0.006250003818422556 0.1379999965429306 243 227 224
0.07074327766895294 0.006250003818422556 0.1379999965429306 230 179 181
0.07106777280569077 0.006250003818422556 0.1379999965429306 223 172 174
0.07087492942810059 0.006204713601619005 0.13699999451637268 199 153 149
0.07119707018136978 0.006204713601619005 0.13699999451637268 255 209 205
0.07151921093463898 0.006204713601619005 0.13699999451637268 255 250 245
0.07184135168790817 0.006204713601619005 0.13699999451637268 255 245 240
0.07216349244117737 0.006204713601619005 0.13699999451637268 255 241 239
0.07248563319444656 0.006204713601619005 0.13699999451637268 243 224 222
0.07280777394771576 0.006204713601619005 0.13699999451637268 237 196 204
0.07312991470098495 0.006204713601619005 0.13699999451637268 231 190 198
0.07345205545425415 0.006204713601619005 0.13699999451637268 242 185 196
0.07323569804430008 0.006159423850476742 0.13600000739097595 240 183 194
0.07355549186468124 0.006159423850476742 0.13600000739097595 235 182 194
0.07387527823448181 0.006159423850476742 0.13600000739097595 230 177 189
0.07419507205486298 0.006159423850476742 0.13600000739097595 232 180 189
0.07396695762872696 0.006114134099334478 0.13500000536441803 233 181 190
0.0742843970656395 0.006114134099334478 0.13500000536441803 229 177 182
0.07460182905197144 0.006114134099334478 0.13500000536441803 226 174 179
0.07491926848888397 0.006114134099334478 0.13500000536441803 224 170 173
0.07523670792579651 0.006114134099334478 0.13500000536441803 212 158 161
0.07555414736270905 0.006114134099334478 0.13500000536441803 188 140 136
0.07587158679962158 0.006114134099334478 0.13500000536441803 193 145 141
0.07618902623653412 0.006114134099334478 0.13500000536441803 217 174 169
0.07650645822286606 0.006114134099334478 0.13500000536441803 244 201 196
0.0768238976597786 0.006114134099334478 0.13500000536441803 254 210 210
0.07714133709669113 0.006114134099334478 0.13500000536441803 227 183 183
0.07745877653360367 0.006114134099334478 0.13500000536441803 225 181 179
0.0777762159705162 0.006114134099334478 0.13500000536441803 217 173 171
0.07809365540742874 0.006114134099334478 0.13500000536441803 213 176 171
0.07841108739376068 0.006114134099334478 0.13500000536441803 213 176 171
0.07872852683067322 0.006114134099334478 0.13500000536441803 204 169 166
0.07904596626758575 0.006114134099334478 0.13500000536441803 187 152 149
0.07936340570449829 0.006114134099334478 0.13500000536441803 184 142 139
0.07968084514141083 0.006114134099334478 0.13500000536441803 184 142 139
0.07999828457832336 0.006114134099334478 0.13500000536441803 180 139 133
0.0803157165646553 0.006114134099334478 0.13500000536441803 188 147 141
0.08063315600156784 0.006114134099334478 0.13500000536441803 189 148 138
0.08095059543848038 0.006114134099334478 0.13500000536441803 176 135 125
0.08126803487539291 0.006114134099334478 0.13500000536441803 178 137 120
0.08218980580568314 0.006159423850476742 0.13600000739097595 185 144 127
0.0825095996260643 0.006159423850476742 0.13600000739097595 193 149 131
0.08282938599586487 0.006159423850476742 0.13600000739097595 193 149 131
0.08253778517246246 0.006114134099334478 0.13500000536441803 193 148 135
0.082855224609375 0.006114134099334478 0.13500000536441803 190 145 132
0.08317266404628754 0.006114134099334478 0.13500000536441803 184 136 128
0.08349010348320007 0.006114134099334478 0.13500000536441803 177 129 121
0.08380754292011261 0.006114134099334478 0.13500000536441803 183 137 129
0.08474812656641006 0.006159423850476742 0.13600000739097595 186 140 132
0.08506791293621063 0.006159423850476742 0.13600000739097595 179 134 123
0.0853877067565918 0.006159423850476742 0.13600000739097595 170 125 114
0.08570749312639236 0.006159423850476742 0.13600000739097595 165 120 109
0.08602728694677353 0.006159423850476742 0.13600000739097595 162 117 106
0.0863470733165741 0.006159423850476742 0.13600000739097595 166 119 108
0.08666686713695526 0.006159423850476742 0.13600000739097595 173 126 115
0.08698665350675583 0.006159423850476742 0.13600000739097595 179 131 125
0.0873064398765564 0.006159423850476742 0.13600000739097595 188 140 134
0.08827054500579834 0.006204713601619005 0.13699999451637268 207 161 155
0.08859268575906754 0.006204713601619005 0.13699999451637268 206 160 154
0.08891482651233673 0.006204713601619005 0.13699999451637268 190 146 144
0.08923696726560593 0.006204713601619005 0.13699999451637268 192 148 146
0.08955910801887512 0.006204713601619005 0.13699999451637268 183 143 148
0.08988124877214432 0.006204713601619005 0.13699999451637268 174 134 139
0.09020338952541351 0.006204713601619005 0.13699999451637268 180 142 144
0.09052553027868271 0.006204713601619005 0.13699999451637268 185 147 149
0.0908476710319519 0.006204713601619005 0.13699999451637268 172 134 127
0.0911698117852211 0.006204713601619005 0.13699999451637268 177 139 132
0.09215977787971497 0.006250003818422556 0.1379999965429306 178 130 126
0.09248427301645279 0.006250003818422556 0.1379999965429306 163 115 111
0.09280876070261002 0.006250003818422556 0.1379999965429306 158 109 108
0.09313325583934784 0.006250003818422556 0.1379999965429306 161 112 111
0.09345774352550507 0.006250003818422556 0.1379999965429306 157 114 109
0.0944618210196495 0.006295293569564819 0.13899999856948853 162 119 114
0.09478866308927536 0.006295293569564819 0.13899999856948853 162 120 117
0.09511550515890121 0.006295293569564819 0.13899999856948853 165 123 120
0.09612898528575897 0.006340583320707083 0.14000000059604645 156 111 114
0.09645818173885345 0.006340583320707083 0.14000000059604645 157 112 115
0.09678737819194794 0.006340583320707083 0.14000000059604645 152 97 103
0.09711657464504242 0.006340583320707083 0.14000000059604645 143 88 94
0.0974457710981369 0.006340583320707083 0.14000000059604645 148 93 90
0.09777496010065079 0.006340583320707083 0.14000000059604645 144 89 86
0.11671383678913116 0.00751812057569623 0.16599999368190765 141 77 72
0.11710416525602341 0.00751812057569623 0.16599999368190765 141 69 62
0.11749449372291565 0.00751812057569623 0.16599999368190765 147 75 68
0.11788482964038849 0.00751812057569623 0.16599999368190765 156 81 64
0.06137567013502121 0.007146191317588091 0.15000000596046448 255 166 160
0.061728376895189285 0.007146191317588091 0.15000000596046448 255 169 163
0.06208108738064766 0.007146191317588091 0.15000000596046448 255 172 161
0.06243379786610603 0.007146191317588091 0.15000000596046448 252 166 155
0.06291339546442032 0.007003267761319876 0.1469999998807907 255 219 211
0.0632590502500534 0.007003267761319876 0.1469999998807907 255 241 233
0.06360470503568649 0.007003267761319876 0.1469999998807907 255 255 243
0.06395035982131958 0.007003267761319876 0.1469999998807907 255 255 243
0.06385862827301025 0.006955626420676708 0.1459999978542328 254 255 249
0.06420192867517471 0.006955626420676708 0.1459999978542328 254 255 249
0.06454523652791977 0.006955626420676708 0.1459999978542328 254 255 249
0.06488853693008423 0.006955626420676708 0.1459999978542328 254 255 249
0.06523183733224869 0.006955626420676708 0.1459999978542328 254 255 249
0.06557514518499374 0.006955626420676708 0.1459999978542328 254 255 249
0.06546695530414581 0.006907985080033541 0.14499999582767487 254 255 249
0.06580790132284164 0.006907985080033541 0.14499999582767487 254 255 249
0.06614885479211807 0.006907985080033541 0.14499999582767487 253 254 248
0.06603125482797623 0.006860343739390373 0.14399999380111694 254 255 249
0.06636986136436462 0.006860343739390373 0.14399999380111694 255 254 251
0.06624520570039749 0.006812702398747206 0.14300000667572021 255 253 250
0.06658145785331726 0.006812702398747206 0.14300000667572021 255 224 231
0.06691770255565643 0.006812702398747206 0.14300000667572021 235 196 203
0.0672539547085762 0.006812702398747206 0.14300000667572021 240 193 192
0.06711754202842712 0.006765061058104038 0.1420000046491623 243 196 195
0.06745143979787827 0.006765061058104038 0.1420000046491623 255 247 235
0.0677853375673294 0.006765061058104038 0.1420000046491623 255 249 237
0.06811923533678055 0.006765061058104038 0.1420000046491623 254 255 245
0.06845313310623169 0.006765061058104038 0.1420000046491623 254 255 245
0.06878703087568283 0.006765061058104038 0.1420000046491623 254 255 249
0.06912093609571457 0.006765061058104038 0.1420000046491623 254 255 249
0.06945483386516571 0.006765061058104038 0.1420000046491623 254 255 249
0.06929726153612137 0.006717419717460871 0.14100000262260437 254 255 249
0.06962880492210388 0.006717419717460871 0.14100000262260437 254 255 249
0.0699603483080864 0.006717419717460871 0.14100000262260437 254 255 249
0.06979337334632874 0.006669778376817703 0.14000000059604645 254 255 249
0.07012256979942322 0.006669778376817703 0.14000000059604645 254 255 249
0.06994853913784027 0.006622137501835823 0.13899999856948853 254 255 251
0.07027538120746613 0.006622137501835823 0.13899999856948853 253 254 250
0.07009429484605789 0.0065744961611926556 0.1379999965429306 255 244 246
0.07041878998279572 0.0065744961611926556 0.1379999965429306 228 204 206
0.07074327766895294 0.0065744961611926556 0.1379999965429306 238 182 184
0.07106777280569077 0.0065744961611926556 0.1379999965429306 229 173 175
0.07139226794242859 0.0065744961611926556 0.1379999965429306 207 162 151
0.07119707018136978 0.006526854820549488 0.13699999451637268 253 208 197
0.07151921093463898 0.006526854820549488 0.13699999451637268 255 250 239
0.07184135168790817 0.006526854820549488 0.13699999451637268 255 246 235
0.07216349244117737 0.006526854820549488 0.13699999451637268 254 238 233
0.07248563319444656 0.006526854820549488 0.13699999451637268 241 225 220
0.07280777394771576 0.006526854820549488 0.13699999451637268 245 202 206
0.07312991470098495 0.006526854820549488 0.13699999451637268 232 189 193
0.07345205545425415 0.006526854820549488 0.13699999451637268 242 182 192
0.07323569804430008 0.006479213479906321 0.13600000739097595 243 183 193
0.07355549186468124 0.006479213479906321 0.13600000739097595 233 176 185
0.07387527823448181 0.006479213479906321 0.13600000739097595 229 172 181
0.07419507205486298 0.006479213479906321 0.13600000739097595 228 171 180
0.07396695762872696 0.006431572139263153 0.13500000536441803 224 167 176
0.0742843970656395 0.006431572139263153 0.13500000536441803 227 168 173
0.07460182905197144 0.006431572139263153 0.13500000536441803 227 168 173
0.07491926848888397 0.006431572139263153 0.13500000536441803 228 172 174
0.07523670792579651 0.006431572139263153 0.13500000536441803 204 148 150
0.07555414736270905 0.006431572139263153 0.13500000536441803 186 136 133
0.07587158679962158 0.006431572139263153 0.13500000536441803 209 159 156
0.07618902623653412 0.006431572139263153 0.13500000536441803 231 183 179
0.07650645822286606 0.006431572139263153 0.13500000536441803 230 182 178
0.0768238976597786 0.006431572139263153 0.13500000536441803 239 192 193
0.07714133709669113 0.006431572139263153 0.13500000536441803 227 180 181
0.07745877653360367 0.006431572139263153 0.13500000536441803 211 167 165
0.0777762159705162 0.006431572139263153 0.13500000536441803 210 166 164
0.07809365540742874 0.006431572139263153 0.13500000536441803 195 158 153
0.07841108739376068 0.006431572139263153 0.13500000536441803 198 161 156
0.07872852683067322 0.006431572139263153 0.13500000536441803 193 156 153
0.07904596626758575 0.006431572139263153 0.13500000536441803 186 149 146
0.07936340570449829 0.006431572139263153 0.13500000536441803 185 147 140
0.07968084514141083 0.006431572139263153 0.13500000536441803 185 147 140
0.07999828457832336 0.006431572139263153 0.13500000536441803 180 142 133
0.0803157165646553 0.006431572139263153 0.13500000536441803 177 139 130
0.08063315600156784 0.006431572139263153 0.13500000536441803 180 137 128
0.08095059543848038 0.006431572139263153 0.13500000536441803 175 132 123
0.08126803487539291 0.006431572139263153 0.13500000536441803 175 130 117
0.08218980580568314 0.006479213479906321 0.13600000739097595 179 134 121
0.0825095996260643 0.006479213479906321 0.13600000739097595 186 140 120
0.08282938599586487 0.006479213479906321 0.13600000739097595 188 142 122
0.08314917981624603 0.006479213479906321 0.13600000739097595 197 149 132
0.082855224609375 0.006431572139263153 0.13500000536441803 188 140 123
0.08317266404628754 0.006431572139263153 0.13500000536441803 185 137 129
0.08349010348320007 0.006431572139263153 0.13500000536441803 178 130 122
0.08380754292011261 0.006431572139263153 0.13500000536441803 174 126 120
0.08474812656641006 0.006479213479906321 0.13600000739097595 180 132 126
0.08506791293621063 0.006479213479906321 0.13600000739097595 180 133 122
0.0853877067565918 0.006479213479906321 0.13600000739097595 177 130 119
0.08570749312639236 0.006479213479906321 0.13600000739097595 180 131 121
0.08602728694677353 0.006479213479906321 0.13600000739097595 181 132 122
0.0863470733165741 0.006479213479906321 0.13600000739097595 168 116 105
0.08666686713695526 0.006479213479906321 0.13600000739097595 166 114 103
0.08698665350675583 0.006479213479906321 0.13600000739097595 179 125 115
0.0873064398765564 0.006479213479906321 0.13600000739097595 186 132 122
0.08827054500579834 0.006526854820549488 0.13699999451637268 210 163 150
0.08859268575906754 0.006526854820549488 0.13699999451637268 210 163 150
0.08891482651233673 0.006526854820549488 0.13699999451637268 200 154 148
0.08923696726560593 0.006526854820549488 0.13699999451637268 195 149 143
0.08955910801887512 0.006526854820549488 0.13699999451637268 188 148 149
0.08988124877214432 0.006526854820549488 0.13699999451637268 188 148 149
0.09020338952541351 0.006526854820549488 0.13699999451637268 184 146 146
0.09052553027868271 0.006526854820549488 0.13699999451637268 177 139 139
0.0908476710319519 0.006526854820549488 0.13699999451637268 177 136 130
0.0911698117852211 0.006526854820549488 0.13699999451637268 180 139 133
0.09215977787971497 0.0065744961611926556 0.1379999965429306 178 131 130
0.09248427301645279 0.0065744961611926556 0.1379999965429306 158 111 110
0.09280876070261002 0.0065744961611926556 0.1379999965429306 156 108 112
0.09313325583934784 0.0065744961611926556 0.1379999965429306 154 106 110
0.09345774352550507 0.0065744961611926556 0.1379999965429306 156 114 113
0.0944618210196495 0.006622137501835823 0.13899999856948853 159 117 116
0.09478866308927536 0.006622137501835823 0.13899999856948853 159 122 117
0.09511550515890121 0.006622137501835823 0.13899999856948853 160 123 118
0.09612898528575897 0.006669778376817703 0.14000000059604645 163 119 119
0.09645818173885345 0.006669778376817703 0.14000000059604645 149 105 105
0.09678737819194794 0.006669778376817703 0.14000000059604645 148 93 99
0.09711657464504242 0.006669778376817703 0.14000000059604645 149 94 100
0.0974457710981369 0.006669778376817703 0.14000000059604645 148 95 93
0.09777496010065079 0.006669778376817703 0.14000000059604645 147 94 92
0.11671383678913116 0.007908451370894909 0.16599999368190765 138 76 73
0.11639871448278427 0.007860810495913029 0.16500000655651093 140 67 68
0.11678669601678848 0.007860810495913029 0.16500000655651093 138 65 66
0.1171746775507927 0.007860810495913029 0.16500000655651093 139 62 55
0.06137567013502121 0.007498900406062603 0.15000000596046448 255 166 159
0.06291339546442032 0.007348922546952963 0.1469999998807907 255 237 226
0.0632590502500534 0.007348922546952963 0.1469999998807907 255 242 231
0.06360470503568649 0.007348922546952963 0.1469999998807907 255 255 243
0.06395035982131958 0.007348922546952963 0.1469999998807907 255 255 243
0.06385862827301025 0.007298929616808891 0.1459999978542328 254 255 249
0.06420192867517471 0.007298929616808891 0.1459999978542328 254 255 249
0.06454523652791977 0.007298929616808891 0.1459999978542328 254 255 249
0.06488853693008423 0.007298929616808891 0.1459999978542328 254 255 249
0.06523183733224869 0.007298929616808891 0.1459999978542328 254 255 249
0.06557514518499374 0.007298929616808891 0.1459999978542328 254 255 249
0.0659184455871582 0.007298929616808891 0.1459999978542328 254 255 249
0.06580790132284164 0.007248937152326107 0.14499999582767487 254 255 249
0.06614885479211807 0.007248937152326107 0.14499999582767487 254 255 249
0.06603125482797623 0.007198944687843323 0.14399999380111694 254 255 249
0.06590895354747772 0.007148951757699251 0.14300000667572021 255 248 253
0.06624520570039749 0.007148951757699251 0.14300000667572021 243 227 232
0.06658145785331726 0.007148951757699251 0.14300000667572021 255 210 220
0.06691770255565643 0.007148951757699251 0.14300000667572021 247 201 211
0.06678364425897598 0.007098959293216467 0.1420000046491623 239 190 191
0.06711754202842712 0.007098959293216467 0.1420000046491623 237 188 189
0.06745143979787827 0.007098959293216467 0.1420000046491623 255 246 234
0.0677853375673294 0.007098959293216467 0.1420000046491623 255 249 237
0.06811923533678055 0.007098959293216467 0.1420000046491623 254 255 245
0.06845313310623169 0.007098959293216467 0.1420000046491623 254 255 245
0.06878703087568283 0.007098959293216467 0.1420000046491623 254 255 249
0.06912093609571457 0.007098959293216467 0.1420000046491623 254 255 249
0.06945483386516571 0.007098959293216467 0.1420000046491623 254 255 249
0.06929726153612137 0.007048966363072395 0.14100000262260437 254 255 249
0.06962880492210388 0.007048966363072395 0.14100000262260437 254 255 249
0.0699603483080864 0.007048966363072395 0.14100000262260437 254 255 249
0.06979337334632874 0.006998973898589611 0.14000000059604645 254 255 249
0.07012256979942322 0.006998973898589611 0.14000000059604645 253 254 248
0.06994853913784027 0.0069489809684455395 0.13899999856948853 248 248 244
0.07027538120746613 0.0069489809684455395 0.13899999856948853 251 251 247
0.07009429484605789 0.006898988503962755 0.1379999965429306 255 236 237
0.07041878998279572 0.006898988503962755 0.1379999965429306 227 199 200
0.07074327766895294 0.006898988503962755 0.1379999965429306 227 168 171
0.07106777280569077 0.006898988503962755 0.1379999965429306 231 172 175
0.07139226794242859 0.006898988503962755 0.1379999965429306 213 162 148
0.07119707018136978 0.006848995573818684 0.13699999451637268 254 203 189
0.07151921093463898 0.006848995573818684 0.13699999451637268 255 250 237
0.07184135168790817 0.006848995573818684 0.13699999451637268 255 250 237
0.07216349244117737 0.006848995573818684 0.13699999451637268 255 248 242
0.07248563319444656 0.006848995573818684 0.13699999451637268 244 225 219
0.07280777394771576 0.006848995573818684 0.13699999451637268 252 202 208
0.07312991470098495 0.006848995573818684 0.13699999451637268 244 194 200
0.07345205545425415 0.006848995573818684 0.13699999451637268 235 175 185
0.07323569804430008 0.006799003109335899 0.13600000739097595 237 177 187
0.07355549186468124 0.006799003109335899 0.13600000739097595 230 170 180
0.07387527823448181 0.006799003109335899 0.13600000739097595 227 167 177
0.07419507205486298 0.006799003109335899 0.13600000739097595 228 169 174
0.07396695762872696 0.006749010644853115 0.13500000536441803 226 167 172
0.0742843970656395 0.006749010644853115 0.13500000536441803 224 165 170
0.07460182905197144 0.006749010644853115 0.13500000536441803 219 160 165
0.07491926848888397 0.006749010644853115 0.13500000536441803 208 152 156
0.07523670792579651 0.006749010644853115 0.13500000536441803 199 143 147
0.07555414736270905 0.006749010644853115 0.13500000536441803 185 132 130
