0.05147770047187805 0.025858072564005852 0.19900000095367432 255 251 250
0.051945626735687256 0.025858072564005852 0.19900000095367432 255 249 248
0.052676938474178314 0.025988014414906502 0.20000000298023224 255 246 252
0.05341295525431633 0.026117954403162003 0.20100000500679016 255 244 250
0.054153669625520706 0.026247894391417503 0.20200000703334808 253 194 214
0.05489909276366234 0.026377834379673004 0.2029999941587448 222 163 183
0.005479585845023394 0.025664543733000755 0.1940000057220459 255 255 202
0.005935756489634514 0.025664543733000755 0.1940000057220459 255 255 202
0.006358978804200888 0.025532251223921776 0.19300000369548798 255 255 231
0.006812797859311104 0.025532251223921776 0.19300000369548798 255 255 231
0.007228965871036053 0.025399960577487946 0.19200000166893005 254 255 245
0.007640431635081768 0.025267669931054115 0.19099999964237213 254 255 245
0.008047194220125675 0.025135377421975136 0.1899999976158142 254 255 249
0.008493958972394466 0.025135377421975136 0.1899999976158142 254 255 249
0.008893667720258236 0.025003086775541306 0.1889999955892563 254 255 249
0.009288673289120197 0.024870794266462326 0.18799999356269836 254 255 249
0.00967897567898035 0.024738503620028496 0.18700000643730164 254 255 251
0.010118686594069004 0.024738503620028496 0.18700000643730164 254 255 251
0.01050193514674902 0.024606211110949516 0.1860000044107437 254 255 251
0.010939294472336769 0.024606211110949516 0.1860000044107437 254 255 251
0.011376653797924519 0.024606211110949516 0.1860000044107437 254 255 251
0.011814013123512268 0.024606211110949516 0.1860000044107437 254 255 251
0.012251372449100018 0.024606211110949516 0.1860000044107437 254 255 251
0.012688731774687767 0.024606211110949516 0.1860000044107437 254 255 251
0.013126091100275517 0.024606211110949516 0.1860000044107437 254 255 251
0.013490528799593449 0.024473920464515686 0.1850000023841858 254 255 251
0.013925536535680294 0.024473920464515686 0.1850000023841858 254 255 251
0.01436054427176714 0.024473920464515686 0.1850000023841858 254 255 251
0.014795552007853985 0.024473920464515686 0.1850000023841858 254 255 251
0.015148232690989971 0.024341629818081856 0.18400000035762787 254 255 251
0.015580888837575912 0.024341629818081856 0.18400000035762787 254 255 251
0.01601354591548443 0.024341629818081856 0.18400000035762787 254 255 251
0.016446202993392944 0.024341629818081856 0.18400000035762787 254 255 251
0.016787126660346985 0.024209337309002876 0.18299999833106995 254 255 251
0.017217431217432022 0.024209337309002876 0.18299999833106995 254 255 251
0.01764773577451706 0.024209337309002876 0.18299999833106995 254 255 251
0.018078040331602097 0.024209337309002876 0.18299999833106995 254 255 251
0.018508346751332283 0.024209337309002876 0.18299999833106995 254 255 251
0.01893865130841732 0.024209337309002876 0.18299999833106995 254 255 251
0.019263114780187607 0.024077046662569046 0.18199999630451202 254 255 251
0.019691068679094315 0.024077046662569046 0.18199999630451202 254 255 251
0.020119022578001022 0.024077046662569046 0.18199999630451202 254 255 251
0.02054697647690773 0.024077046662569046 0.18199999630451202 254 255 251
0.020974930375814438 0.024077046662569046 0.18199999630451202 254 255 251
0.021402884274721146 0.024077046662569046 0.18199999630451202 254 255 251
0.021710887551307678 0.023944754153490067 0.1809999942779541 254 255 251
0.022136490792036057 0.023944754153490067 0.1809999942779541 254 255 251
0.022562092170119286 0.023944754153490067 0.1809999942779541 254 255 251
0.022987695410847664 0.023944754153490067 0.1809999942779541 254 255 249
0.023413296788930893 0.023944754153490067 0.1809999942779541 254 255 249
0.02383890002965927 0.023944754153490067 0.1809999942779541 254 255 249
0.0242645014077425 0.023944754153490067 0.1809999942779541 254 255 249
0.02469010464847088 0.023944754153490067 0.1809999942779541 254 255 249
0.025115706026554108 0.023944754153490067 0.1809999942779541 254 255 249
0.025541309267282486 0.023944754153490067 0.1809999942779541 254 255 249
0.025966910645365715 0.023944754153490067 0.1809999942779541 254 255 249
0.02653832919895649 0.024077046662569046 0.18199999630451202 254 255 249
0.026966281235218048 0.024077046662569046 0.18199999630451202 254 255 249
0.027394235134124756 0.024077046662569046 0.18199999630451202 254 255 249
0.027822189033031464 0.024077046662569046 0.18199999630451202 254 255 249
0.02825014293193817 0.024077046662569046 0.18199999630451202 254 255 249
0.02867809683084488 0.024077046662569046 0.18199999630451202 254 255 249
0.029106050729751587 0.024077046662569046 0.18199999630451202 254 255 249
0.029534004628658295 0.024077046662569046 0.18199999630451202 254 255 249
0.029961958527565002 0.024077046662569046 0.18199999630451202 254 255 249
0.03038991242647171 0.024077046662569046 0.18199999630451202 254 255 249
0.030817866325378418 0.024077046662569046 0.18199999630451202 254 255 249
0.031245820224285126 0.024077046662569046 0.18199999630451202 254 255 249
0.031673774123191833 0.024077046662569046 0.18199999630451202 254 255 249
0.03210172802209854 0.024077046662569046 0.18199999630451202 254 255 249
0.03252968192100525 0.024077046662569046 0.18199999630451202 254 255 249
0.03277654945850372 0.023944754153490067 0.1809999942779541 254 255 249
0.0332021489739418 0.023944754153490067 0.1809999942779541 254 255 249
0.03362775221467018 0.023944754153490067 0.1809999942779541 254 255 249
0.03405335545539856 0.023944754153490067 0.1809999942779541 254 255 249
0.03447895869612694 0.023944754153490067 0.1809999942779541 254 255 249
0.03490455821156502 0.023944754153490067 0.1809999942779541 254 255 249
0.035330161452293396 0.023944754153490067 0.1809999942779541 254 255 249
0.035755764693021774 0.023944754153490067 0.1809999942779541 254 255 249
0.03618136793375015 0.023944754153490067 0.1809999942779541 254 255 249
0.03680921718478203 0.024077046662569046 0.18199999630451202 254 255 249
0.037237171083688736 0.024077046662569046 0.18199999630451202 254 255 249
0.037665124982595444 0.024077046662569046 0.18199999630451202 254 255 249
0.038302380591630936 0.024209337309002876 0.18299999833106995 254 255 249
0.03873268514871597 0.024209337309002876 0.18299999833106995 254 255 251
0.03937699645757675 0.024341629818081856 0.18400000035762787 252 253 249
0.04002600908279419 0.024473920464515686 0.1850000023841858 251 252 248
0.040679726749658585 0.024606211110949516 0.1860000044107437 254 255 251
0.04133814573287964 0.024738503620028496 0.18700000643730164 254 255 251
0.04177785664796829 0.024738503620028496 0.18700000643730164 254 255 251
0.042443327605724335 0.024870794266462326 0.18799999356269836 254 255 251
0.042885392904281616 0.024870794266462326 0.18799999356269836 254 255 251
0.043557919561862946 0.025003086775541306 0.1889999955892563 254 255 251
0.044235147535800934 0.025135377421975136 0.1899999976158142 254 255 251
0.044681914150714874 0.025135377421975136 0.1899999976158142 255 255 251
0.045128677040338516 0.025135377421975136 0.1899999976158142 239 239 235
0.04581531509757042 0.025267669931054115 0.19099999964237213 246 241 239
0.04626442864537239 0.025267669931054115 0.19099999964237213 255 253 251
0.04695811867713928 0.025399960577487946 0.19200000166893005 255 254 251
0.04765651375055313 0.025532251223921776 0.19300000369548798 255 254 251
0.04835960641503334 0.025664543733000755 0.1940000057220459 255 252 251
0.049067407846450806 0.025796834379434586 0.19499999284744263 255 250 249
0.04977990686893463 0.025929126888513565 0.19599999487400055 231 221 221
0.050497110933065414 0.026061417534947395 0.19699999690055847 247 237 237
0.051219016313552856 0.026193710044026375 0.1979999989271164 255 249 248
0.051945626735687256 0.026326000690460205 0.19900000095367432 255 250 249
0.052676938474178314 0.026458293199539185 0.20000000298023224 255 243 247
0.053147219121456146 0.026458293199539185 0.20000000298023224 255 246 250
0.05388558283448219 0.026590583845973015 0.20100000500679016 255 215 235
0.0546286515891552 0.026722874492406845 0.20200000703334808 223 169 189
0.005479585845023394 0.026120714843273163 0.1940000057220459 255 255 193
0.005935756489634514 0.026120714843273163 0.1940000057220459 255 255 195
0.006358978804200888 0.025986071676015854 0.19300000369548798 255 255 220
0.006812797859311104 0.025986071676015854 0.19300000369548798 255 255 220
0.007228965871036053 0.025851428508758545 0.19200000166893005 255 255 239
0.007640431635081768 0.025716785341501236 0.19099999964237213 255 255 239
0.008047194220125675 0.025582142174243927 0.1899999976158142 254 255 245
0.008449253626167774 0.025447499006986618 0.1889999955892563 254 255 245
0.00884661078453064 0.02531285770237446 0.18799999356269836 254 255 249
0.009288673289120197 0.02531285770237446 0.18799999356269836 254 255 249
0.00967897567898035 0.02517821453511715 0.18700000643730164 254 255 249
0.010118686594069004 0.02517821453511715 0.18700000643730164 254 255 249
0.01050193514674902 0.02504357136785984 0.1860000044107437 254 255 249
0.010939294472336769 0.02504357136785984 0.1860000044107437 254 255 249
0.011376653797924519 0.02504357136785984 0.1860000044107437 254 255 251
0.011814013123512268 0.02504357136785984 0.1860000044107437 254 255 251
0.012251372449100018 0.02504357136785984 0.1860000044107437 254 255 251
0.012688731774687767 0.02504357136785984 0.1860000044107437 254 255 251
0.013126091100275517 0.02504357136785984 0.1860000044107437 254 255 251
0.013490528799593449 0.02490892820060253 0.1850000023841858 254 255 251
0.013925536535680294 0.02490892820060253 0.1850000023841858 254 255 251
0.01436054427176714 0.02490892820060253 0.1850000023841858 254 255 251
0.014795552007853985 0.02490892820060253 0.1850000023841858 254 255 251
0.015148232690989971 0.024774285033345222 0.18400000035762787 254 255 251
0.015580888837575912 0.024774285033345222 0.18400000035762787 254 255 251
0.01601354591548443 0.024774285033345222 0.18400000035762787 254 255 251
0.0163568202406168 0.024639641866087914 0.18299999833106995 254 255 251
0.016787126660346985 0.024639641866087914 0.18299999833106995 254 255 251
0.017217431217432022 0.024639641866087914 0.18299999833106995 254 255 251
0.01764773577451706 0.024639641866087914 0.18299999833106995 254 255 251
0.018078040331602097 0.024639641866087914 0.18299999833106995 254 255 251
0.01840720698237419 0.024505000561475754 0.18199999630451202 254 255 251
0.0188351608812809 0.024505000561475754 0.18199999630451202 254 255 251
0.019263114780187607 0.024505000561475754 0.18199999630451202 254 255 251
0.019691068679094315 0.024505000561475754 0.18199999630451202 254 255 251
0.020119022578001022 0.024505000561475754 0.18199999630451202 254 255 251
0.02054697647690773 0.024505000561475754 0.18199999630451202 254 255 251
0.020974930375814438 0.024505000561475754 0.18199999630451202 254 255 251
0.02128528617322445 0.024370357394218445 0.1809999942779541 254 255 251
0.021710887551307678 0.024370357394218445 0.1809999942779541 254 255 251
0.022136490792036057 0.024370357394218445 0.1809999942779541 254 255 251
0.022562092170119286 0.024370357394218445 0.1809999942779541 254 255 251
0.022987695410847664 0.024370357394218445 0.1809999942779541 254 255 251
0.023413296788930893 0.024370357394218445 0.1809999942779541 254 255 251
0.02383890002965927 0.024370357394218445 0.1809999942779541 254 255 251
0.0242645014077425 0.024370357394218445 0.1809999942779541 254 255 251
0.02469010464847088 0.024370357394218445 0.1809999942779541 254 255 251
0.025115706026554108 0.024370357394218445 0.1809999942779541 254 255 251
0.025541309267282486 0.024370357394218445 0.1809999942779541 254 255 251
0.025966910645365715 0.024370357394218445 0.1809999942779541 254 255 251
0.026392513886094093 0.024370357394218445 0.1809999942779541 254 255 251
0.026966281235218048 0.024505000561475754 0.18199999630451202 254 255 251
0.027394235134124756 0.024505000561475754 0.18199999630451202 254 255 249
0.027822189033031464 0.024505000561475754 0.18199999630451202 254 255 249
0.02825014293193817 0.024505000561475754 0.18199999630451202 254 255 249
0.02867809683084488 0.024505000561475754 0.18199999630451202 254 255 249
0.029106050729751587 0.024505000561475754 0.18199999630451202 254 255 249
0.029696280136704445 0.024639641866087914 0.18299999833106995 254 255 249
0.030126584693789482 0.024639641866087914 0.18299999833106995 254 255 249
0.03038991242647171 0.024505000561475754 0.18199999630451202 254 255 249
0.030817866325378418 0.024505000561475754 0.18199999630451202 254 255 249
0.031245820224285126 0.024505000561475754 0.18199999630451202 254 255 249
0.031673774123191833 0.024505000561475754 0.18199999630451202 254 255 249
0.03210172802209854 0.024505000561475754 0.18199999630451202 254 255 249
0.03252968192100525 0.024505000561475754 0.18199999630451202 254 255 249
0.03277654945850372 0.024370357394218445 0.1809999942779541 254 255 249
0.0332021489739418 0.024370357394218445 0.1809999942779541 254 255 249
0.03362775221467018 0.024370357394218445 0.1809999942779541 254 255 249
0.03405335545539856 0.024370357394218445 0.1809999942779541 254 255 249
0.03447895869612694 0.024370357394218445 0.1809999942779541 254 255 249
0.03490455821156502 0.024370357394218445 0.1809999942779541 254 255 249
0.035330161452293396 0.024370357394218445 0.1809999942779541 254 255 249
0.035755764693021774 0.024370357394218445 0.1809999942779541 254 255 249
0.03638126328587532 0.024505000561475754 0.18199999630451202 254 255 249
0.03680921718478203 0.024505000561475754 0.18199999630451202 254 255 249
0.037237171083688736 0.024505000561475754 0.18199999630451202 254 255 249
0.037665124982595444 0.024505000561475754 0.18199999630451202 254 255 249
0.038302380591630936 0.024639641866087914 0.18299999833106995 254 255 249
0.03873268514871597 0.024639641866087914 0.18299999833106995 254 255 251
0.03937699645757675 0.024774285033345222 0.18400000035762787 249 250 246
0.04002600908279419 0.02490892820060253 0.1850000023841858 252 253 249
0.040679726749658585 0.02504357136785984 0.1860000044107437 254 255 251
0.04111708700656891 0.02504357136785984 0.1860000044107437 254 255 251
0.04177785664796829 0.02517821453511715 0.18700000643730164 254 255 251
0.042443327605724335 0.02531285770237446 0.18799999356269836 254 255 251
0.042885392904281616 0.02531285770237446 0.18799999356269836 254 255 251
0.0433274544775486 0.02531285770237446 0.18799999356269836 254 255 251
0.04400233179330826 0.025447499006986618 0.1889999955892563 254 255 251
0.04444674402475357 0.025447499006986618 0.1889999955892563 254 254 250
0.04489115998148918 0.025447499006986618 0.1889999955892563 237 237 233
0.04557544365525246 0.025582142174243927 0.1899999976158142 235 230 228
0.0460222065448761 0.025582142174243927 0.1899999976158142 255 251 249
0.04671354591846466 0.025716785341501236 0.19099999964237213 255 254 251
0.04740958660840988 0.025851428508758545 0.19200000166893005 255 254 251
0.04811033234000206 0.025986071676015854 0.19300000369548798 255 251 249
0.0488157793879509 0.026120714843273163 0.1940000057220459 255 251 249
0.04952592775225639 0.026255356147885323 0.19499999284744263 225 213 213
0.05024078115820885 0.02638999931514263 0.19599999487400055 233 221 221
0.05096033588051796 0.02652464248239994 0.19699999690055847 251 236 237
0.05168459191918373 0.02665928564965725 0.1979999989271164 255 248 249
0.05241355299949646 0.02679392881691456 0.19900000095367432 255 244 251
0.053147219121456146 0.026928571984171867 0.20000000298023224 254 233 240
0.05388558283448219 0.027063213288784027 0.20100000500679016 255 222 242
0.054358214139938354 0.027063213288784027 0.20100000500679016 237 190 210
0.005479585845023394 0.02657688409090042 0.1940000057220459 254 255 186
0.005935756489634514 0.02657688409090042 0.1940000057220459 255 255 189
0.006358978804200888 0.026439890265464783 0.19300000369548798 254 255 203
0.006777498405426741 0.026302896440029144 0.19200000166893005 255 255 204
0.007191315293312073 0.026165902614593506 0.19099999964237213 254 255 224
0.007640431635081768 0.026165902614593506 0.19099999964237213 255 255 226
0.008047194220125675 0.026028906926512718 0.1899999976158142 254 255 239
0.008449253626167774 0.02589191310107708 0.1889999955892563 254 255 239
0.00884661078453064 0.02575491927564144 0.18799999356269836 254 255 247
0.009288673289120197 0.02575491927564144 0.18799999356269836 254 255 247
0.00967897567898035 0.025617925450205803 0.18700000643730164 254 255 249
0.010118686594069004 0.025617925450205803 0.18700000643730164 254 255 249
0.01050193514674902 0.025480929762125015 0.1860000044107437 254 255 249
0.010939294472336769 0.025480929762125015 0.1860000044107437 254 255 249
0.011376653797924519 0.025480929762125015 0.1860000044107437 254 255 251
0.011814013123512268 0.025480929762125015 0.1860000044107437 254 255 251
0.012251372449100018 0.025480929762125015 0.1860000044107437 254 255 251
0.012688731774687767 0.025480929762125015 0.1860000044107437 254 255 251
0.013126091100275517 0.025480929762125015 0.1860000044107437 254 255 251
0.013490528799593449 0.025343935936689377 0.1850000023841858 254 255 251
0.013925536535680294 0.025343935936689377 0.1850000023841858 254 255 251
0.01436054427176714 0.025343935936689377 0.1850000023841858 254 255 251
0.01471557654440403 0.02520694211125374 0.18400000035762787 254 255 251
0.015148232690989971 0.02520694211125374 0.18400000035762787 254 255 251
0.015580888837575912 0.02520694211125374 0.18400000035762787 254 255 251
0.01592651568353176 0.0250699482858181 0.18299999833106995 254 255 251
0.0163568202406168 0.0250699482858181 0.18299999833106995 254 255 251
0.016787126660346985 0.0250699482858181 0.18299999833106995 254 255 251
0.017217431217432022 0.0250699482858181 0.18299999833106995 254 255 251
0.01764773577451706 0.0250699482858181 0.18299999833106995 254 255 251
0.018078040331602097 0.0250699482858181 0.18299999833106995 254 255 251
0.01840720698237419 0.024932952597737312 0.18199999630451202 254 255 251
0.0188351608812809 0.024932952597737312 0.18199999630451202 254 255 251
0.019263114780187607 0.024932952597737312 0.18199999630451202 254 255 251
0.019691068679094315 0.024932952597737312 0.18199999630451202 254 255 251
0.020119022578001022 0.024932952597737312 0.18199999630451202 254 255 251
0.02054697647690773 0.024932952597737312 0.18199999630451202 254 255 251
0.02085968293249607 0.024795958772301674 0.1809999942779541 254 255 251
0.02128528617322445 0.024795958772301674 0.1809999942779541 254 255 251
0.021710887551307678 0.024795958772301674 0.1809999942779541 254 255 251
0.022136490792036057 0.024795958772301674 0.1809999942779541 254 255 251
0.022562092170119286 0.024795958772301674 0.1809999942779541 252 253 249
0.022987695410847664 0.024795958772301674 0.1809999942779541 254 255 251
0.023413296788930893 0.024795958772301674 0.1809999942779541 254 255 251
0.02383890002965927 0.024795958772301674 0.1809999942779541 254 255 251
0.0242645014077425 0.024795958772301674 0.1809999942779541 254 255 251
0.02469010464847088 0.024795958772301674 0.1809999942779541 254 255 251
0.025115706026554108 0.024795958772301674 0.1809999942779541 254 255 251
0.025541309267282486 0.024795958772301674 0.1809999942779541 254 255 251
0.025966910645365715 0.024795958772301674 0.1809999942779541 254 255 251
0.026392513886094093 0.024795958772301674 0.1809999942779541 254 255 251
0.026818115264177322 0.024795958772301674 0.1809999942779541 254 255 251
0.0272437185049057 0.024795958772301674 0.1809999942779541 254 255 249
0.027822189033031464 0.024932952597737312 0.18199999630451202 254 255 249
0.02825014293193817 0.024932952597737312 0.18199999630451202 253 255 246
0.02867809683084488 0.024932952597737312 0.18199999630451202 254 255 247
0.029106050729751587 0.024932952597737312 0.18199999630451202 254 255 247
0.029696280136704445 0.0250699482858181 0.18299999833106995 254 255 247
0.030126584693789482 0.0250699482858181 0.18299999833106995 254 255 249
0.03038991242647171 0.024932952597737312 0.18199999630451202 254 255 249
0.030817866325378418 0.024932952597737312 0.18199999630451202 254 255 249
0.031245820224285126 0.024932952597737312 0.18199999630451202 254 255 249
0.031673774123191833 0.024932952597737312 0.18199999630451202 254 255 249
0.03210172802209854 0.024932952597737312 0.18199999630451202 254 255 249
0.03252968192100525 0.024932952597737312 0.18199999630451202 254 255 249
0.03277654945850372 0.024795958772301674 0.1809999942779541 254 255 249
0.0332021489739418 0.024795958772301674 0.1809999942779541 254 255 249
0.03362775221467018 0.024795958772301674 0.1809999942779541 254 255 249
0.03405335545539856 0.024795958772301674 0.1809999942779541 254 255 249
0.03447895869612694 0.024795958772301674 0.1809999942779541 254 255 249
0.03490455821156502 0.024795958772301674 0.1809999942779541 254 255 249
0.035330161452293396 0.024795958772301674 0.1809999942779541 254 255 249
0.03595330938696861 0.024932952597737312 0.18199999630451202 254 255 249
0.03638126328587532 0.024932952597737312 0.18199999630451202 254 255 249
0.03680921718478203 0.024932952597737312 0.18199999630451202 254 255 249
0.037237171083688736 0.024932952597737312 0.18199999630451202 254 255 249
0.037665124982595444 0.024932952597737312 0.18199999630451202 254 255 249
0.038302380591630936 0.0250699482858181 0.18299999833106995 254 255 249
0.03873268514871597 0.0250699482858181 0.18299999833106995 254 255 251
0.03937699645757675 0.02520694211125374 0.18400000035762787 240 241 237
0.04002600908279419 0.025343935936689377 0.1850000023841858 238 239 235
0.040679726749658585 0.025480929762125015 0.1860000044107437 245 246 242
0.04111708700656891 0.025480929762125015 0.1860000044107437 254 255 251
0.04177785664796829 0.025617925450205803 0.18700000643730164 254 255 251
0.042217567563056946 0.025617925450205803 0.18700000643730164 254 255 251
0.042885392904281616 0.02575491927564144 0.18799999356269836 254 255 251
0.0433274544775486 0.02575491927564144 0.18799999356269836 254 255 251
0.04400233179330826 0.02589191310107708 0.1889999955892563 254 255 251
0.04444674402475357 0.02589191310107708 0.1889999955892563 254 255 251
0.04489115998148918 0.02589191310107708 0.1889999955892563 247 248 244
0.045335572212934494 0.02589191310107708 0.1889999955892563 234 229 227
0.0460222065448761 0.026028906926512718 0.1899999976158142 249 244 242
0.04671354591846466 0.026165902614593506 0.19099999964237213 255 253 250
0.04716266319155693 0.026165902614593506 0.19099999964237213 254 251 248
0.04811033234000206 0.026439890265464783 0.19300000369548798 253 250 247
0.0488157793879509 0.02657688409090042 0.1940000057220459 255 252 249
0.04952592775225639 0.02671387791633606 0.19499999284744263 237 226 221
0.05024078115820885 0.026850873604416847 0.19599999487400055 225 214 209
0.05096033588051796 0.026987867429852486 0.19699999690055847 244 222 226
0.05168459191918373 0.027124861255288124 0.1979999989271164 255 244 248
0.05241355299949646 0.027261855080723763 0.19900000095367432 255 243 249
0.053147219121456146 0.02739885076880455 0.20000000298023224 253 224 230
0.05361749604344368 0.02739885076880455 0.20000000298023224 255 221 240
0.054358214139938354 0.02753584459424019 0.20100000500679016 249 199 218
0.006358978804200888 0.02689370885491371 0.19300000369548798 255 255 196
0.006777498405426741 0.026754364371299744 0.19200000166893005 255 255 197
0.007191315293312073 0.026615018025040627 0.19099999964237213 255 255 212
0.007640431635081768 0.026615018025040627 0.19099999964237213 255 255 213
0.008047194220125675 0.02647567167878151 0.1899999976158142 254 255 234
0.008449253626167774 0.02633632719516754 0.1889999955892563 255 255 235
0.00884661078453064 0.026196980848908424 0.18799999356269836 254 255 245
0.009288673289120197 0.026196980848908424 0.18799999356269836 254 255 245
0.00967897567898035 0.026057634502649307 0.18700000643730164 254 255 249
0.010118686594069004 0.026057634502649307 0.18700000643730164 254 255 249
0.01050193514674902 0.02591829001903534 0.1860000044107437 254 255 249
0.010939294472336769 0.02591829001903534 0.1860000044107437 254 255 249
0.011376653797924519 0.02591829001903534 0.1860000044107437 254 255 251
0.011814013123512268 0.02591829001903534 0.1860000044107437 254 255 251
0.012251372449100018 0.02591829001903534 0.1860000044107437 254 255 251
0.012620512396097183 0.025778943672776222 0.1850000023841858 254 255 251
0.013055521063506603 0.025778943672776222 0.1850000023841858 254 255 251
0.013490528799593449 0.025778943672776222 0.1850000023841858 254 255 251
0.013925536535680294 0.025778943672776222 0.1850000023841858 254 255 251
0.01436054427176714 0.025778943672776222 0.1850000023841858 254 255 251
0.01471557654440403 0.025639599189162254 0.18400000035762787 254 255 251
0.015148232690989971 0.025639599189162254 0.18400000035762787 254 255 251
0.015580888837575912 0.025639599189162254 0.18400000035762787 254 255 251
0.01592651568353176 0.025500252842903137 0.18299999833106995 254 255 251
0.0163568202406168 0.025500252842903137 0.18299999833106995 254 255 251
0.016787126660346985 0.025500252842903137 0.18299999833106995 254 255 251
0.017217431217432022 0.025500252842903137 0.18299999833106995 254 255 251
0.01764773577451706 0.025500252842903137 0.18299999833106995 254 255 251
0.018078040331602097 0.025500252842903137 0.18299999833106995 254 255 251
0.01840720698237419 0.02536090649664402 0.18199999630451202 254 255 251
0.0188351608812809 0.02536090649664402 0.18199999630451202 254 255 251
0.019263114780187607 0.02536090649664402 0.18199999630451202 254 255 251
0.019691068679094315 0.02536090649664402 0.18199999630451202 254 255 251
0.020119022578001022 0.02536090649664402 0.18199999630451202 254 255 251
0.02054697647690773 0.02536090649664402 0.18199999630451202 254 255 251
0.02085968293249607 0.025221562013030052 0.1809999942779541 254 255 251
0.02128528617322445 0.025221562013030052 0.1809999942779541 254 255 251
0.021710887551307678 0.025221562013030052 0.1809999942779541 254 255 251
0.022136490792036057 0.025221562013030052 0.1809999942779541 254 255 249
0.022562092170119286 0.025221562013030052 0.1809999942779541 249 250 244
0.022987695410847664 0.025221562013030052 0.1809999942779541 252 254 245
0.023413296788930893 0.025221562013030052 0.1809999942779541 254 255 247
0.02383890002965927 0.025221562013030052 0.1809999942779541 254 255 249
0.0242645014077425 0.025221562013030052 0.1809999942779541 254 255 249
0.02469010464847088 0.025221562013030052 0.1809999942779541 254 255 249
0.025115706026554108 0.025221562013030052 0.1809999942779541 254 255 249
0.025541309267282486 0.025221562013030052 0.1809999942779541 254 255 249
0.025966910645365715 0.025221562013030052 0.1809999942779541 254 255 249
0.026392513886094093 0.025221562013030052 0.1809999942779541 254 255 249
0.026818115264177322 0.025221562013030052 0.1809999942779541 254 255 249
0.0272437185049057 0.025221562013030052 0.1809999942779541 254 255 247
0.02766931988298893 0.025221562013030052 0.1809999942779541 252 254 245
0.02825014293193817 0.02536090649664402 0.18199999630451202 241 242 233
0.02867809683084488 0.02536090649664402 0.18199999630451202 252 253 244
0.029106050729751587 0.02536090649664402 0.18199999630451202 254 255 247
0.029696280136704445 0.025500252842903137 0.18299999833106995 254 255 247
0.030126584693789482 0.025500252842903137 0.18299999833106995 254 255 247
0.03038991242647171 0.02536090649664402 0.18199999630451202 254 255 247
0.030817866325378418 0.02536090649664402 0.18199999630451202 254 255 249
0.031245820224285126 0.02536090649664402 0.18199999630451202 254 255 249
0.031673774123191833 0.02536090649664402 0.18199999630451202 254 255 249
0.03210172802209854 0.02536090649664402 0.18199999630451202 254 255 249
0.03252968192100525 0.02536090649664402 0.18199999630451202 254 255 249
0.03277654945850372 0.025221562013030052 0.1809999942779541 254 255 249
0.0332021489739418 0.025221562013030052 0.1809999942779541 254 255 249
0.03362775221467018 0.025221562013030052 0.1809999942779541 254 255 249
0.03405335545539856 0.025221562013030052 0.1809999942779541 254 255 249
0.03447895869612694 0.025221562013030052 0.1809999942779541 254 255 249
0.03490455821156502 0.025221562013030052 0.1809999942779541 254 255 249
0.035330161452293396 0.025221562013030052 0.1809999942779541 254 255 249
0.03595330938696861 0.02536090649664402 0.18199999630451202 254 255 249
0.03638126328587532 0.02536090649664402 0.18199999630451202 254 255 249
0.03680921718478203 0.02536090649664402 0.18199999630451202 254 255 249
0.037237171083688736 0.02536090649664402 0.18199999630451202 254 255 249
0.0378720760345459 0.025500252842903137 0.18299999833106995 254 255 249
0.038302380591630936 0.025500252842903137 0.18299999833106995 254 255 249
0.03873268514871597 0.025500252842903137 0.18299999833106995 255 255 251
0.03937699645757675 0.025639599189162254 0.18400000035762787 245 245 241
0.04002600908279419 0.025778943672776222 0.1850000023841858 239 240 236
0.040679726749658585 0.02591829001903534 0.1860000044107437 252 253 249
0.04111708700656891 0.02591829001903534 0.1860000044107437 254 255 251
0.04177785664796829 0.026057634502649307 0.18700000643730164 254 255 251
0.042217567563056946 0.026057634502649307 0.18700000643730164 254 255 251
0.042885392904281616 0.026196980848908424 0.18799999356269836 254 255 251
0.0433274544775486 0.026196980848908424 0.18799999356269836 254 255 251
0.04376951605081558 0.026196980848908424 0.18799999356269836 254 255 251
0.044211577624082565 0.026196980848908424 0.18799999356269836 254 255 251
0.04489115998148918 0.02633632719516754 0.1889999955892563 254 255 251
0.045335572212934494 0.02633632719516754 0.1889999955892563 233 228 226
0.0460222065448761 0.02647567167878151 0.1899999976158142 246 241 239
0.04646897315979004 0.02647567167878151 0.1899999976158142 255 252 251
0.04716266319155693 0.026615018025040627 0.19099999964237213 255 252 251
0.04786105453968048 0.026754364371299744 0.19200000166893005 254 249 247
0.04856415092945099 0.02689370885491371 0.19300000369548798 255 251 249
0.049271948635578156 0.02703305520117283 0.1940000057220459 255 247 242
0.04998445138335228 0.027172399684786797 0.19499999284744263 211 200 195
0.05096033588051796 0.02745109237730503 0.19699999690055847 239 208 210
0.05168459191918373 0.027590436860919 0.1979999989271164 247 216 218
0.052150171250104904 0.027590436860919 0.1979999989271164 255 235 249
0.05288148298859596 0.027729783207178116 0.19900000095367432 255 221 235
0.05361749604344368 0.027869129553437233 0.20000000298023224 255 213 231
0.05408777669072151 0.027869129553437233 0.20000000298023224 254 200 218
0.006358978804200888 0.02734752744436264 0.19300000369548798 255 255 190
0.006777498405426741 0.027205830439925194 0.19200000166893005 255 255 190
0.007191315293312073 0.027064133435487747 0.19099999964237213 250 248 196
0.007600429002195597 0.0269224364310503 0.1899999976158142 247 245 193
0.008047194220125675 0.0269224364310503 0.1899999976158142 246 247 220
0.008449253626167774 0.026780739426612854 0.1889999955892563 255 255 231
0.00884661078453064 0.026639042422175407 0.18799999356269836 254 255 243
0.009288673289120197 0.026639042422175407 0.18799999356269836 254 255 243
0.00967897567898035 0.02649734541773796 0.18700000643730164 254 255 249
0.010118686594069004 0.02649734541773796 0.18700000643730164 254 255 249
0.01050193514674902 0.026355648413300514 0.1860000044107437 254 255 249
0.010939294472336769 0.026355648413300514 0.1860000044107437 254 255 249
0.011376653797924519 0.026355648413300514 0.1860000044107437 254 255 251
0.011814013123512268 0.026355648413300514 0.1860000044107437 254 255 251
0.012251372449100018 0.026355648413300514 0.1860000044107437 254 255 251
0.012620512396097183 0.026213951408863068 0.1850000023841858 254 255 251
0.013055521063506603 0.026213951408863068 0.1850000023841858 254 255 251
0.013490528799593449 0.026213951408863068 0.1850000023841858 254 255 251
0.013925536535680294 0.026213951408863068 0.1850000023841858 254 255 251
0.01436054427176714 0.026213951408863068 0.1850000023841858 254 255 251
0.01471557654440403 0.02607225440442562 0.18400000035762787 254 255 251
0.015148232690989971 0.02607225440442562 0.18400000035762787 254 255 251
0.01549621019512415 0.025930557399988174 0.18299999833106995 254 255 251
0.01592651568353176 0.025930557399988174 0.18299999833106995 254 255 251
0.0163568202406168 0.025930557399988174 0.18299999833106995 254 255 251
0.016787126660346985 0.025930557399988174 0.18299999833106995 254 255 251
0.017217431217432022 0.025930557399988174 0.18299999833106995 254 255 249
0.01764773577451706 0.025930557399988174 0.18299999833106995 252 253 247
0.018078040331602097 0.025930557399988174 0.18299999833106995 252 253 247
0.018508346751332283 0.025930557399988174 0.18299999833106995 254 255 249
0.0188351608812809 0.025788860395550728 0.18199999630451202 252 255 249
0.019263114780187607 0.025788860395550728 0.18199999630451202 252 255 249
0.019691068679094315 0.025788860395550728 0.18199999630451202 252 255 249
0.020119022578001022 0.025788860395550728 0.18199999630451202 252 255 249
0.02054697647690773 0.025788860395550728 0.18199999630451202 252 255 249
0.020974930375814438 0.025788860395550728 0.18199999630451202 252 255 249
0.02128528617322445 0.02564716339111328 0.1809999942779541 252 255 249
0.021710887551307678 0.02564716339111328 0.1809999942779541 252 255 249
0.022136490792036057 0.02564716339111328 0.1809999942779541 254 255 243
0.022562092170119286 0.02564716339111328 0.1809999942779541 233 235 222
0.022987695410847664 0.02564716339111328 0.1809999942779541 247 249 231
0.023413296788930893 0.02564716339111328 0.1809999942779541 253 255 237
0.02383890002965927 0.02564716339111328 0.1809999942779541 254 255 245
0.0242645014077425 0.02564716339111328 0.1809999942779541 254 255 245
0.02469010464847088 0.02564716339111328 0.1809999942779541 254 255 249
0.025115706026554108 0.02564716339111328 0.1809999942779541 254 255 249
0.025541309267282486 0.02564716339111328 0.1809999942779541 254 255 249
0.025966910645365715 0.02564716339111328 0.1809999942779541 254 255 249
0.026392513886094093 0.02564716339111328 0.1809999942779541 254 255 247
0.026818115264177322 0.02564716339111328 0.1809999942779541 254 255 247
0.0272437185049057 0.02564716339111328 0.1809999942779541 254 255 246
0.02766931988298893 0.02564716339111328 0.1809999942779541 253 254 245
0.028094923123717308 0.02564716339111328 0.1809999942779541 225 222 208
0.02867809683084488 0.025788860395550728 0.18199999630451202 242 239 225
0.029106050729751587 0.025788860395550728 0.18199999630451202 254 255 243
0.029534004628658295 0.025788860395550728 0.18199999630451202 254 255 243
0.029961958527565002 0.025788860395550728 0.18199999630451202 254 255 245
0.03038991242647171 0.025788860395550728 0.18199999630451202 254 255 245
0.030817866325378418 0.025788860395550728 0.18199999630451202 254 255 249
0.031245820224285126 0.025788860395550728 0.18199999630451202 254 255 249
0.031673774123191833 0.025788860395550728 0.18199999630451202 254 255 249
0.03210172802209854 0.025788860395550728 0.18199999630451202 254 255 249
0.03252968192100525 0.025788860395550728 0.18199999630451202 254 255 249
0.03277654945850372 0.02564716339111328 0.1809999942779541 254 255 249
0.0332021489739418 0.02564716339111328 0.1809999942779541 249 251 238
0.03362775221467018 0.02564716339111328 0.1809999942779541 238 240 227
0.03405335545539856 0.02564716339111328 0.1809999942779541 255 253 241
0.03466944769024849 0.025788860395550728 0.18199999630451202 255 255 243
0.0350974015891552 0.025788860395550728 0.18199999630451202 254 255 245
0.035525355488061905 0.025788860395550728 0.18199999630451202 254 255 245
0.03595330938696861 0.025788860395550728 0.18199999630451202 254 255 249
0.03638126328587532 0.025788860395550728 0.18199999630451202 254 255 249
0.03680921718478203 0.025788860395550728 0.18199999630451202 254 255 249
0.037237171083688736 0.025788860395550728 0.18199999630451202 254 255 249
0.0378720760345459 0.025930557399988174 0.18299999833106995 254 255 251
0.038302380591630936 0.025930557399988174 0.18299999833106995 254 255 251
0.038944341242313385 0.02607225440442562 0.18400000035762787 253 253 249
0.03937699645757675 0.02607225440442562 0.18400000035762787 243 243 239
0.04002600908279419 0.026213951408863068 0.1850000023841858 248 248 244
0.040679726749658585 0.026355648413300514 0.1860000044107437 254 254 250
0.04111708700656891 0.026355648413300514 0.1860000044107437 254 255 249
0.04177785664796829 0.02649734541773796 0.18700000643730164 254 255 249
0.042217567563056946 0.02649734541773796 0.18700000643730164 254 255 249
0.042885392904281616 0.026639042422175407 0.18799999356269836 254 255 249
0.0433274544775486 0.026639042422175407 0.18799999356269836 254 255 251
0.04376951605081558 0.026639042422175407 0.18799999356269836 254 255 251
0.044211577624082565 0.026639042422175407 0.18799999356269836 254 255 251
0.04489115998148918 0.026780739426612854 0.1889999955892563 252 253 249
0.045335572212934494 0.026780739426612854 0.1889999955892563 235 225 223
0.0460222065448761 0.0269224364310503 0.1899999976158142 245 235 233
0.04646897315979004 0.0269224364310503 0.1899999976158142 255 241 243
0.04716266319155693 0.027064133435487747 0.19099999964237213 255 248 250
0.04786105453968048 0.027205830439925194 0.19200000166893005 255 249 249
0.04856415092945099 0.02734752744436264 0.19300000369548798 255 249 249
0.049271948635578156 0.027489224448800087 0.1940000057220459 255 244 242
0.04998445138335228 0.027630923315882683 0.19499999284744263 217 198 196
0.05070165544748306 0.02777262032032013 0.19599999487400055 238 195 199
0.051423560827970505 0.027914317324757576 0.19699999690055847 254 211 215
0.052150171250104904 0.028056014329195023 0.1979999989271164 254 202 211
0.05288148298859596 0.02819771133363247 0.19900000095367432 252 200 209
0.05361749604344368 0.028339408338069916 0.20000000298023224 255 205 220
0.05408777669072151 0.028339408338069916 0.20000000298023224 255 204 219
0.008047194220125675 0.027369201183319092 0.1899999976158142 235 230 197
0.008449253626167774 0.027225153520703316 0.1889999955892563 255 254 221
0.00884661078453064 0.02708110585808754 0.18799999356269836 254 255 241
0.009288673289120197 0.02708110585808754 0.18799999356269836 254 255 241
0.00967897567898035 0.026937056332826614 0.18700000643730164 254 255 247
0.010118686594069004 0.026937056332826614 0.18700000643730164 254 255 247
0.010558397509157658 0.026937056332826614 0.18700000643730164 254 255 249
0.010939294472336769 0.02679300867021084 0.1860000044107437 254 255 249
0.011376653797924519 0.02679300867021084 0.1860000044107437 254 255 249
0.011814013123512268 0.02679300867021084 0.1860000044107437 254 255 249
0.012251372449100018 0.02679300867021084 0.1860000044107437 254 255 247
0.012688731774687767 0.02679300867021084 0.1860000044107437 254 255 247
0.013055521063506603 0.026648959144949913 0.1850000023841858 254 255 245
0.013490528799593449 0.026648959144949913 0.1850000023841858 254 255 245
0.013925536535680294 0.026648959144949913 0.1850000023841858 254 255 247
0.01436054427176714 0.026648959144949913 0.1850000023841858 254 255 247
0.01471557654440403 0.026504911482334137 0.18400000035762787 254 255 249
0.015148232690989971 0.026504911482334137 0.18400000035762787 254 255 249
0.01549621019512415 0.02636086381971836 0.18299999833106995 254 255 249
0.01592651568353176 0.02636086381971836 0.18299999833106995 254 255 249
0.0163568202406168 0.02636086381971836 0.18299999833106995 254 255 249
0.016787126660346985 0.02636086381971836 0.18299999833106995 254 255 249
0.017217431217432022 0.02636086381971836 0.18299999833106995 255 253 241
0.01764773577451706 0.02636086381971836 0.18299999833106995 221 219 207
0.018078040331602097 0.02636086381971836 0.18299999833106995 251 253 244
0.01840720698237419 0.026216814294457436 0.18199999630451202 254 255 247
0.0188351608812809 0.026216814294457436 0.18199999630451202 254 255 249
0.019263114780187607 0.026216814294457436 0.18199999630451202 254 255 249
0.019691068679094315 0.026216814294457436 0.18199999630451202 254 255 249
0.020119022578001022 0.026216814294457436 0.18199999630451202 254 255 249
0.020434081554412842 0.02607276663184166 0.1809999942779541 254 255 249
0.02085968293249607 0.02607276663184166 0.1809999942779541 254 255 249
0.02128528617322445 0.02607276663184166 0.1809999942779541 254 255 247
0.021710887551307678 0.02607276663184166 0.1809999942779541 254 255 247
0.022136490792036057 0.02607276663184166 0.1809999942779541 255 255 236
0.022562092170119286 0.02607276663184166 0.1809999942779541 208 206 187
0.022987695410847664 0.02607276663184166 0.1809999942779541 202 193 172
0.023413296788930893 0.02607276663184166 0.1809999942779541 255 250 229
0.02383890002965927 0.02607276663184166 0.1809999942779541 254 255 239
0.0242645014077425 0.02607276663184166 0.1809999942779541 254 255 239
0.02469010464847088 0.02607276663184166 0.1809999942779541 254 255 247
0.025115706026554108 0.02607276663184166 0.1809999942779541 254 255 247
0.025541309267282486 0.02607276663184166 0.1809999942779541 254 255 249
0.025966910645365715 0.02607276663184166 0.1809999942779541 254 255 249
0.026392513886094093 0.02607276663184166 0.1809999942779541 254 255 245
0.026818115264177322 0.02607276663184166 0.1809999942779541 254 255 245
0.0272437185049057 0.02607276663184166 0.1809999942779541 254 251 235
0.02766931988298893 0.02607276663184166 0.1809999942779541 236 233 217
0.028094923123717308 0.02607276663184166 0.1809999942779541 224 212 192
0.02867809683084488 0.026216814294457436 0.18199999630451202 242 230 210
0.029106050729751587 0.026216814294457436 0.18199999630451202 255 255 232
0.029534004628658295 0.026216814294457436 0.18199999630451202 255 255 233
0.029961958527565002 0.026216814294457436 0.18199999630451202 254 255 241
0.03038991242647171 0.026216814294457436 0.18199999630451202 254 255 241
0.030817866325378418 0.026216814294457436 0.18199999630451202 254 255 245
0.031245820224285126 0.026216814294457436 0.18199999630451202 254 255 245
0.031673774123191833 0.026216814294457436 0.18199999630451202 254 255 247
0.03210172802209854 0.026216814294457436 0.18199999630451202 254 255 247
0.03252968192100525 0.026216814294457436 0.18199999630451202 254 255 245
0.03295763581991196 0.026216814294457436 0.18199999630451202 254 255 245
0.033385589718818665 0.026216814294457436 0.18199999630451202 237 232 212
0.033813539892435074 0.026216814294457436 0.18199999630451202 229 224 204
0.03424149379134178 0.026216814294457436 0.18199999630451202 237 230 209
0.03466944769024849 0.026216814294457436 0.18199999630451202 255 254 233
0.0350974015891552 0.026216814294457436 0.18199999630451202 255 255 243
0.035525355488061905 0.026216814294457436 0.18199999630451202 255 255 243
0.03595330938696861 0.026216814294457436 0.18199999630451202 254 255 247
0.03638126328587532 0.026216814294457436 0.18199999630451202 254 255 247
0.03680921718478203 0.026216814294457436 0.18199999630451202 254 255 249
0.03744177147746086 0.02636086381971836 0.18299999833106995 254 255 249
0.0378720760345459 0.02636086381971836 0.18299999833106995 254 255 251
0.038302380591630936 0.02636086381971836 0.18299999833106995 254 255 251
0.038944341242313385 0.026504911482334137 0.18400000035762787 253 253 249
0.03937699645757675 0.026504911482334137 0.18400000035762787 238 238 234
0.04002600908279419 0.026648959144949913 0.1850000023841858 239 234 230
0.040679726749658585 0.02679300867021084 0.1860000044107437 255 252 248
0.04111708700656891 0.02679300867021084 0.1860000044107437 255 254 249
0.04177785664796829 0.026937056332826614 0.18700000643730164 255 254 249
0.042217567563056946 0.026937056332826614 0.18700000643730164 254 255 249
0.0426572784781456 0.026937056332826614 0.18700000643730164 254 255 249
0.0433274544775486 0.02708110585808754 0.18799999356269836 254 255 249
0.04376951605081558 0.02708110585808754 0.18799999356269836 254 255 249
0.044211577624082565 0.02708110585808754 0.18799999356269836 255 254 249
0.04465363919734955 0.02708110585808754 0.18799999356269836 250 247 242
0.045335572212934494 0.027225153520703316 0.1889999955892563 232 215 215
0.045779984444379807 0.027225153520703316 0.1889999955892563 235 218 218
0.04646897315979004 0.027369201183319092 0.1899999976158142 255 230 235
0.04716266319155693 0.027513250708580017 0.19099999964237213 255 229 234
0.0476117804646492 0.027513250708580017 0.19099999964237213 248 225 233
0.04856415092945099 0.02780134789645672 0.19300000369548798 255 234 242
0.049271948635578156 0.027945395559072495 0.1940000057220459 255 241 239
0.04998445138335228 0.02808944508433342 0.19499999284744263 236 205 203
0.05070165544748306 0.028233492746949196 0.19599999487400055 235 181 182
0.051423560827970505 0.028377540409564972 0.19699999690055847 253 199 200
0.052150171250104904 0.028521589934825897 0.1979999989271164 255 194 199
0.05288148298859596 0.028665637597441673 0.19900000095367432 255 191 196
0.05334940925240517 0.028665637597441673 0.19900000095367432 255 189 194
0.05408777669072151 0.0288096871227026 0.20000000298023224 255 193 198
0.008047194220125675 0.027815967798233032 0.1899999976158142 201 179 140
0.008449253626167774 0.027669567614793777 0.1889999955892563 255 237 198
0.008893667720258236 0.027669567614793777 0.1889999955892563 255 255 237
0.009288673289120197 0.027523167431354523 0.18799999356269836 255 255 237
0.00967897567898035 0.027376767247915268 0.18700000643730164 254 255 243
0.010118686594069004 0.027376767247915268 0.18700000643730164 254 255 243
0.010558397509157658 0.027376767247915268 0.18700000643730164 254 255 245
0.010939294472336769 0.027230367064476013 0.1860000044107437 254 255 245
0.011376653797924519 0.027230367064476013 0.1860000044107437 255 255 243
0.011814013123512268 0.027230367064476013 0.1860000044107437 255 255 243
0.012251372449100018 0.027230367064476013 0.1860000044107437 255 253 233
0.012688731774687767 0.027230367064476013 0.1860000044107437 246 241 221
0.013055521063506603 0.027083968743681908 0.1850000023841858 233 231 210
0.013490528799593449 0.027083968743681908 0.1850000023841858 255 255 235
0.013925536535680294 0.027083968743681908 0.1850000023841858 254 255 243
0.014282919466495514 0.026937568560242653 0.18400000035762787 254 255 243
0.01471557654440403 0.026937568560242653 0.18400000035762787 250 255 245
0.015148232690989971 0.026937568560242653 0.18400000035762787 250 255 245
0.01549621019512415 0.026791168376803398 0.18299999833106995 250 255 247
0.01592651568353176 0.026791168376803398 0.18299999833106995 250 255 247
0.0163568202406168 0.026791168376803398 0.18299999833106995 254 255 241
0.016787126660346985 0.026791168376803398 0.18299999833106995 254 255 241
0.017217431217432022 0.026791168376803398 0.18299999833106995 255 246 223
0.01764773577451706 0.026791168376803398 0.18299999833106995 200 189 166
0.017979254946112633 0.026644768193364143 0.18199999630451202 252 246 231
0.01840720698237419 0.026644768193364143 0.18199999630451202 255 254 239
0.0188351608812809 0.026644768193364143 0.18199999630451202 254 255 243
0.019263114780187607 0.026644768193364143 0.18199999630451202 254 255 243
0.019582876935601234 0.02649836800992489 0.1809999942779541 250 255 247
0.020008478313684464 0.02649836800992489 0.1809999942779541 250 255 247
0.020434081554412842 0.02649836800992489 0.1809999942779541 252 255 247
0.02085968293249607 0.02649836800992489 0.1809999942779541 252 255 247
0.02128528617322445 0.02649836800992489 0.1809999942779541 254 255 239
0.021710887551307678 0.02649836800992489 0.1809999942779541 254 255 239
0.022136490792036057 0.02649836800992489 0.1809999942779541 255 251 226
0.022562092170119286 0.02649836800992489 0.1809999942779541 200 189 164
0.022987695410847664 0.02649836800992489 0.1809999942779541 194 170 145
0.023413296788930893 0.02649836800992489 0.1809999942779541 255 250 225
0.02383890002965927 0.02649836800992489 0.1809999942779541 255 255 234
0.0242645014077425 0.02649836800992489 0.1809999942779541 255 255 235
