0.08410854637622833 0.006799003109335899 0.13600000739097595 179 139 126
0.0844283327460289 0.006799003109335899 0.13600000739097595 175 135 122
0.08474812656641006 0.006799003109335899 0.13600000739097595 173 133 120
0.08762626349925995 0.006848995573818684 0.13699999451637268 170 126 106
0.08794840425252914 0.006848995573818684 0.13699999451637268 172 128 108
0.08827054500579834 0.006848995573818684 0.13699999451637268 175 135 120
0.08859268575906754 0.006848995573818684 0.13699999451637268 184 144 129
0.08891482651233673 0.006848995573818684 0.13699999451637268 182 144 133
0.08923696726560593 0.006848995573818684 0.13699999451637268 189 151 140
0.08955910801887512 0.006848995573818684 0.13699999451637268 183 142 136
0.09053731709718704 0.006898988503962755 0.1379999965429306 185 144 138
0.09086180478334427 0.006898988503962755 0.1379999965429306 176 140 132
0.09118629992008209 0.006898988503962755 0.1379999965429306 170 134 126
0.09151079505681992 0.006898988503962755 0.1379999965429306 162 127 122
0.09183528274297714 0.006898988503962755 0.1379999965429306 161 126 121
0.09215977787971497 0.006898988503962755 0.1379999965429306 164 125 123
0.05577005818486214 0.008060986176133156 0.15399999916553497 255 71 75
0.05611800774931908 0.007956298068165779 0.15199999511241913 255 77 85
0.05647541955113411 0.007956298068165779 0.15199999511241913 248 78 89
0.05645893141627312 0.00790395401418209 0.1509999930858612 255 85 96
0.05681399255990982 0.00790395401418209 0.1509999930858612 255 98 109
0.05679044872522354 0.007851609960198402 0.15000000596046448 255 97 108
0.057143159210681915 0.007851609960198402 0.15000000596046448 253 97 110
0.05749586969614029 0.007851609960198402 0.15000000596046448 255 99 112
0.057848576456308365 0.007851609960198402 0.15000000596046448 255 102 114
0.05820128694176674 0.007851609960198402 0.15000000596046448 254 100 112
0.05855399742722511 0.007851609960198402 0.15000000596046448 252 99 108
0.05890670418739319 0.007851609960198402 0.15000000596046448 255 104 113
0.05925941467285156 0.007851609960198402 0.15000000596046448 253 106 111
0.059612125158309937 0.007851609960198402 0.15000000596046448 248 101 106
0.06036459654569626 0.00790395401418209 0.1509999930858612 255 130 126
0.06071965768933296 0.00790395401418209 0.1509999930858612 255 136 132
0.061074718832969666 0.00790395401418209 0.1509999930858612 252 138 132
0.06142977997660637 0.00790395401418209 0.1509999930858612 255 141 135
0.06178484112024307 0.00790395401418209 0.1509999930858612 252 143 145
0.062139902263879776 0.00790395401418209 0.1509999930858612 251 142 144
0.06249495968222618 0.00790395401418209 0.1509999930858612 249 148 147
0.06243379786610603 0.007851609960198402 0.15000000596046448 249 148 147
0.06278650462627411 0.007851609960198402 0.15000000596046448 255 157 152
0.06271828711032867 0.007799265440553427 0.14900000393390656 255 157 152
0.06264536082744598 0.007746921386569738 0.14800000190734863 243 150 135
0.0629933699965477 0.007746921386569738 0.14800000190734863 226 133 118
0.06291339546442032 0.00769457733258605 0.1469999998807907 248 204 188
0.0632590502500534 0.00769457733258605 0.1469999998807907 255 243 227
0.06360470503568649 0.00769457733258605 0.1469999998807907 255 255 243
0.06395035982131958 0.00769457733258605 0.1469999998807907 255 255 243
0.06429601460695267 0.00769457733258605 0.1469999998807907 254 255 249
0.06420192867517471 0.007642233278602362 0.1459999978542328 254 255 249
0.06454523652791977 0.007642233278602362 0.1459999978542328 254 255 249
0.06488853693008423 0.007642233278602362 0.1459999978542328 254 255 249
0.06523183733224869 0.007642233278602362 0.1459999978542328 254 255 249
0.06557514518499374 0.007642233278602362 0.1459999978542328 254 255 249
0.0659184455871582 0.007642233278602362 0.1459999978542328 254 255 249
0.06626175343990326 0.007642233278602362 0.1459999978542328 251 252 246
0.06660505384206772 0.007642233278602362 0.1459999978542328 242 240 228
0.06694836169481277 0.007642233278602362 0.1459999978542328 253 251 239
0.06624520570039749 0.007485201116651297 0.14300000667572021 252 225 219
0.06658145785331726 0.007485201116651297 0.14300000667572021 251 203 197
0.06691770255565643 0.007485201116651297 0.14300000667572021 245 197 191
0.0672539547085762 0.007485201116651297 0.14300000667572021 241 190 174
0.06711754202842712 0.007432857062667608 0.1420000046491623 242 191 175
0.06745143979787827 0.007432857062667608 0.1420000046491623 255 243 228
0.0677853375673294 0.007432857062667608 0.1420000046491623 255 250 235
0.06811923533678055 0.007432857062667608 0.1420000046491623 254 255 243
0.06845313310623169 0.007432857062667608 0.1420000046491623 254 255 243
0.06878703087568283 0.007432857062667608 0.1420000046491623 254 255 249
0.06912093609571457 0.007432857062667608 0.1420000046491623 254 255 249
0.06945483386516571 0.007432857062667608 0.1420000046491623 254 255 249
0.06978873163461685 0.007432857062667608 0.1420000046491623 254 255 249
0.070122629404068 0.007432857062667608 0.1420000046491623 254 255 249
0.0699603483080864 0.00738051300868392 0.14100000262260437 254 255 249
0.0702918991446495 0.00738051300868392 0.14100000262260437 254 255 249
0.07012256979942322 0.0073281689547002316 0.14000000059604645 253 254 248
0.06994853913784027 0.007275824900716543 0.13899999856948853 253 245 242
0.07027538120746613 0.007275824900716543 0.13899999856948853 248 240 237
0.07009429484605789 0.007223480846732855 0.1379999965429306 247 208 215
0.07041878998279572 0.007223480846732855 0.1379999965429306 236 197 204
0.07074327766895294 0.007223480846732855 0.1379999965429306 230 167 171
0.07106777280569077 0.007223480846732855 0.1379999965429306 217 154 158
0.07139226794242859 0.007223480846732855 0.1379999965429306 204 143 135
0.07171675562858582 0.007223480846732855 0.1379999965429306 226 165 157
0.07204125076532364 0.007223480846732855 0.1379999965429306 255 235 227
0.07236573845148087 0.007223480846732855 0.1379999965429306 255 241 233
0.07269023358821869 0.007223480846732855 0.1379999965429306 251 223 220
0.07248563319444656 0.0071711367927491665 0.13699999451637268 228 200 197
0.07280777394771576 0.0071711367927491665 0.13699999451637268 237 183 184
0.07312991470098495 0.0071711367927491665 0.13699999451637268 239 185 186
0.07345205545425415 0.0071711367927491665 0.13699999451637268 231 176 175
0.07377419620752335 0.0071711367927491665 0.13699999451637268 217 162 161
0.07409633696079254 0.0071711367927491665 0.13699999451637268 227 174 170
0.07441847771406174 0.0071711367927491665 0.13699999451637268 221 168 164
0.07419507205486298 0.007118792738765478 0.13600000739097595 204 155 156
0.07451485842466354 0.007118792738765478 0.13600000739097595 200 151 152
0.07483465224504471 0.007118792738765478 0.13600000739097595 202 152 158
0.07515443861484528 0.007118792738765478 0.13600000739097595 204 154 160
0.07547422498464584 0.007118792738765478 0.13600000739097595 199 144 152
0.07579401880502701 0.007118792738765478 0.13600000739097595 189 134 142
0.07611380517482758 0.007118792738765478 0.13600000739097595 180 126 129
0.07587158679962158 0.00706644868478179 0.13500000536441803 171 117 120
0.07618902623653412 0.00706644868478179 0.13500000536441803 208 146 145
0.07650645822286606 0.00706644868478179 0.13500000536441803 222 160 159
0.0768238976597786 0.00706644868478179 0.13500000536441803 223 165 165
0.07714133709669113 0.00706644868478179 0.13500000536441803 215 157 157
0.07745877653360367 0.00706644868478179 0.13500000536441803 206 147 150
0.0777762159705162 0.00706644868478179 0.13500000536441803 208 149 152
0.07809365540742874 0.00706644868478179 0.13500000536441803 206 151 150
0.07841108739376068 0.00706644868478179 0.13500000536441803 194 139 138
0.07872852683067322 0.00706644868478179 0.13500000536441803 179 130 129
0.07904596626758575 0.00706644868478179 0.13500000536441803 177 128 127
0.07936340570449829 0.00706644868478179 0.13500000536441803 180 139 133
0.07968084514141083 0.00706644868478179 0.13500000536441803 177 136 130
0.07999828457832336 0.00706644868478179 0.13500000536441803 179 138 128
0.0803157165646553 0.00706644868478179 0.13500000536441803 172 131 121
0.08190291374921799 0.00706644868478179 0.13500000536441803 179 132 119
0.08222034573554993 0.00706644868478179 0.13500000536441803 185 138 125
0.08253778517246246 0.00706644868478179 0.13500000536441803 190 141 129
0.0834689661860466 0.007118792738765478 0.13600000739097595 187 138 126
0.08378876000642776 0.007118792738765478 0.13600000739097595 175 130 117
0.08410854637622833 0.007118792738765478 0.13600000739097595 180 135 122
0.0844283327460289 0.007118792738765478 0.13600000739097595 174 132 120
0.08474812656641006 0.007118792738765478 0.13600000739097595 171 129 117
0.0853877067565918 0.007118792738765478 0.13600000739097595 168 126 114
0.08730412274599075 0.0071711367927491665 0.13699999451637268 169 125 107
0.08827054500579834 0.0071711367927491665 0.13699999451637268 181 144 130
0.08859268575906754 0.0071711367927491665 0.13699999451637268 180 143 129
0.08891482651233673 0.0071711367927491665 0.13699999451637268 185 147 138
0.08923696726560593 0.0071711367927491665 0.13699999451637268 188 150 141
0.09021282196044922 0.007223480846732855 0.1379999965429306 175 129 125
0.09053731709718704 0.007223480846732855 0.1379999965429306 171 125 121
0.09086180478334427 0.007223480846732855 0.1379999965429306 170 127 122
0.09118629992008209 0.007223480846732855 0.1379999965429306 170 127 122
0.09151079505681992 0.007223480846732855 0.1379999965429306 170 132 125
0.09183528274297714 0.007223480846732855 0.1379999965429306 168 130 123
0.09215977787971497 0.007223480846732855 0.1379999965429306 170 128 125
0.05577005818486214 0.008423100225627422 0.15399999916553497 255 77 82
0.05611800774931908 0.008313709869980812 0.15199999511241913 255 86 92
0.056103870272636414 0.00825901422649622 0.1509999930858612 255 99 114
0.05645893141627312 0.00825901422649622 0.1509999930858612 255 102 117
0.056437741965055466 0.008204318583011627 0.15000000596046448 255 102 115
0.05679044872522354 0.008204318583011627 0.15000000596046448 255 102 115
0.0567622035741806 0.008149622939527035 0.14900000393390656 255 101 116
0.05711256340146065 0.008149622939527035 0.14900000393390656 255 103 118
0.057462919503450394 0.008149622939527035 0.14900000393390656 255 102 114
0.05781327933073044 0.008149622939527035 0.14900000393390656 252 98 110
0.058163635432720184 0.008149622939527035 0.14900000393390656 251 98 107
0.05890670418739319 0.008204318583011627 0.15000000596046448 253 100 109
0.05925941467285156 0.008204318583011627 0.15000000596046448 250 103 108
0.059612125158309937 0.008204318583011627 0.15000000596046448 250 103 108
0.06036459654569626 0.00825901422649622 0.1509999930858612 255 130 127
0.06071965768933296 0.00825901422649622 0.1509999930858612 255 134 131
0.061074718832969666 0.00825901422649622 0.1509999930858612 254 137 132
0.06142977997660637 0.00825901422649622 0.1509999930858612 255 140 135
0.06178484112024307 0.00825901422649622 0.1509999930858612 255 148 146
0.062139902263879776 0.00825901422649622 0.1509999930858612 255 148 146
0.06208108738064766 0.008204318583011627 0.15000000596046448 254 146 145
0.06243379786610603 0.008204318583011627 0.15000000596046448 252 144 143
0.06278650462627411 0.008204318583011627 0.15000000596046448 248 145 140
0.06271828711032867 0.008149622939527035 0.14900000393390656 253 150 145
0.06264536082744598 0.008094928227365017 0.14800000190734863 246 149 137
0.0629933699965477 0.008094928227365017 0.14800000190734863 230 133 121
0.06291339546442032 0.008040232583880424 0.1469999998807907 252 211 192
0.0632590502500534 0.008040232583880424 0.1469999998807907 255 244 225
0.06360470503568649 0.008040232583880424 0.1469999998807907 255 255 243
0.06395035982131958 0.008040232583880424 0.1469999998807907 255 255 243
0.06429601460695267 0.008040232583880424 0.1469999998807907 254 255 249
0.06420192867517471 0.007985536940395832 0.1459999978542328 254 255 249
0.06454523652791977 0.007985536940395832 0.1459999978542328 254 255 249
0.06488853693008423 0.007985536940395832 0.1459999978542328 254 255 249
0.06523183733224869 0.007985536940395832 0.1459999978542328 254 255 249
0.06557514518499374 0.007985536940395832 0.1459999978542328 254 255 249
0.0659184455871582 0.007985536940395832 0.1459999978542328 254 255 249
0.06626175343990326 0.007985536940395832 0.1459999978542328 253 254 248
0.06660505384206772 0.007985536940395832 0.1459999978542328 253 244 237
0.06636986136436462 0.007876145653426647 0.14399999380111694 255 213 210
0.06624520570039749 0.00782145094126463 0.14300000667572021 245 203 200
0.06658145785331726 0.00782145094126463 0.14300000667572021 247 186 180
0.06691770255565643 0.00782145094126463 0.14300000667572021 246 185 179
0.0672539547085762 0.00782145094126463 0.14300000667572021 246 187 169
0.06711754202842712 0.00776675483211875 0.1420000046491623 236 177 159
0.06745143979787827 0.00776675483211875 0.1420000046491623 248 224 208
0.0677853375673294 0.00776675483211875 0.1420000046491623 255 249 233
0.06811923533678055 0.00776675483211875 0.1420000046491623 254 255 245
0.06845313310623169 0.00776675483211875 0.1420000046491623 254 255 245
0.06878703087568283 0.00776675483211875 0.1420000046491623 254 255 249
0.06912093609571457 0.00776675483211875 0.1420000046491623 254 255 249
0.06945483386516571 0.00776675483211875 0.1420000046491623 254 255 249
0.06978873163461685 0.00776675483211875 0.1420000046491623 254 255 249
0.070122629404068 0.00776675483211875 0.1420000046491623 254 255 249
0.0699603483080864 0.0077120596542954445 0.14100000262260437 253 254 248
0.0702918991446495 0.0077120596542954445 0.14100000262260437 249 250 244
0.07012256979942322 0.007657364010810852 0.14000000059604645 243 244 238
0.06994853913784027 0.007602668832987547 0.13899999856948853 251 239 237
0.07027538120746613 0.007602668832987547 0.13899999856948853 241 229 227
0.07009429484605789 0.0075479731895029545 0.1379999965429306 244 199 206
0.07041878998279572 0.0075479731895029545 0.1379999965429306 239 194 201
0.07074327766895294 0.0075479731895029545 0.1379999965429306 224 151 154
0.07106777280569077 0.0075479731895029545 0.1379999965429306 219 146 149
0.07139226794242859 0.0075479731895029545 0.1379999965429306 201 130 123
0.07171675562858582 0.0075479731895029545 0.1379999965429306 232 161 154
0.07204125076532364 0.0075479731895029545 0.1379999965429306 255 228 220
0.07236573845148087 0.0075479731895029545 0.1379999965429306 255 238 230
0.07269023358821869 0.0075479731895029545 0.1379999965429306 250 219 217
0.07248563319444656 0.007493277546018362 0.13699999451637268 238 207 205
0.07280777394771576 0.007493277546018362 0.13699999451637268 247 195 200
0.07312991470098495 0.007493277546018362 0.13699999451637268 238 186 191
0.07345205545425415 0.007493277546018362 0.13699999451637268 240 180 180
0.07377419620752335 0.007493277546018362 0.13699999451637268 229 169 169
0.07409633696079254 0.007493277546018362 0.13699999451637268 233 180 178
0.07441847771406174 0.007493277546018362 0.13699999451637268 226 173 171
0.07419507205486298 0.007438582368195057 0.13600000739097595 214 165 164
0.07451485842466354 0.007438582368195057 0.13600000739097595 207 158 157
0.07483465224504471 0.007438582368195057 0.13600000739097595 206 157 158
0.07515443861484528 0.007438582368195057 0.13600000739097595 196 147 148
0.07547422498464584 0.007438582368195057 0.13600000739097595 183 129 132
0.07579401880502701 0.007438582368195057 0.13600000739097595 182 128 131
0.07611380517482758 0.007438582368195057 0.13600000739097595 181 123 121
0.07587158679962158 0.0073838867247104645 0.13500000536441803 176 118 116
0.07618902623653412 0.0073838867247104645 0.13500000536441803 192 128 123
0.07650645822286606 0.0073838867247104645 0.13500000536441803 220 156 151
0.0768238976597786 0.0073838867247104645 0.13500000536441803 226 164 161
0.07714133709669113 0.0073838867247104645 0.13500000536441803 217 155 152
0.07745877653360367 0.0073838867247104645 0.13500000536441803 207 149 147
0.0777762159705162 0.0073838867247104645 0.13500000536441803 199 141 139
0.07809365540742874 0.0073838867247104645 0.13500000536441803 198 140 140
0.07841108739376068 0.0073838867247104645 0.13500000536441803 203 145 145
0.07872852683067322 0.0073838867247104645 0.13500000536441803 188 140 136
0.07904596626758575 0.0073838867247104645 0.13500000536441803 178 130 126
0.07936340570449829 0.0073838867247104645 0.13500000536441803 176 135 127
0.07968084514141083 0.0073838867247104645 0.13500000536441803 170 129 121
0.07999828457832336 0.0073838867247104645 0.13500000536441803 178 135 126
0.0803157165646553 0.0073838867247104645 0.13500000536441803 174 131 122
0.08063315600156784 0.0073838867247104645 0.13500000536441803 173 123 116
0.08222034573554993 0.0073838867247104645 0.13500000536441803 171 123 108
0.08253778517246246 0.0073838867247104645 0.13500000536441803 183 132 118
0.082855224609375 0.0073838867247104645 0.13500000536441803 187 136 122
0.08410854637622833 0.007438582368195057 0.13600000739097595 175 128 115
0.0844283327460289 0.007438582368195057 0.13600000739097595 175 130 119
0.08474812656641006 0.007438582368195057 0.13600000739097595 175 130 119
0.08506791293621063 0.007438582368195057 0.13600000739097595 169 124 113
0.08570749312639236 0.007438582368195057 0.13600000739097595 173 126 113
0.08827054500579834 0.007493277546018362 0.13699999451637268 181 144 130
0.08859268575906754 0.007493277546018362 0.13699999451637268 182 145 131
0.08891482651233673 0.007493277546018362 0.13699999451637268 189 151 140
0.08923696726560593 0.007493277546018362 0.13699999451637268 182 144 133
0.08955910801887512 0.007493277546018362 0.13699999451637268 189 141 133
0.09053731709718704 0.0075479731895029545 0.1379999965429306 184 136 128
0.09086180478334427 0.0075479731895029545 0.1379999965429306 184 136 130
0.09118629992008209 0.0075479731895029545 0.1379999965429306 186 138 132
0.09151079505681992 0.0075479731895029545 0.1379999965429306 171 128 121
0.09183528274297714 0.0075479731895029545 0.1379999965429306 173 130 123
0.055767737329006195 0.00884226243942976 0.1550000011920929 255 75 76
0.05577005818486214 0.008785215206444263 0.15399999916553497 255 89 95
0.05576768144965172 0.008728167973458767 0.15299999713897705 255 90 96
0.055760595947504044 0.008671121671795845 0.15199999511241913 253 87 94
0.05574881285429001 0.008614074438810349 0.1509999930858612 255 90 97
0.056103870272636414 0.008614074438810349 0.1509999930858612 255 108 124
0.05608503147959709 0.008557028137147427 0.15000000596046448 255 100 116
0.05606149137020111 0.00849998090416193 0.14900000393390656 255 96 115
0.05641184747219086 0.00849998090416193 0.14900000393390656 255 95 114
0.0567622035741806 0.00849998090416193 0.14900000393390656 255 98 114
0.05711256340146065 0.00849998090416193 0.14900000393390656 255 98 114
0.057462919503450394 0.00849998090416193 0.14900000393390656 254 95 111
0.05781327933073044 0.00849998090416193 0.14900000393390656 248 89 105
0.058163635432720184 0.00849998090416193 0.14900000393390656 253 97 110
0.05851399526000023 0.00849998090416193 0.14900000393390656 255 99 112
0.05925941467285156 0.008557028137147427 0.15000000596046448 248 101 108
0.059612125158309937 0.008557028137147427 0.15000000596046448 255 111 118
0.05996483191847801 0.008557028137147427 0.15000000596046448 255 129 129
0.06071965768933296 0.008614074438810349 0.1509999930858612 255 134 134
0.061074718832969666 0.008614074438810349 0.1509999930858612 252 133 127
0.06142977997660637 0.008614074438810349 0.1509999930858612 251 132 126
0.06178484112024307 0.008614074438810349 0.1509999930858612 254 140 134
0.062139902263879776 0.008614074438810349 0.1509999930858612 255 141 135
0.06208108738064766 0.008557028137147427 0.15000000596046448 254 144 141
0.06243379786610603 0.008557028137147427 0.15000000596046448 255 148 145
0.06236792728304863 0.00849998090416193 0.14900000393390656 255 147 141
0.06271828711032867 0.00849998090416193 0.14900000393390656 250 141 135
0.06264536082744598 0.008442933671176434 0.14800000190734863 246 147 138
0.0629933699965477 0.008442933671176434 0.14800000190734863 240 141 132
0.06291339546442032 0.008385887369513512 0.1469999998807907 249 205 185
0.0632590502500534 0.008385887369513512 0.1469999998807907 255 243 223
0.06360470503568649 0.008385887369513512 0.1469999998807907 255 255 241
0.06395035982131958 0.008385887369513512 0.1469999998807907 255 255 241
0.06385862827301025 0.008328840136528015 0.1459999978542328 254 255 249
0.06420192867517471 0.008328840136528015 0.1459999978542328 254 255 249
0.06454523652791977 0.008328840136528015 0.1459999978542328 254 255 249
0.06488853693008423 0.008328840136528015 0.1459999978542328 254 255 249
0.06523183733224869 0.008328840136528015 0.1459999978542328 254 255 249
0.06557514518499374 0.008328840136528015 0.1459999978542328 254 255 249
0.0659184455871582 0.008328840136528015 0.1459999978542328 255 255 249
0.06626175343990326 0.008328840136528015 0.1459999978542328 255 255 249
0.06636986136436462 0.008214746601879597 0.14399999380111694 244 185 190
0.06624520570039749 0.008157700300216675 0.14300000667572021 237 178 183
0.06658145785331726 0.008157700300216675 0.14300000667572021 242 170 163
0.06691770255565643 0.008157700300216675 0.14300000667572021 252 180 173
0.0672539547085762 0.008157700300216675 0.14300000667572021 241 170 156
0.06711754202842712 0.008100653067231178 0.1420000046491623 226 155 141
0.06745143979787827 0.008100653067231178 0.1420000046491623 230 204 189
0.0677853375673294 0.008100653067231178 0.1420000046491623 255 248 233
0.06811923533678055 0.008100653067231178 0.1420000046491623 254 255 247
0.06845313310623169 0.008100653067231178 0.1420000046491623 254 255 247
0.06878703087568283 0.008100653067231178 0.1420000046491623 254 255 249
0.06912093609571457 0.008100653067231178 0.1420000046491623 254 255 249
0.06945483386516571 0.008100653067231178 0.1420000046491623 254 255 249
0.06978873163461685 0.008100653067231178 0.1420000046491623 254 255 249
0.070122629404068 0.008100653067231178 0.1420000046491623 254 255 249
0.0699603483080864 0.008043605834245682 0.14100000262260437 254 255 249
0.0702918991446495 0.008043605834245682 0.14100000262260437 253 254 248
0.07012256979942322 0.00798655953258276 0.14000000059604645 253 254 248
0.06994853913784027 0.007929512299597263 0.13899999856948853 255 241 240
0.07027538120746613 0.007929512299597263 0.13899999856948853 240 219 218
0.07009429484605789 0.007872465997934341 0.1379999965429306 243 191 196
0.07041878998279572 0.007872465997934341 0.1379999965429306 238 186 191
0.07074327766895294 0.007872465997934341 0.1379999965429306 223 150 155
0.07106777280569077 0.007872465997934341 0.1379999965429306 212 139 144
0.07139226794242859 0.007872465997934341 0.1379999965429306 189 118 111
0.07171675562858582 0.007872465997934341 0.1379999965429306 229 158 151
0.07204125076532364 0.007872465997934341 0.1379999965429306 255 225 218
0.07236573845148087 0.007872465997934341 0.1379999965429306 255 234 227
0.07269023358821869 0.007872465997934341 0.1379999965429306 255 232 233
0.07248563319444656 0.007815418764948845 0.13699999451637268 240 207 208
0.07280777394771576 0.007815418764948845 0.13699999451637268 244 191 203
0.07312991470098495 0.007815418764948845 0.13699999451637268 235 182 194
0.07345205545425415 0.007815418764948845 0.13699999451637268 243 176 186
0.07377419620752335 0.007815418764948845 0.13699999451637268 226 159 169
0.07409633696079254 0.007815418764948845 0.13699999451637268 220 165 164
0.07441847771406174 0.007815418764948845 0.13699999451637268 219 164 163
0.07419507205486298 0.007758371997624636 0.13600000739097595 214 164 161
0.07451485842466354 0.007758371997624636 0.13600000739097595 211 161 158
0.07483465224504471 0.007758371997624636 0.13600000739097595 202 151 153
0.07515443861484528 0.007758371997624636 0.13600000739097595 196 145 147
0.07547422498464584 0.007758371997624636 0.13600000739097595 195 142 138
0.07579401880502701 0.007758371997624636 0.13600000739097595 191 138 134
0.07611380517482758 0.007758371997624636 0.13600000739097595 185 127 113
0.07587158679962158 0.0077013252303004265 0.13500000536441803 179 121 107
0.07618902623653412 0.0077013252303004265 0.13500000536441803 183 120 106
0.07650645822286606 0.0077013252303004265 0.13500000536441803 208 145 131
0.0768238976597786 0.0077013252303004265 0.13500000536441803 216 150 144
0.07771275192499161 0.007758371997624636 0.13600000739097595 214 148 142
0.07803254574537277 0.007758371997624636 0.13600000739097595 207 149 145
0.0777762159705162 0.0077013252303004265 0.13500000536441803 199 141 137
0.07809365540742874 0.0077013252303004265 0.13500000536441803 188 133 132
0.07841108739376068 0.0077013252303004265 0.13500000536441803 191 136 135
0.07872852683067322 0.0077013252303004265 0.13500000536441803 182 132 127
0.07904596626758575 0.0077013252303004265 0.13500000536441803 175 125 120
0.07936340570449829 0.0077013252303004265 0.13500000536441803 174 131 122
0.07968084514141083 0.0077013252303004265 0.13500000536441803 168 125 116
0.07999828457832336 0.0077013252303004265 0.13500000536441803 171 125 117
0.0803157165646553 0.0077013252303004265 0.13500000536441803 173 127 119
0.08190291374921799 0.0077013252303004265 0.13500000536441803 176 123 108
0.08222034573554993 0.0077013252303004265 0.13500000536441803 179 126 111
0.08253778517246246 0.0077013252303004265 0.13500000536441803 181 128 115
0.082855224609375 0.0077013252303004265 0.13500000536441803 190 137 124
0.08410854637622833 0.007758371997624636 0.13600000739097595 172 122 115
0.0844283327460289 0.007758371997624636 0.13600000739097595 181 131 124
0.08474812656641006 0.007758371997624636 0.13600000739097595 175 125 118
0.08506791293621063 0.007758371997624636 0.13600000739097595 173 126 115
0.0853877067565918 0.007758371997624636 0.13600000739097595 170 123 112
0.08570749312639236 0.007758371997624636 0.13600000739097595 170 123 112
0.08827054500579834 0.007815418764948845 0.13699999451637268 179 138 128
0.08859268575906754 0.007815418764948845 0.13699999451637268 176 135 125
0.08891482651233673 0.007815418764948845 0.13699999451637268 189 146 137
0.08923696726560593 0.007815418764948845 0.13699999451637268 182 139 130
0.08955910801887512 0.007815418764948845 0.13699999451637268 180 133 122
0.09053731709718704 0.007872465997934341 0.1379999965429306 180 133 122
0.09086180478334427 0.007872465997934341 0.1379999965429306 185 137 129
0.09118629992008209 0.007872465997934341 0.1379999965429306 182 134 126
0.09151079505681992 0.007872465997934341 0.1379999965429306 178 130 124
0.09183528274297714 0.007872465997934341 0.1379999965429306 177 129 123
0.05540791526436806 0.009087931364774704 0.15299999713897705 255 81 84
0.05540318414568901 0.009028533473610878 0.15199999511241913 255 86 89
0.055393751710653305 0.008969135582447052 0.1509999930858612 255 89 101
0.05574881285429001 0.008969135582447052 0.1509999930858612 255 92 104
0.055732324719429016 0.008909736759960651 0.15000000596046448 255 102 118
0.055711131542921066 0.008850338868796825 0.14900000393390656 255 103 119
0.05606149137020111 0.008850338868796825 0.14900000393390656 247 87 106
0.05641184747219086 0.008850338868796825 0.14900000393390656 254 94 113
0.0567622035741806 0.008850338868796825 0.14900000393390656 250 90 109
0.05711256340146065 0.008850338868796825 0.14900000393390656 248 88 107
0.057462919503450394 0.008850338868796825 0.14900000393390656 241 80 99
0.05781327933073044 0.008850338868796825 0.14900000393390656 240 79 98
0.058163635432720184 0.008850338868796825 0.14900000393390656 253 97 112
0.05851399526000023 0.008850338868796825 0.14900000393390656 255 99 114
0.05925941467285156 0.008909736759960651 0.15000000596046448 249 101 111
0.059612125158309937 0.008909736759960651 0.15000000596046448 255 108 118
0.05996483191847801 0.008909736759960651 0.15000000596046448 255 123 125
0.060317542403936386 0.008909736759960651 0.15000000596046448 255 132 134
0.061074718832969666 0.008969135582447052 0.1509999930858612 255 137 132
0.06142977997660637 0.008969135582447052 0.1509999930858612 255 135 130
0.06137567013502121 0.008909736759960651 0.15000000596046448 254 137 130
0.061728376895189285 0.008909736759960651 0.15000000596046448 255 138 131
0.06208108738064766 0.008909736759960651 0.15000000596046448 255 142 134
0.062017571181058884 0.008850338868796825 0.14900000393390656 255 143 135
0.06236792728304863 0.008850338868796825 0.14900000393390656 255 141 133
0.06271828711032867 0.008850338868796825 0.14900000393390656 249 135 127
0.06264536082744598 0.008790940046310425 0.14800000190734863 242 137 126
0.0629933699965477 0.008790940046310425 0.14800000190734863 246 141 130
0.06291339546442032 0.008731542155146599 0.1469999998807907 245 199 179
0.0632590502500534 0.008731542155146599 0.1469999998807907 255 243 223
0.06360470503568649 0.008731542155146599 0.1469999998807907 255 255 239
0.06395035982131958 0.008731542155146599 0.1469999998807907 255 255 239
0.06385862827301025 0.008672144263982773 0.1459999978542328 254 255 247
0.06420192867517471 0.008672144263982773 0.1459999978542328 254 255 247
0.06454523652791977 0.008672144263982773 0.1459999978542328 254 255 249
0.06488853693008423 0.008672144263982773 0.1459999978542328 254 255 249
0.06523183733224869 0.008672144263982773 0.1459999978542328 254 255 249
0.06557514518499374 0.008672144263982773 0.1459999978542328 254 255 249
0.0659184455871582 0.008672144263982773 0.1459999978542328 255 255 249
0.06626175343990326 0.008672144263982773 0.1459999978542328 248 248 242
0.06590895354747772 0.008493948727846146 0.14300000667572021 247 180 181
0.06624520570039749 0.008493948727846146 0.14300000667572021 244 177 178
0.06658145785331726 0.008493948727846146 0.14300000667572021 241 166 156
0.06691770255565643 0.008493948727846146 0.14300000667572021 246 171 161
0.0672539547085762 0.008493948727846146 0.14300000667572021 234 163 147
0.06711754202842712 0.00843455083668232 0.1420000046491623 221 150 134
0.06745143979787827 0.00843455083668232 0.1420000046491623 215 187 168
0.0677853375673294 0.00843455083668232 0.1420000046491623 255 248 229
0.06811923533678055 0.00843455083668232 0.1420000046491623 255 255 243
0.06845313310623169 0.00843455083668232 0.1420000046491623 255 255 243
0.06878703087568283 0.00843455083668232 0.1420000046491623 254 255 249
0.06912093609571457 0.00843455083668232 0.1420000046491623 254 255 249
0.06945483386516571 0.00843455083668232 0.1420000046491623 254 255 249
0.06978873163461685 0.00843455083668232 0.1420000046491623 254 255 249
0.070122629404068 0.00843455083668232 0.1420000046491623 254 255 249
0.0699603483080864 0.008375152945518494 0.14100000262260437 254 255 249
0.0702918991446495 0.008375152945518494 0.14100000262260437 255 255 249
0.07062344253063202 0.008375152945518494 0.14100000262260437 244 244 238
0.06994853913784027 0.008256356231868267 0.13899999856948853 255 233 231
0.07027538120746613 0.008256356231868267 0.13899999856948853 244 218 216
0.07009429484605789 0.008196958340704441 0.1379999965429306 249 190 193
0.07041878998279572 0.008196958340704441 0.1379999965429306 237 178 181
0.07074327766895294 0.008196958340704441 0.1379999965429306 224 151 154
0.07106777280569077 0.008196958340704441 0.1379999965429306 201 128 131
0.07139226794242859 0.008196958340704441 0.1379999965429306 185 116 111
0.07171675562858582 0.008196958340704441 0.1379999965429306 209 140 135
0.07204125076532364 0.008196958340704441 0.1379999965429306 255 219 210
0.07236573845148087 0.008196958340704441 0.1379999965429306 255 233 224
0.07269023358821869 0.008196958340704441 0.1379999965429306 255 233 235
0.07301472872495651 0.008196958340704441 0.1379999965429306 241 203 205
0.07280777394771576 0.00813755951821804 0.13699999451637268 233 178 188
0.07312991470098495 0.00813755951821804 0.13699999451637268 235 180 190
0.07345205545425415 0.00813755951821804 0.13699999451637268 245 178 188
0.07377419620752335 0.00813755951821804 0.13699999451637268 233 166 176
0.07409633696079254 0.00813755951821804 0.13699999451637268 235 174 177
0.07441847771406174 0.00813755951821804 0.13699999451637268 222 161 164
0.07419507205486298 0.008078161627054214 0.13600000739097595 214 158 160
0.07451485842466354 0.008078161627054214 0.13600000739097595 207 151 153
0.07483465224504471 0.008078161627054214 0.13600000739097595 196 142 143
0.07515443861484528 0.008078161627054214 0.13600000739097595 203 149 150
0.07547422498464584 0.008078161627054214 0.13600000739097595 193 135 131
0.07579401880502701 0.008078161627054214 0.13600000739097595 180 122 118
0.07611380517482758 0.008078161627054214 0.13600000739097595 181 123 107
0.07643359899520874 0.008078161627054214 0.13600000739097595 179 121 105
0.07618902623653412 0.008018762804567814 0.13500000536441803 193 131 112
0.07650645822286606 0.008018762804567814 0.13500000536441803 208 146 127
0.0768238976597786 0.008018762804567814 0.13500000536441803 213 150 140
0.07771275192499161 0.008078161627054214 0.13600000739097595 212 149 139
0.07803254574537277 0.008078161627054214 0.13600000739097595 206 153 149
0.0777762159705162 0.008018762804567814 0.13500000536441803 205 152 148
0.07809365540742874 0.008018762804567814 0.13500000536441803 177 128 129
0.07841108739376068 0.008018762804567814 0.13500000536441803 181 132 133
0.07872852683067322 0.008018762804567814 0.13500000536441803 179 131 125
0.07904596626758575 0.008018762804567814 0.13500000536441803 179 131 125
0.07936340570449829 0.008018762804567814 0.13500000536441803 176 130 122
0.07968084514141083 0.008018762804567814 0.13500000536441803 170 124 116
0.0803157165646553 0.008018762804567814 0.13500000536441803 172 124 116
0.08222034573554993 0.008018762804567814 0.13500000536441803 186 128 114
0.08253778517246246 0.008018762804567814 0.13500000536441803 183 129 121
0.082855224609375 0.008018762804567814 0.13500000536441803 185 131 123
0.08378876000642776 0.008078161627054214 0.13600000739097595 180 126 127
0.08410854637622833 0.008078161627054214 0.13600000739097595 183 129 130
0.0844283327460289 0.008078161627054214 0.13600000739097595 188 135 133
0.08474812656641006 0.008078161627054214 0.13600000739097595 175 122 120
0.08506791293621063 0.008078161627054214 0.13600000739097595 173 123 116
0.08827054500579834 0.00813755951821804 0.13699999451637268 178 129 119
0.08859268575906754 0.00813755951821804 0.13699999451637268 178 129 119
0.08891482651233673 0.00813755951821804 0.13699999451637268 184 136 128
0.08923696726560593 0.00813755951821804 0.13699999451637268 186 138 130
0.08955910801887512 0.00813755951821804 0.13699999451637268 185 138 125
0.08988124877214432 0.00813755951821804 0.13699999451637268 185 138 125
0.09086180478334427 0.008196958340704441 0.1379999965429306 186 139 126
0.09118629992008209 0.008196958340704441 0.1379999965429306 182 135 122
0.09151079505681992 0.008196958340704441 0.1379999965429306 183 133 126
0.09183528274297714 0.008196958340704441 0.1379999965429306 176 126 119
0.055407945066690445 0.009509444236755371 0.15399999916553497 255 79 79
0.05540791526436806 0.009447694756090641 0.15299999713897705 253 78 81
0.05540318414568901 0.009385945275425911 0.15199999511241913 254 79 82
0.055393751710653305 0.009324195794761181 0.1509999930858612 255 88 98
0.05537961423397064 0.00926244631409645 0.15000000596046448 255 99 109
0.05536077544093132 0.00920069683343172 0.14900000393390656 255 103 116
0.055711131542921066 0.00920069683343172 0.14900000393390656 255 104 117
0.05568523705005646 0.009138946421444416 0.14800000190734863 245 86 102
0.05603324621915817 0.009138946421444416 0.14800000190734863 241 82 98
0.05638125166296959 0.009138946421444416 0.14800000190734863 251 90 111
0.056729257106781006 0.009138946421444416 0.14800000190734863 253 92 113
0.05707726255059242 0.009138946421444416 0.14800000190734863 254 93 112
0.05781327933073044 0.00920069683343172 0.14900000393390656 253 92 111
0.058163635432720184 0.00920069683343172 0.14900000393390656 253 96 114
0.05851399526000023 0.00920069683343172 0.14900000393390656 248 91 109
0.058864351361989975 0.00920069683343172 0.14900000393390656 252 105 117
0.059612125158309937 0.00926244631409645 0.15000000596046448 251 104 116
0.05996483191847801 0.00926244631409645 0.15000000596046448 245 110 113
0.060317542403936386 0.00926244631409645 0.15000000596046448 255 124 127
0.06067024916410446 0.00926244631409645 0.15000000596046448 255 127 129
0.061022959649562836 0.00926244631409645 0.15000000596046448 254 123 125
0.06137567013502121 0.00926244631409645 0.15000000596046448 255 138 132
0.061728376895189285 0.00926244631409645 0.15000000596046448 250 129 123
0.06208108738064766 0.00926244631409645 0.15000000596046448 252 134 125
0.062017571181058884 0.00920069683343172 0.14900000393390656 246 128 119
0.06236792728304863 0.00920069683343172 0.14900000393390656 244 128 118
0.062297359108924866 0.009138946421444416 0.14800000190734863 247 131 121
0.06264536082744598 0.009138946421444416 0.14800000190734863 242 134 121
0.0629933699965477 0.009138946421444416 0.14800000190734863 237 129 116
0.06291339546442032 0.009077196940779686 0.1469999998807907 250 194 178
0.0632590502500534 0.009077196940779686 0.1469999998807907 255 239 223
0.06360470503568649 0.009077196940779686 0.1469999998807907 255 254 237
0.06395035982131958 0.009077196940779686 0.1469999998807907 255 254 237
0.06385862827301025 0.009015447460114956 0.1459999978542328 254 255 245
0.06420192867517471 0.009015447460114956 0.1459999978542328 254 255 245
0.06454523652791977 0.009015447460114956 0.1459999978542328 254 255 249
0.06488853693008423 0.009015447460114956 0.1459999978542328 254 255 249
0.06523183733224869 0.009015447460114956 0.1459999978542328 254 255 249
0.06557514518499374 0.009015447460114956 0.1459999978542328 254 255 249
0.0659184455871582 0.009015447460114956 0.1459999978542328 255 255 247
0.06626175343990326 0.009015447460114956 0.1459999978542328 252 250 242
0.06590895354747772 0.008830198086798191 0.14300000667572021 243 170 171
0.06624520570039749 0.008830198086798191 0.14300000667572021 236 163 164
0.06658145785331726 0.008830198086798191 0.14300000667572021 234 160 147
0.06691770255565643 0.008830198086798191 0.14300000667572021 237 163 150
0.0672539547085762 0.008830198086798191 0.14300000667572021 229 155 140
0.06759020686149597 0.008830198086798191 0.14300000667572021 214 140 125
0.06745143979787827 0.008768448606133461 0.1420000046491623 204 172 148
0.0677853375673294 0.008768448606133461 0.1420000046491623 255 247 223
0.06811923533678055 0.008768448606133461 0.1420000046491623 255 255 237
0.06845313310623169 0.008768448606133461 0.1420000046491623 255 255 237
0.06878703087568283 0.008768448606133461 0.1420000046491623 254 255 247
0.06912093609571457 0.008768448606133461 0.1420000046491623 254 255 247
0.06945483386516571 0.008768448606133461 0.1420000046491623 254 255 249
0.06978873163461685 0.008768448606133461 0.1420000046491623 254 255 249
0.06962880492210388 0.008706699125468731 0.14100000262260437 254 255 249
0.0699603483080864 0.008706699125468731 0.14100000262260437 254 255 249
0.0702918991446495 0.008706699125468731 0.14100000262260437 255 252 248
0.07062344253063202 0.008706699125468731 0.14100000262260437 243 238 234
0.06994853913784027 0.00858320016413927 0.13899999856948853 255 224 224
0.07027538120746613 0.00858320016413927 0.13899999856948853 241 203 203
0.07009429484605789 0.00852145068347454 0.1379999965429306 242 177 177
0.07041878998279572 0.00852145068347454 0.1379999965429306 236 171 171
0.07074327766895294 0.00852145068347454 0.1379999965429306 218 144 145
0.07106777280569077 0.00852145068347454 0.1379999965429306 202 128 129
0.07139226794242859 0.00852145068347454 0.1379999965429306 185 117 109
0.07171675562858582 0.00852145068347454 0.1379999965429306 198 130 122
0.07204125076532364 0.00852145068347454 0.1379999965429306 254 209 198
0.07236573845148087 0.00852145068347454 0.1379999965429306 255 233 222
0.07269023358821869 0.00852145068347454 0.1379999965429306 255 232 233
0.07301472872495651 0.00852145068347454 0.1379999965429306 253 213 214
0.07280777394771576 0.008459700271487236 0.13699999451637268 247 187 197
0.07312991470098495 0.008459700271487236 0.13699999451637268 240 180 190
0.07345205545425415 0.008459700271487236 0.13699999451637268 243 175 183
0.07377419620752335 0.008459700271487236 0.13699999451637268 241 173 181
0.07409633696079254 0.008459700271487236 0.13699999451637268 226 164 165
0.07441847771406174 0.008459700271487236 0.13699999451637268 216 154 155
0.07419507205486298 0.008397950790822506 0.13600000739097595 216 153 157
0.07451485842466354 0.008397950790822506 0.13600000739097595 205 142 146
0.07483465224504471 0.008397950790822506 0.13600000739097595 201 140 145
0.07515443861484528 0.008397950790822506 0.13600000739097595 196 135 140
0.07547422498464584 0.008397950790822506 0.13600000739097595 194 134 132
0.07579401880502701 0.008397950790822506 0.13600000739097595 185 125 123
0.07611380517482758 0.008397950790822506 0.13600000739097595 178 120 104
0.07675338536500931 0.008397950790822506 0.13600000739097595 190 129 105
0.07707317918539047 0.008397950790822506 0.13600000739097595 210 149 125
0.07739296555519104 0.008397950790822506 0.13600000739097595 217 159 145
0.07771275192499161 0.008397950790822506 0.13600000739097595 212 154 140
0.07803254574537277 0.008397950790822506 0.13600000739097595 206 158 154
0.0777762159705162 0.008336201310157776 0.13500000536441803 189 141 137
0.07809365540742874 0.008336201310157776 0.13500000536441803 178 134 134
0.07841108739376068 0.008336201310157776 0.13500000536441803 181 137 137
0.07872852683067322 0.008336201310157776 0.13500000536441803 177 134 129
0.07904596626758575 0.008336201310157776 0.13500000536441803 175 132 127
0.07936340570449829 0.008336201310157776 0.13500000536441803 175 127 119
0.07968084514141083 0.008336201310157776 0.13500000536441803 181 133 125
0.08222034573554993 0.008336201310157776 0.13500000536441803 179 119 108
0.08253778517246246 0.008336201310157776 0.13500000536441803 178 123 118
0.082855224609375 0.008336201310157776 0.13500000536441803 182 127 122
0.08378876000642776 0.008397950790822506 0.13600000739097595 190 136 137
0.08410854637622833 0.008397950790822506 0.13600000739097595 181 127 128
0.0844283327460289 0.008397950790822506 0.13600000739097595 183 127 129
0.08474812656641006 0.008397950790822506 0.13600000739097595 174 118 120
0.08506791293621063 0.008397950790822506 0.13600000739097595 173 120 116
0.08827054500579834 0.008459700271487236 0.13699999451637268 181 124 115
0.08859268575906754 0.008459700271487236 0.13699999451637268 183 126 117
0.08891482651233673 0.008459700271487236 0.13699999451637268 191 138 132
0.08923696726560593 0.008459700271487236 0.13699999451637268 191 138 132
0.08955910801887512 0.008459700271487236 0.13699999451637268 188 141 128
0.08988124877214432 0.008459700271487236 0.13699999451637268 180 133 120
0.09020338952541351 0.008459700271487236 0.13699999451637268 185 138 125
0.09052553027868271 0.008459700271487236 0.13699999451637268 179 132 119
0.055393751710653305 0.00967925600707531 0.1509999930858612 248 89 96
0.055010415613651276 0.009551053866744041 0.14900000393390656 255 107 114
0.054989226162433624 0.009486952796578407 0.14800000190734863 255 107 114
0.05533723160624504 0.009486952796578407 0.14800000190734863 255 108 115
0.05568523705005646 0.009486952796578407 0.14800000190734863 253 93 107
0.05603324621915817 0.009486952796578407 0.14800000190734863 246 86 100
0.05638125166296959 0.009486952796578407 0.14800000190734863 253 86 107
0.056729257106781006 0.009486952796578407 0.14800000190734863 255 88 109
0.05707726255059242 0.009486952796578407 0.14800000190734863 252 85 106
0.05742526799440384 0.009486952796578407 0.14800000190734863 252 85 106
0.058163635432720184 0.009551053866744041 0.14900000393390656 255 95 114
0.05851399526000023 0.009551053866744041 0.14900000393390656 255 100 119
0.058864351361989975 0.009551053866744041 0.14900000393390656 255 117 129
0.05921470746397972 0.009551053866744041 0.14900000393390656 255 116 128
0.05996483191847801 0.009615154936909676 0.15000000596046448 255 117 124
0.060317542403936386 0.009615154936909676 0.15000000596046448 255 118 125
0.06067024916410446 0.009615154936909676 0.15000000596046448 255 125 127
0.061022959649562836 0.009615154936909676 0.15000000596046448 252 121 123
0.06137567013502121 0.009615154936909676 0.15000000596046448 255 133 132
0.06131685525178909 0.009551053866744041 0.14900000393390656 250 121 120
0.06166721135377884 0.009551053866744041 0.14900000393390656 255 135 130
0.062017571181058884 0.009551053866744041 0.14900000393390656 248 125 120
0.06236792728304863 0.009551053866744041 0.14900000393390656 242 126 114
0.062297359108924866 0.009486952796578407 0.14800000190734863 242 126 114
0.06264536082744598 0.009486952796578407 0.14800000190734863 234 121 110
0.0629933699965477 0.009486952796578407 0.14800000190734863 227 114 103
0.06291339546442032 0.009422851726412773 0.1469999998807907 253 188 175
0.0632590502500534 0.009422851726412773 0.1469999998807907 255 231 218
0.06360470503568649 0.009422851726412773 0.1469999998807907 255 248 233
0.06395035982131958 0.009422851726412773 0.1469999998807907 255 252 237
0.06385862827301025 0.009358750656247139 0.1459999978542328 254 255 247
0.06420192867517471 0.009358750656247139 0.1459999978542328 254 255 247
0.06454523652791977 0.009358750656247139 0.1459999978542328 254 255 249
0.06488853693008423 0.009358750656247139 0.1459999978542328 254 255 249
0.06523183733224869 0.009358750656247139 0.1459999978542328 254 255 249
0.06557514518499374 0.009358750656247139 0.1459999978542328 254 255 249
0.06546695530414581 0.009294649586081505 0.14499999582767487 255 250 243
0.06580790132284164 0.009294649586081505 0.14499999582767487 238 227 220
0.06569265574216843 0.00923054851591587 0.14399999380111694 245 191 194
0.06603125482797623 0.00923054851591587 0.14399999380111694 244 190 193
0.06590895354747772 0.009166447445750237 0.14300000667572021 249 172 174
0.06624520570039749 0.009166447445750237 0.14300000667572021 248 171 173
0.06658145785331726 0.009166447445750237 0.14300000667572021 245 163 153
0.06691770255565643 0.009166447445750237 0.14300000667572021 239 157 147
0.0672539547085762 0.009166447445750237 0.14300000667572021 239 161 143
0.06759020686149597 0.009166447445750237 0.14300000667572021 209 131 113
0.06745143979787827 0.009102347306907177 0.1420000046491623 202 160 132
0.0677853375673294 0.009102347306907177 0.1420000046491623 255 241 213
0.06811923533678055 0.009102347306907177 0.1420000046491623 255 255 235
0.06845313310623169 0.009102347306907177 0.1420000046491623 255 255 235
0.06878703087568283 0.009102347306907177 0.1420000046491623 254 255 245
0.06912093609571457 0.009102347306907177 0.1420000046491623 254 255 245
0.06945483386516571 0.009102347306907177 0.1420000046491623 254 255 247
0.06978873163461685 0.009102347306907177 0.1420000046491623 254 255 247
0.06962880492210388 0.009038246236741543 0.14100000262260437 254 255 247
0.0699603483080864 0.009038246236741543 0.14100000262260437 254 255 247
0.0702918991446495 0.009038246236741543 0.14100000262260437 255 249 247
0.07012256979942322 0.008974145166575909 0.14000000059604645 245 233 231
0.06994853913784027 0.008910044096410275 0.13899999856948853 255 208 212
0.07027538120746613 0.008910044096410275 0.13899999856948853 248 198 202
0.07009429484605789 0.00884594302624464 0.1379999965429306 237 164 167
0.07041878998279572 0.00884594302624464 0.1379999965429306 220 147 150
0.07074327766895294 0.00884594302624464 0.1379999965429306 210 132 132
0.07106777280569077 0.00884594302624464 0.1379999965429306 205 127 127
0.07171675562858582 0.00884594302624464 0.1379999965429306 193 118 110
0.07204125076532364 0.00884594302624464 0.1379999965429306 246 193 176
0.07236573845148087 0.00884594302624464 0.1379999965429306 255 229 212
