0.0704517662525177 0.008315754123032093 0.14000000059604645 176 134 131
0.07078096270561218 0.008315754123032093 0.14000000059604645 163 121 118
0.07060222327709198 0.008256356231868267 0.13899999856948853 158 110 106
0.07092906534671783 0.008256356231868267 0.13899999856948853 158 110 106
0.07125591486692429 0.008256356231868267 0.13899999856948853 161 106 101
0.07106777280569077 0.008196958340704441 0.1379999965429306 134 79 74
0.07139226794242859 0.008196958340704441 0.1379999965429306 127 79 64
0.07171675562858582 0.008196958340704441 0.1379999965429306 164 116 101
0.07204125076532364 0.008196958340704441 0.1379999965429306 196 154 142
0.07236573845148087 0.008196958340704441 0.1379999965429306 189 147 135
0.07269023358821869 0.008196958340704441 0.1379999965429306 180 138 135
0.07301472872495651 0.008196958340704441 0.1379999965429306 169 127 124
0.07333921641111374 0.008196958340704441 0.1379999965429306 165 126 124
0.07366371154785156 0.008196958340704441 0.1379999965429306 160 121 119
0.07345205545425415 0.00813755951821804 0.13699999451637268 156 117 113
0.07377419620752335 0.00813755951821804 0.13699999451637268 152 113 109
0.07409633696079254 0.00813755951821804 0.13699999451637268 150 113 108
0.07441847771406174 0.00813755951821804 0.13699999451637268 146 109 104
0.07474061846733093 0.00813755951821804 0.13699999451637268 143 108 103
0.07506275922060013 0.00813755951821804 0.13699999451637268 140 105 100
0.07538489997386932 0.00813755951821804 0.13699999451637268 139 100 96
0.07570704072713852 0.00813755951821804 0.13699999451637268 130 91 87
0.07547422498464584 0.008078161627054214 0.13600000739097595 128 88 75
0.07579401880502701 0.008078161627054214 0.13600000739097595 124 84 71
0.07611380517482758 0.008078161627054214 0.13600000739097595 121 80 63
0.07643359899520874 0.008078161627054214 0.13600000739097595 128 87 70
0.07675338536500931 0.008078161627054214 0.13600000739097595 139 99 86
0.07707317918539047 0.008078161627054214 0.13600000739097595 145 105 92
0.07739296555519104 0.008078161627054214 0.13600000739097595 145 109 99
0.07771275192499161 0.008078161627054214 0.13600000739097595 142 106 96
0.07803254574537277 0.008078161627054214 0.13600000739097595 138 102 94
0.07835233211517334 0.008078161627054214 0.13600000739097595 138 102 94
0.0786721259355545 0.008078161627054214 0.13600000739097595 135 99 91
0.07899191230535507 0.008078161627054214 0.13600000739097595 130 94 86
0.07931170612573624 0.008078161627054214 0.13600000739097595 124 88 80
0.0796314924955368 0.008078161627054214 0.13600000739097595 124 88 80
0.07995127886533737 0.008078161627054214 0.13600000739097595 122 88 80
0.08027107268571854 0.008078161627054214 0.13600000739097595 121 87 79
0.0805908590555191 0.008078161627054214 0.13600000739097595 116 85 76
0.08091065287590027 0.008078161627054214 0.13600000739097595 112 81 72
0.08123043924570084 0.008078161627054214 0.13600000739097595 112 74 67
0.081550233066082 0.008078161627054214 0.13600000739097595 108 70 63
0.08187001943588257 0.008078161627054214 0.13600000739097595 112 67 56
0.08218980580568314 0.008078161627054214 0.13600000739097595 112 67 56
0.0825095996260643 0.008078161627054214 0.13600000739097595 121 79 65
0.08282938599586487 0.008078161627054214 0.13600000739097595 126 84 70
0.08314917981624603 0.008078161627054214 0.13600000739097595 127 86 76
0.0834689661860466 0.008078161627054214 0.13600000739097595 127 86 76
0.08378876000642776 0.008078161627054214 0.13600000739097595 125 87 78
0.08410854637622833 0.008078161627054214 0.13600000739097595 125 87 78
0.0844283327460289 0.008078161627054214 0.13600000739097595 121 85 75
0.08474812656641006 0.008078161627054214 0.13600000739097595 118 82 72
0.08506791293621063 0.008078161627054214 0.13600000739097595 116 80 70
0.0853877067565918 0.008078161627054214 0.13600000739097595 114 78 68
0.08570749312639236 0.008078161627054214 0.13600000739097595 109 73 61
0.08602728694677353 0.008078161627054214 0.13600000739097595 108 72 60
0.0863470733165741 0.008078161627054214 0.13600000739097595 107 72 57
0.08666686713695526 0.008078161627054214 0.13600000739097595 108 73 58
0.08698665350675583 0.008078161627054214 0.13600000739097595 114 72 58
0.0873064398765564 0.008078161627054214 0.13600000739097595 122 80 66
0.08762623369693756 0.008078161627054214 0.13600000739097595 126 85 75
0.08794602006673813 0.008078161627054214 0.13600000739097595 127 86 76
0.0882658138871193 0.008078161627054214 0.13600000739097595 129 91 80
0.08858560025691986 0.008078161627054214 0.13600000739097595 132 94 83
0.08890539407730103 0.008078161627054214 0.13600000739097595 127 93 83
0.08988124877214432 0.00813755951821804 0.13699999451637268 123 89 79
0.09020338952541351 0.00813755951821804 0.13699999451637268 121 90 81
0.09052553027868271 0.00813755951821804 0.13699999451637268 119 88 79
0.0908476710319519 0.00813755951821804 0.13699999451637268 115 88 80
0.0911698117852211 0.00813755951821804 0.13699999451637268 109 82 74
0.0914919525384903 0.00813755951821804 0.13699999451637268 106 75 73
0.09248427301645279 0.008196958340704441 0.1379999965429306 95 64 62
0.09280876070261002 0.008196958340704441 0.1379999965429306 99 60 58
0.09313325583934784 0.008196958340704441 0.1379999965429306 97 58 56
0.09345774352550507 0.008196958340704441 0.1379999965429306 102 61 55
0.0944618210196495 0.008256356231868267 0.13899999856948853 101 60 54
0.09478866308927536 0.008256356231868267 0.13899999856948853 105 64 58
0.09511550515890121 0.008256356231868267 0.13899999856948853 107 66 60
0.09544235467910767 0.008256356231868267 0.13899999856948853 103 62 56
0.09576919674873352 0.008256356231868267 0.13899999856948853 103 62 56
0.09678737819194794 0.008315754123032093 0.14000000059604645 99 58 50
0.09711657464504242 0.008315754123032093 0.14000000059604645 96 55 47
0.0974457710981369 0.008315754123032093 0.14000000059604645 98 48 43
0.09777496010065079 0.008315754123032093 0.14000000059604645 96 46 41
0.09810415655374527 0.008315754123032093 0.14000000059604645 91 31 27
0.09843335300683975 0.008315754123032093 0.14000000059604645 93 33 29
0.09876254945993423 0.008315754123032093 0.14000000059604645 97 31 25
0.06264536082744598 0.009138946421444416 0.14800000190734863 158 82 79
0.0629933699965477 0.009138946421444416 0.14800000190734863 156 80 77
0.06360470503568649 0.009077196940779686 0.1469999998807907 233 159 160
0.0635153204202652 0.009015447460114956 0.1459999978542328 235 161 162
0.06385862827301025 0.009015447460114956 0.1459999978542328 239 173 178
0.06420192867517471 0.009015447460114956 0.1459999978542328 255 190 195
0.0641031414270401 0.008953697979450226 0.14499999582767487 246 190 192
0.06444409489631653 0.008953697979450226 0.14499999582767487 240 184 186
0.06478504836559296 0.008953697979450226 0.14499999582767487 230 182 186
0.06512600183486938 0.008953697979450226 0.14499999582767487 216 168 172
0.06501545757055283 0.008891948498785496 0.14399999380111694 199 156 160
0.06535405665636063 0.008891948498785496 0.14399999380111694 185 142 146
0.06523645669221878 0.008830198086798191 0.14300000667572021 170 125 128
0.06557270884513855 0.008830198086798191 0.14300000667572021 169 124 127
0.06590895354747772 0.008830198086798191 0.14300000667572021 163 114 113
0.06624520570039749 0.008830198086798191 0.14300000667572021 158 109 108
0.06658145785331726 0.008830198086798191 0.14300000667572021 162 112 107
0.06644974648952484 0.008768448606133461 0.1420000046491623 161 111 106
0.06678364425897598 0.008768448606133461 0.1420000046491623 157 104 98
0.06711754202842712 0.008768448606133461 0.1420000046491623 142 89 83
0.06745143979787827 0.008768448606133461 0.1420000046491623 177 134 127
0.0677853375673294 0.008768448606133461 0.1420000046491623 234 191 184
0.06811923533678055 0.008768448606133461 0.1420000046491623 222 186 178
0.06845313310623169 0.008768448606133461 0.1420000046491623 214 178 170
0.06878703087568283 0.008768448606133461 0.1420000046491623 203 165 167
0.06912093609571457 0.008768448606133461 0.1420000046491623 206 168 170
0.06945483386516571 0.008768448606133461 0.1420000046491623 203 163 166
0.06929726153612137 0.008706699125468731 0.14100000262260437 199 159 162
0.06962880492210388 0.008706699125468731 0.14100000262260437 192 152 153
0.0699603483080864 0.008706699125468731 0.14100000262260437 188 148 149
0.0702918991446495 0.008706699125468731 0.14100000262260437 188 150 152
0.07012256979942322 0.008644949644804 0.14000000059604645 180 142 144
0.0704517662525177 0.008644949644804 0.14000000059604645 179 137 136
0.07078096270561218 0.008644949644804 0.14000000059604645 165 123 122
0.07111015170812607 0.008644949644804 0.14000000059604645 158 109 108
0.07092906534671783 0.00858320016413927 0.13899999856948853 143 94 93
0.07125591486692429 0.00858320016413927 0.13899999856948853 157 99 95
0.07158275693655014 0.00858320016413927 0.13899999856948853 131 73 69
0.07139226794242859 0.00852145068347454 0.1379999965429306 124 68 52
0.07171675562858582 0.00852145068347454 0.1379999965429306 159 103 87
0.07204125076532364 0.00852145068347454 0.1379999965429306 197 152 141
0.07236573845148087 0.00852145068347454 0.1379999965429306 192 147 136
0.07269023358821869 0.00852145068347454 0.1379999965429306 185 143 140
0.07301472872495651 0.00852145068347454 0.1379999965429306 183 141 138
0.07333921641111374 0.00852145068347454 0.1379999965429306 170 131 129
0.07366371154785156 0.00852145068347454 0.1379999965429306 159 120 118
0.07345205545425415 0.008459700271487236 0.13699999451637268 154 115 111
0.07377419620752335 0.008459700271487236 0.13699999451637268 150 111 107
0.07409633696079254 0.008459700271487236 0.13699999451637268 146 109 104
0.07441847771406174 0.008459700271487236 0.13699999451637268 144 107 102
0.07474061846733093 0.008459700271487236 0.13699999451637268 142 107 102
0.07506275922060013 0.008459700271487236 0.13699999451637268 137 102 97
0.07538489997386932 0.008459700271487236 0.13699999451637268 136 99 96
0.07570704072713852 0.008459700271487236 0.13699999451637268 131 94 91
0.07602918893098831 0.008459700271487236 0.13699999451637268 131 90 82
0.07579401880502701 0.008397950790822506 0.13600000739097595 126 85 77
0.07611380517482758 0.008397950790822506 0.13600000739097595 111 69 55
0.07643359899520874 0.008397950790822506 0.13600000739097595 124 82 68
0.07675338536500931 0.008397950790822506 0.13600000739097595 135 93 79
0.07707317918539047 0.008397950790822506 0.13600000739097595 145 103 89
0.07739296555519104 0.008397950790822506 0.13600000739097595 141 105 95
0.07771275192499161 0.008397950790822506 0.13600000739097595 145 109 99
0.07803254574537277 0.008397950790822506 0.13600000739097595 139 103 95
0.07835233211517334 0.008397950790822506 0.13600000739097595 137 101 93
0.0786721259355545 0.008397950790822506 0.13600000739097595 130 92 83
0.07899191230535507 0.008397950790822506 0.13600000739097595 129 91 82
0.07931170612573624 0.008397950790822506 0.13600000739097595 126 88 79
0.0796314924955368 0.008397950790822506 0.13600000739097595 125 87 78
0.07995127886533737 0.008397950790822506 0.13600000739097595 121 85 75
0.08027107268571854 0.008397950790822506 0.13600000739097595 123 87 77
0.0805908590555191 0.008397950790822506 0.13600000739097595 118 84 74
0.08091065287590027 0.008397950790822506 0.13600000739097595 112 78 68
0.08123043924570084 0.008397950790822506 0.13600000739097595 111 70 64
0.081550233066082 0.008397950790822506 0.13600000739097595 109 68 62
0.08187001943588257 0.008397950790822506 0.13600000739097595 112 65 52
0.08218980580568314 0.008397950790822506 0.13600000739097595 115 68 55
0.0825095996260643 0.008397950790822506 0.13600000739097595 130 84 68
0.08282938599586487 0.008397950790822506 0.13600000739097595 132 86 70
0.08314917981624603 0.008397950790822506 0.13600000739097595 128 86 74
0.0834689661860466 0.008397950790822506 0.13600000739097595 128 86 74
0.08378876000642776 0.008397950790822506 0.13600000739097595 126 85 77
0.08410854637622833 0.008397950790822506 0.13600000739097595 127 86 78
0.0844283327460289 0.008397950790822506 0.13600000739097595 120 79 71
0.08474812656641006 0.008397950790822506 0.13600000739097595 118 77 69
0.08506791293621063 0.008397950790822506 0.13600000739097595 116 78 69
0.0853877067565918 0.008397950790822506 0.13600000739097595 112 74 65
0.08570749312639236 0.008397950790822506 0.13600000739097595 110 72 61
0.08602728694677353 0.008397950790822506 0.13600000739097595 108 70 59
0.0863470733165741 0.008397950790822506 0.13600000739097595 108 71 57
0.08666686713695526 0.008397950790822506 0.13600000739097595 105 68 54
0.08698665350675583 0.008397950790822506 0.13600000739097595 112 70 56
0.0873064398765564 0.008397950790822506 0.13600000739097595 121 79 65
0.08762623369693756 0.008397950790822506 0.13600000739097595 127 87 74
0.08794602006673813 0.008397950790822506 0.13600000739097595 125 85 72
0.0882658138871193 0.008397950790822506 0.13600000739097595 124 86 75
0.08858560025691986 0.008397950790822506 0.13600000739097595 125 87 76
0.08890539407730103 0.008397950790822506 0.13600000739097595 124 88 76
0.08988124877214432 0.008459700271487236 0.13699999451637268 127 91 79
0.09020338952541351 0.008459700271487236 0.13699999451637268 123 89 79
0.09052553027868271 0.008459700271487236 0.13699999451637268 119 85 75
0.0908476710319519 0.008459700271487236 0.13699999451637268 112 83 73
0.0911698117852211 0.008459700271487236 0.13699999451637268 111 82 72
0.0914919525384903 0.008459700271487236 0.13699999451637268 104 72 68
0.09248427301645279 0.00852145068347454 0.1379999965429306 96 64 60
0.09280876070261002 0.00852145068347454 0.1379999965429306 96 57 55
0.09313325583934784 0.00852145068347454 0.1379999965429306 94 55 53
0.09345774352550507 0.00852145068347454 0.1379999965429306 95 56 52
0.0944618210196495 0.00858320016413927 0.13899999856948853 95 56 52
0.09478866308927536 0.00858320016413927 0.13899999856948853 104 63 57
0.09511550515890121 0.00858320016413927 0.13899999856948853 103 62 56
0.09544235467910767 0.00858320016413927 0.13899999856948853 102 61 55
0.09576919674873352 0.00858320016413927 0.13899999856948853 105 64 58
0.09609603881835938 0.00858320016413927 0.13899999856948853 106 63 56
0.09642288088798523 0.00858320016413927 0.13899999856948853 98 55 48
0.09674973040819168 0.00858320016413927 0.13899999856948853 96 43 39
0.09707657247781754 0.00858320016413927 0.13899999856948853 92 39 35
0.09810415655374527 0.008644949644804 0.14000000059604645 96 36 36
0.09843335300683975 0.008644949644804 0.14000000059604645 95 35 35
0.09876254945993423 0.008644949644804 0.14000000059604645 95 28 27
0.06360470503568649 0.009422851726412773 0.1469999998807907 237 161 160
0.0635153204202652 0.009358750656247139 0.1459999978542328 234 158 157
0.06385862827301025 0.009358750656247139 0.1459999978542328 229 162 163
0.06420192867517471 0.009358750656247139 0.1459999978542328 233 166 167
0.0641031414270401 0.009294649586081505 0.14499999582767487 225 164 167
0.06444409489631653 0.009294649586081505 0.14499999582767487 229 168 171
0.06478504836559296 0.009294649586081505 0.14499999582767487 224 172 177
0.06467685103416443 0.00923054851591587 0.14399999380111694 216 164 169
0.06501545757055283 0.00923054851591587 0.14399999380111694 193 148 153
0.06535405665636063 0.00923054851591587 0.14399999380111694 168 123 128
0.06523645669221878 0.009166447445750237 0.14300000667572021 168 119 120
0.06557270884513855 0.009166447445750237 0.14300000667572021 168 119 120
0.06590895354747772 0.009166447445750237 0.14300000667572021 163 108 107
0.06624520570039749 0.009166447445750237 0.14300000667572021 162 107 106
0.06658145785331726 0.009166447445750237 0.14300000667572021 162 107 104
0.06644974648952484 0.009102347306907177 0.1420000046491623 165 110 107
0.06678364425897598 0.009102347306907177 0.1420000046491623 151 96 91
0.06711754202842712 0.009102347306907177 0.1420000046491623 141 86 81
0.06745143979787827 0.009102347306907177 0.1420000046491623 155 109 101
0.0677853375673294 0.009102347306907177 0.1420000046491623 230 184 176
0.06811923533678055 0.009102347306907177 0.1420000046491623 221 185 177
0.06845313310623169 0.009102347306907177 0.1420000046491623 222 186 178
0.06878703087568283 0.009102347306907177 0.1420000046491623 209 166 168
0.06912093609571457 0.009102347306907177 0.1420000046491623 204 161 163
0.06945483386516571 0.009102347306907177 0.1420000046491623 204 159 162
0.06978873163461685 0.009102347306907177 0.1420000046491623 200 155 158
0.06962880492210388 0.009038246236741543 0.14100000262260437 192 149 151
0.0699603483080864 0.009038246236741543 0.14100000262260437 192 149 151
0.0702918991446495 0.009038246236741543 0.14100000262260437 188 145 149
0.07062344253063202 0.009038246236741543 0.14100000262260437 182 139 143
0.0704517662525177 0.008974145166575909 0.14000000059604645 174 129 132
0.07078096270561218 0.008974145166575909 0.14000000059604645 167 122 125
0.07111015170812607 0.008974145166575909 0.14000000059604645 160 111 110
0.07092906534671783 0.008910044096410275 0.13899999856948853 138 89 88
0.07125591486692429 0.008910044096410275 0.13899999856948853 151 93 89
0.07158275693655014 0.008910044096410275 0.13899999856948853 128 70 66
0.07139226794242859 0.00884594302624464 0.1379999965429306 114 56 42
0.07171675562858582 0.00884594302624464 0.1379999965429306 154 96 82
0.07204125076532364 0.00884594302624464 0.1379999965429306 193 146 135
0.07236573845148087 0.00884594302624464 0.1379999965429306 193 146 135
0.07269023358821869 0.00884594302624464 0.1379999965429306 188 147 141
0.07301472872495651 0.00884594302624464 0.1379999965429306 169 128 122
0.07333921641111374 0.00884594302624464 0.1379999965429306 159 119 120
0.07366371154785156 0.00884594302624464 0.1379999965429306 156 116 117
0.07398820668458939 0.00884594302624464 0.1379999965429306 154 115 113
0.07377419620752335 0.008781841956079006 0.13699999451637268 150 111 109
0.07409633696079254 0.008781841956079006 0.13699999451637268 141 104 99
0.07441847771406174 0.008781841956079006 0.13699999451637268 144 107 102
0.07474061846733093 0.008781841956079006 0.13699999451637268 141 106 101
0.07506275922060013 0.008781841956079006 0.13699999451637268 133 98 93
0.07538489997386932 0.008781841956079006 0.13699999451637268 132 95 92
0.07570704072713852 0.008781841956079006 0.13699999451637268 127 90 87
0.07602918893098831 0.008781841956079006 0.13699999451637268 124 82 79
0.07579401880502701 0.008717740885913372 0.13600000739097595 128 86 83
0.07611380517482758 0.008717740885913372 0.13600000739097595 108 61 48
0.07643359899520874 0.008717740885913372 0.13600000739097595 108 61 48
0.07675338536500931 0.008717740885913372 0.13600000739097595 131 91 76
0.07707317918539047 0.008717740885913372 0.13600000739097595 145 105 90
0.07739296555519104 0.008717740885913372 0.13600000739097595 141 105 95
0.07771275192499161 0.008717740885913372 0.13600000739097595 137 101 91
0.07803254574537277 0.008717740885913372 0.13600000739097595 137 99 92
0.07835233211517334 0.008717740885913372 0.13600000739097595 136 98 91
0.0786721259355545 0.008717740885913372 0.13600000739097595 131 93 84
0.07899191230535507 0.008717740885913372 0.13600000739097595 128 90 81
0.07931170612573624 0.008717740885913372 0.13600000739097595 128 90 79
0.0796314924955368 0.008717740885913372 0.13600000739097595 123 85 74
0.07995127886533737 0.008717740885913372 0.13600000739097595 119 81 70
0.08027107268571854 0.008717740885913372 0.13600000739097595 121 83 72
0.0805908590555191 0.008717740885913372 0.13600000739097595 121 83 74
0.08091065287590027 0.008717740885913372 0.13600000739097595 119 81 72
0.08123043924570084 0.008717740885913372 0.13600000739097595 105 62 55
0.081550233066082 0.008717740885913372 0.13600000739097595 105 62 55
0.08187001943588257 0.008717740885913372 0.13600000739097595 108 61 48
0.08218980580568314 0.008717740885913372 0.13600000739097595 117 70 57
0.0825095996260643 0.008717740885913372 0.13600000739097595 125 79 63
0.08282938599586487 0.008717740885913372 0.13600000739097595 129 83 67
0.08314917981624603 0.008717740885913372 0.13600000739097595 126 83 76
0.0834689661860466 0.008717740885913372 0.13600000739097595 126 83 76
0.08378876000642776 0.008717740885913372 0.13600000739097595 125 82 77
0.08410854637622833 0.008717740885913372 0.13600000739097595 122 79 74
0.0844283327460289 0.008717740885913372 0.13600000739097595 120 79 73
0.08474812656641006 0.008717740885913372 0.13600000739097595 117 76 70
0.08506791293621063 0.008717740885913372 0.13600000739097595 112 71 63
0.0853877067565918 0.008717740885913372 0.13600000739097595 111 70 62
0.08570749312639236 0.008717740885913372 0.13600000739097595 112 71 61
0.08602728694677353 0.008717740885913372 0.13600000739097595 110 69 59
0.0863470733165741 0.008717740885913372 0.13600000739097595 103 63 50
0.08666686713695526 0.008717740885913372 0.13600000739097595 98 58 45
0.08698665350675583 0.008717740885913372 0.13600000739097595 112 73 55
0.0873064398765564 0.008717740885913372 0.13600000739097595 120 81 63
0.08762623369693756 0.008717740885913372 0.13600000739097595 121 84 68
0.08794602006673813 0.008717740885913372 0.13600000739097595 123 86 70
0.0882658138871193 0.008717740885913372 0.13600000739097595 124 87 73
0.08858560025691986 0.008717740885913372 0.13600000739097595 125 88 74
0.08890539407730103 0.008717740885913372 0.13600000739097595 126 88 77
0.08922518044710159 0.008717740885913372 0.13600000739097595 126 88 77
0.08954496681690216 0.008717740885913372 0.13600000739097595 125 87 76
0.09052553027868271 0.008781841956079006 0.13699999451637268 122 84 73
0.0908476710319519 0.008781841956079006 0.13699999451637268 113 79 69
0.0911698117852211 0.008781841956079006 0.13699999451637268 114 80 70
0.0914919525384903 0.008781841956079006 0.13699999451637268 110 71 67
0.09181409329175949 0.008781841956079006 0.13699999451637268 102 63 59
0.09280876070261002 0.00884594302624464 0.1379999965429306 100 56 56
0.09313325583934784 0.00884594302624464 0.1379999965429306 96 52 52
0.09345774352550507 0.00884594302624464 0.1379999965429306 97 53 51
0.09378223866224289 0.00884594302624464 0.1379999965429306 100 56 54
0.09478866308927536 0.008910044096410275 0.13899999856948853 102 58 56
0.09511550515890121 0.008910044096410275 0.13899999856948853 102 58 56
0.09544235467910767 0.008910044096410275 0.13899999856948853 104 58 54
0.09576919674873352 0.008910044096410275 0.13899999856948853 108 62 58
0.09609603881835938 0.008910044096410275 0.13899999856948853 101 51 46
0.09642288088798523 0.008910044096410275 0.13899999856948853 97 47 42
0.09674973040819168 0.008910044096410275 0.13899999856948853 99 41 39
0.09707657247781754 0.008910044096410275 0.13899999856948853 96 38 36
0.09740341454744339 0.008910044096410275 0.13899999856948853 99 37 36
0.09773025661706924 0.008910044096410275 0.13899999856948853 90 28 27
0.0980570986866951 0.008910044096410275 0.13899999856948853 90 20 20
0.06360470503568649 0.00976850651204586 0.1469999998807907 234 156 156
0.0635153204202652 0.009702054783701897 0.1459999978542328 234 156 156
0.06385862827301025 0.009702054783701897 0.1459999978542328 227 160 159
0.06420192867517471 0.009702054783701897 0.1459999978542328 212 145 144
0.0641031414270401 0.009635602124035358 0.14499999582767487 209 147 148
0.06444409489631653 0.009635602124035358 0.14499999582767487 213 151 152
0.06478504836559296 0.009635602124035358 0.14499999582767487 217 162 168
0.06467685103416443 0.00956914946436882 0.14399999380111694 219 164 170
0.06501545757055283 0.00956914946436882 0.14399999380111694 183 135 141
0.06535405665636063 0.00956914946436882 0.14399999380111694 169 121 127
0.06523645669221878 0.009502696804702282 0.14300000667572021 170 116 117
0.06557270884513855 0.009502696804702282 0.14300000667572021 168 114 115
0.06590895354747772 0.009502696804702282 0.14300000667572021 157 97 93
0.06624520570039749 0.009502696804702282 0.14300000667572021 161 101 97
0.0661158487200737 0.009436245076358318 0.1420000046491623 165 104 98
0.06644974648952484 0.009436245076358318 0.1420000046491623 151 90 84
0.06678364425897598 0.009436245076358318 0.1420000046491623 145 88 81
0.06711754202842712 0.009436245076358318 0.1420000046491623 136 79 72
0.06745143979787827 0.009436245076358318 0.1420000046491623 140 92 84
0.0677853375673294 0.009436245076358318 0.1420000046491623 225 177 169
0.06811923533678055 0.009436245076358318 0.1420000046491623 204 163 157
0.06845313310623169 0.009436245076358318 0.1420000046491623 222 181 175
0.06878703087568283 0.009436245076358318 0.1420000046491623 209 165 165
0.06912093609571457 0.009436245076358318 0.1420000046491623 202 158 158
0.06945483386516571 0.009436245076358318 0.1420000046491623 199 154 157
0.06929726153612137 0.00936979241669178 0.14100000262260437 197 152 155
0.06962880492210388 0.00936979241669178 0.14100000262260437 192 149 151
0.0699603483080864 0.00936979241669178 0.14100000262260437 189 146 148
0.0702918991446495 0.00936979241669178 0.14100000262260437 183 138 143
0.07062344253063202 0.00936979241669178 0.14100000262260437 178 133 138
0.0704517662525177 0.009303339757025242 0.14000000059604645 170 122 126
0.07078096270561218 0.009303339757025242 0.14000000059604645 165 117 121
0.07111015170812607 0.009303339757025242 0.14000000059604645 152 103 102
0.07092906534671783 0.009236887097358704 0.13899999856948853 147 98 97
0.07125591486692429 0.009236887097358704 0.13899999856948853 155 98 91
0.07158275693655014 0.009236887097358704 0.13899999856948853 118 61 54
0.07139226794242859 0.00917043536901474 0.1379999965429306 104 44 31
0.07171675562858582 0.00917043536901474 0.1379999965429306 145 85 72
0.07204125076532364 0.00917043536901474 0.1379999965429306 184 137 124
0.07236573845148087 0.00917043536901474 0.1379999965429306 185 138 125
0.07269023358821869 0.00917043536901474 0.1379999965429306 180 137 130
0.07301472872495651 0.00917043536901474 0.1379999965429306 175 132 125
0.07333921641111374 0.00917043536901474 0.1379999965429306 167 125 124
0.07366371154785156 0.00917043536901474 0.1379999965429306 151 109 108
0.07398820668458939 0.00917043536901474 0.1379999965429306 153 111 110
0.07377419620752335 0.009103982709348202 0.13699999451637268 149 107 106
0.07409633696079254 0.009103982709348202 0.13699999451637268 137 98 94
0.07441847771406174 0.009103982709348202 0.13699999451637268 144 105 101
0.07474061846733093 0.009103982709348202 0.13699999451637268 138 101 96
0.07506275922060013 0.009103982709348202 0.13699999451637268 129 92 87
0.07538489997386932 0.009103982709348202 0.13699999451637268 130 91 89
0.07570704072713852 0.009103982709348202 0.13699999451637268 128 89 87
0.07602918893098831 0.009103982709348202 0.13699999451637268 116 69 68
0.07579401880502701 0.009037530049681664 0.13600000739097595 116 69 68
0.07611380517482758 0.009037530049681664 0.13600000739097595 100 48 37
0.07643359899520874 0.009037530049681664 0.13600000739097595 107 55 44
0.07675338536500931 0.009037530049681664 0.13600000739097595 129 88 71
0.07707317918539047 0.009037530049681664 0.13600000739097595 142 101 84
0.07739296555519104 0.009037530049681664 0.13600000739097595 139 103 93
0.07771275192499161 0.009037530049681664 0.13600000739097595 135 99 89
0.07803254574537277 0.009037530049681664 0.13600000739097595 132 94 87
0.07835233211517334 0.009037530049681664 0.13600000739097595 130 92 85
0.0786721259355545 0.009037530049681664 0.13600000739097595 131 90 82
0.07899191230535507 0.009037530049681664 0.13600000739097595 126 85 77
0.07931170612573624 0.009037530049681664 0.13600000739097595 125 84 74
0.0796314924955368 0.009037530049681664 0.13600000739097595 119 78 68
0.07995127886533737 0.009037530049681664 0.13600000739097595 119 79 66
0.08027107268571854 0.009037530049681664 0.13600000739097595 120 80 67
0.0805908590555191 0.009037530049681664 0.13600000739097595 120 79 69
0.0803157165646553 0.008971077390015125 0.13500000536441803 117 76 66
0.08063315600156784 0.008971077390015125 0.13500000536441803 112 66 58
0.08095059543848038 0.008971077390015125 0.13500000536441803 105 59 51
0.08126803487539291 0.008971077390015125 0.13500000536441803 102 53 41
0.08158547431230545 0.008971077390015125 0.13500000536441803 123 74 62
0.08190291374921799 0.008971077390015125 0.13500000536441803 122 73 61
0.08222034573554993 0.008971077390015125 0.13500000536441803 124 75 63
0.08253778517246246 0.008971077390015125 0.13500000536441803 123 75 71
0.0834689661860466 0.009037530049681664 0.13600000739097595 125 77 73
0.08378876000642776 0.009037530049681664 0.13600000739097595 124 80 78
0.08410854637622833 0.009037530049681664 0.13600000739097595 122 78 76
0.0844283327460289 0.009037530049681664 0.13600000739097595 120 78 75
0.08474812656641006 0.009037530049681664 0.13600000739097595 116 74 71
0.08506791293621063 0.009037530049681664 0.13600000739097595 111 70 60
0.0853877067565918 0.009037530049681664 0.13600000739097595 110 69 59
0.08570749312639236 0.009037530049681664 0.13600000739097595 110 67 58
0.08602728694677353 0.009037530049681664 0.13600000739097595 110 67 58
0.0863470733165741 0.009037530049681664 0.13600000739097595 99 57 43
0.08666686713695526 0.009037530049681664 0.13600000739097595 95 53 39
0.08698665350675583 0.009037530049681664 0.13600000739097595 108 67 48
0.0873064398765564 0.009037530049681664 0.13600000739097595 107 66 47
0.08762623369693756 0.009037530049681664 0.13600000739097595 119 80 60
0.08794602006673813 0.009037530049681664 0.13600000739097595 125 86 66
0.0882658138871193 0.009037530049681664 0.13600000739097595 125 85 70
0.08858560025691986 0.009037530049681664 0.13600000739097595 126 86 71
0.08890539407730103 0.009037530049681664 0.13600000739097595 127 85 73
0.08922518044710159 0.009037530049681664 0.13600000739097595 126 84 72
0.08954496681690216 0.009037530049681664 0.13600000739097595 127 84 75
0.08986476063728333 0.009037530049681664 0.13600000739097595 125 82 73
0.09018454700708389 0.009037530049681664 0.13600000739097595 119 76 69
0.0911698117852211 0.009103982709348202 0.13699999451637268 118 75 68
0.0914919525384903 0.009103982709348202 0.13699999451637268 118 70 62
0.09181409329175949 0.009103982709348202 0.13699999451637268 114 66 58
0.09213623404502869 0.009103982709348202 0.13699999451637268 96 48 42
0.09313325583934784 0.00917043536901474 0.1379999965429306 95 47 41
0.09345774352550507 0.00917043536901474 0.1379999965429306 101 52 51
0.09378223866224289 0.00917043536901474 0.1379999965429306 108 59 58
0.09410673379898071 0.00917043536901474 0.1379999965429306 104 55 54
0.09511550515890121 0.009236887097358704 0.13899999856948853 104 55 54
0.09544235467910767 0.009236887097358704 0.13899999856948853 108 58 55
0.09576919674873352 0.009236887097358704 0.13899999856948853 115 65 62
0.09609603881835938 0.009236887097358704 0.13899999856948853 108 53 48
0.09642288088798523 0.009236887097358704 0.13899999856948853 99 44 39
0.09674973040819168 0.009236887097358704 0.13899999856948853 99 38 32
0.09707657247781754 0.009236887097358704 0.13899999856948853 98 37 31
0.09740341454744339 0.009236887097358704 0.13899999856948853 99 34 32
0.09773025661706924 0.009236887097358704 0.13899999856948853 97 32 30
0.0980570986866951 0.009236887097358704 0.13899999856948853 111 44 43
0.06360470503568649 0.010114162229001522 0.1469999998807907 225 149 148
0.0635153204202652 0.01004535797983408 0.1459999978542328 227 151 150
0.06385862827301025 0.01004535797983408 0.1459999978542328 226 159 160
0.06420192867517471 0.01004535797983408 0.1459999978542328 214 147 148
0.0641031414270401 0.009976554661989212 0.14499999582767487 208 148 148
0.06444409489631653 0.009976554661989212 0.14499999582767487 209 149 149
0.06478504836559296 0.009976554661989212 0.14499999582767487 192 138 139
0.06467685103416443 0.00990775041282177 0.14399999380111694 192 138 139
0.06501545757055283 0.00990775041282177 0.14399999380111694 183 129 132
0.06490021198987961 0.009838946163654327 0.14300000667572021 173 119 122
0.06523645669221878 0.009838946163654327 0.14300000667572021 166 113 111
0.06557270884513855 0.009838946163654327 0.14300000667572021 161 108 106
0.06590895354747772 0.009838946163654327 0.14300000667572021 157 100 93
0.06578195095062256 0.00977014284580946 0.1420000046491623 155 98 91
0.0661158487200737 0.00977014284580946 0.1420000046491623 164 100 93
0.06644974648952484 0.00977014284580946 0.1420000046491623 151 87 80
0.06678364425897598 0.00977014284580946 0.1420000046491623 145 84 76
0.06711754202842712 0.00977014284580946 0.1420000046491623 138 77 69
0.06745143979787827 0.00977014284580946 0.1420000046491623 136 84 75
0.0677853375673294 0.00977014284580946 0.1420000046491623 220 168 159
0.06811923533678055 0.00977014284580946 0.1420000046491623 212 166 160
0.06845313310623169 0.00977014284580946 0.1420000046491623 214 168 162
0.06878703087568283 0.00977014284580946 0.1420000046491623 205 158 157
0.06912093609571457 0.00977014284580946 0.1420000046491623 205 158 157
0.06945483386516571 0.00977014284580946 0.1420000046491623 197 153 153
0.06929726153612137 0.009701338596642017 0.14100000262260437 193 149 149
0.06962880492210388 0.009701338596642017 0.14100000262260437 194 151 153
0.0699603483080864 0.009701338596642017 0.14100000262260437 185 142 144
0.0702918991446495 0.009701338596642017 0.14100000262260437 178 133 136
0.07012256979942322 0.00963253527879715 0.14000000059604645 168 123 126
0.0704517662525177 0.00963253527879715 0.14000000059604645 159 110 111
0.07078096270561218 0.00963253527879715 0.14000000059604645 151 102 103
0.07111015170812607 0.00963253527879715 0.14000000059604645 142 89 87
0.07092906534671783 0.009563731029629707 0.13899999856948853 147 94 92
0.07125591486692429 0.009563731029629707 0.13899999856948853 132 73 66
0.07158275693655014 0.009563731029629707 0.13899999856948853 103 44 37
0.07139226794242859 0.00949492771178484 0.1379999965429306 101 38 28
0.07171675562858582 0.00949492771178484 0.1379999965429306 134 71 61
0.07204125076532364 0.00949492771178484 0.1379999965429306 171 123 108
0.07236573845148087 0.00949492771178484 0.1379999965429306 182 134 119
0.07269023358821869 0.00949492771178484 0.1379999965429306 179 133 125
0.07301472872495651 0.00949492771178484 0.1379999965429306 176 130 122
0.07333921641111374 0.00949492771178484 0.1379999965429306 166 122 120
0.07366371154785156 0.00949492771178484 0.1379999965429306 150 106 104
0.07398820668458939 0.00949492771178484 0.1379999965429306 150 107 102
0.07377419620752335 0.009426123462617397 0.13699999451637268 148 105 100
0.07409633696079254 0.009426123462617397 0.13699999451637268 141 98 93
0.07441847771406174 0.009426123462617397 0.13699999451637268 141 98 93
0.07474061846733093 0.009426123462617397 0.13699999451637268 135 94 88
0.07506275922060013 0.009426123462617397 0.13699999451637268 133 92 86
0.07538489997386932 0.009426123462617397 0.13699999451637268 131 84 83
0.07570704072713852 0.009426123462617397 0.13699999451637268 121 74 73
0.07602918893098831 0.009426123462617397 0.13699999451637268 115 62 60
0.07579401880502701 0.00935732014477253 0.13600000739097595 112 59 57
0.07611380517482758 0.00935732014477253 0.13600000739097595 100 43 34
0.07643359899520874 0.00935732014477253 0.13600000739097595 115 58 49
0.07675338536500931 0.00935732014477253 0.13600000739097595 133 87 71
0.07707317918539047 0.00935732014477253 0.13600000739097595 133 87 71
0.07739296555519104 0.00935732014477253 0.13600000739097595 143 101 89
0.07771275192499161 0.00935732014477253 0.13600000739097595 138 96 84
0.07803254574537277 0.00935732014477253 0.13600000739097595 135 92 85
0.07835233211517334 0.00935732014477253 0.13600000739097595 132 89 82
0.0786721259355545 0.00935732014477253 0.13600000739097595 127 82 71
0.07899191230535507 0.00935732014477253 0.13600000739097595 124 79 68
0.07931170612573624 0.00935732014477253 0.13600000739097595 122 77 66
0.0796314924955368 0.00935732014477253 0.13600000739097595 120 75 64
0.07995127886533737 0.00935732014477253 0.13600000739097595 119 74 61
0.07968084514141083 0.009288515895605087 0.13500000536441803 121 76 63
0.07999828457832336 0.009288515895605087 0.13500000536441803 117 72 59
0.0803157165646553 0.009288515895605087 0.13500000536441803 113 68 55
0.08063315600156784 0.009288515895605087 0.13500000536441803 113 64 54
0.08095059543848038 0.009288515895605087 0.13500000536441803 107 58 48
0.08126803487539291 0.009288515895605087 0.13500000536441803 104 52 43
0.08158547431230545 0.009288515895605087 0.13500000536441803 107 55 46
0.08190291374921799 0.009288515895605087 0.13500000536441803 115 62 56
0.08222034573554993 0.009288515895605087 0.13500000536441803 124 71 65
0.08253778517246246 0.009288515895605087 0.13500000536441803 124 74 71
0.082855224609375 0.009288515895605087 0.13500000536441803 127 77 74
0.08317266404628754 0.009288515895605087 0.13500000536441803 126 77 76
0.08349010348320007 0.009288515895605087 0.13500000536441803 123 74 73
0.08380754292011261 0.009288515895605087 0.13500000536441803 120 74 70
0.08474812656641006 0.00935732014477253 0.13600000739097595 116 70 66
0.08506791293621063 0.00935732014477253 0.13600000739097595 112 69 60
0.0853877067565918 0.00935732014477253 0.13600000739097595 108 65 56
0.08570749312639236 0.00935732014477253 0.13600000739097595 109 63 55
0.08602728694677353 0.00935732014477253 0.13600000739097595 106 60 52
0.0863470733165741 0.00935732014477253 0.13600000739097595 101 53 45
0.08666686713695526 0.00935732014477253 0.13600000739097595 97 49 41
0.08698665350675583 0.00935732014477253 0.13600000739097595 100 56 40
0.0873064398765564 0.00935732014477253 0.13600000739097595 117 73 57
0.08762623369693756 0.00935732014477253 0.13600000739097595 119 78 59
0.08794602006673813 0.00935732014477253 0.13600000739097595 124 83 64
0.0882658138871193 0.00935732014477253 0.13600000739097595 124 80 64
0.08858560025691986 0.00935732014477253 0.13600000739097595 121 77 61
0.08890539407730103 0.00935732014477253 0.13600000739097595 124 75 63
0.08922518044710159 0.00935732014477253 0.13600000739097595 123 74 62
0.08954496681690216 0.00935732014477253 0.13600000739097595 124 74 67
0.08986476063728333 0.00935732014477253 0.13600000739097595 124 74 67
0.09018454700708389 0.00935732014477253 0.13600000739097595 122 69 65
0.0911698117852211 0.009426123462617397 0.13699999451637268 121 68 64
0.0914919525384903 0.009426123462617397 0.13699999451637268 122 64 60
0.09181409329175949 0.009426123462617397 0.13699999451637268 118 60 56
0.09213623404502869 0.009426123462617397 0.13699999451637268 108 50 46
0.09313325583934784 0.00949492771178484 0.1379999965429306 115 57 53
0.09345774352550507 0.00949492771178484 0.1379999965429306 116 58 56
0.09378223866224289 0.00949492771178484 0.1379999965429306 114 56 54
0.09410673379898071 0.00949492771178484 0.1379999965429306 115 57 55
0.09443122148513794 0.00949492771178484 0.1379999965429306 120 62 60
0.09544235467910767 0.009563731029629707 0.13899999856948853 122 62 58
0.09576919674873352 0.009563731029629707 0.13899999856948853 126 66 62
0.09609603881835938 0.009563731029629707 0.13899999856948853 135 70 68
0.09642288088798523 0.009563731029629707 0.13899999856948853 136 71 69
0.09674973040819168 0.009563731029629707 0.13899999856948853 140 75 73
0.09707657247781754 0.009563731029629707 0.13899999856948853 142 77 75
0.09740341454744339 0.009563731029629707 0.13899999856948853 142 77 75
0.09773025661706924 0.009563731029629707 0.13899999856948853 134 69 67
0.0980570986866951 0.009563731029629707 0.13899999856948853 141 74 73
0.06317202001810074 0.010388661175966263 0.1459999978542328 212 135 137
0.0635153204202652 0.010388661175966263 0.1459999978542328 213 136 138
0.06385862827301025 0.010388661175966263 0.1459999978542328 208 143 145
0.06376218795776367 0.010317506268620491 0.14499999582767487 210 145 147
0.0641031414270401 0.010317506268620491 0.14499999582767487 203 143 143
0.06444409489631653 0.010317506268620491 0.14499999582767487 207 147 147
0.06478504836559296 0.010317506268620491 0.14499999582767487 189 134 133
0.06467685103416443 0.01024635136127472 0.14399999380111694 181 126 125
0.06501545757055283 0.01024635136127472 0.14399999380111694 176 121 120
0.06490021198987961 0.010175195522606373 0.14300000667572021 168 113 112
0.06523645669221878 0.010175195522606373 0.14300000667572021 155 100 95
0.06557270884513855 0.010175195522606373 0.14300000667572021 158 103 98
0.06544805318117142 0.010104040615260601 0.1420000046491623 156 100 88
0.06578195095062256 0.010104040615260601 0.1420000046491623 152 96 84
0.0661158487200737 0.010104040615260601 0.1420000046491623 155 92 82
0.06644974648952484 0.010104040615260601 0.1420000046491623 148 85 75
0.06678364425897598 0.010104040615260601 0.1420000046491623 147 82 73
0.06711754202842712 0.010104040615260601 0.1420000046491623 145 80 71
0.06745143979787827 0.010104040615260601 0.1420000046491623 143 84 75
0.0677853375673294 0.010104040615260601 0.1420000046491623 210 151 142
0.06811923533678055 0.010104040615260601 0.1420000046491623 214 161 155
0.06845313310623169 0.010104040615260601 0.1420000046491623 209 156 150
0.06878703087568283 0.010104040615260601 0.1420000046491623 195 145 140
0.06912093609571457 0.010104040615260601 0.1420000046491623 191 141 136
0.06896571069955826 0.01003288570791483 0.14100000262260437 193 146 145
0.06929726153612137 0.01003288570791483 0.14100000262260437 190 143 142
0.06962880492210388 0.01003288570791483 0.14100000262260437 184 142 141
0.0699603483080864 0.01003288570791483 0.14100000262260437 180 138 137
0.0702918991446495 0.01003288570791483 0.14100000262260437 179 131 135
0.07012256979942322 0.009961729869246483 0.14000000059604645 168 120 124
0.0704517662525177 0.009961729869246483 0.14000000059604645 171 117 120
0.07078096270561218 0.009961729869246483 0.14000000059604645 142 88 91
0.07111015170812607 0.009961729869246483 0.14000000059604645 141 83 83
0.07092906534671783 0.009890574961900711 0.13899999856948853 138 80 80
0.07125591486692429 0.009890574961900711 0.13899999856948853 133 67 63
0.07158275693655014 0.009890574961900711 0.13899999856948853 111 45 41
0.071909599006176 0.009890574961900711 0.13899999856948853 107 39 31
0.07171675562858582 0.00981942005455494 0.1379999965429306 120 52 44
0.07204125076532364 0.00981942005455494 0.1379999965429306 176 119 110
0.07236573845148087 0.00981942005455494 0.1379999965429306 186 129 120
0.07269023358821869 0.00981942005455494 0.1379999965429306 184 136 128
0.07301472872495651 0.00981942005455494 0.1379999965429306 177 129 121
0.07333921641111374 0.00981942005455494 0.1379999965429306 164 114 111
0.07366371154785156 0.00981942005455494 0.1379999965429306 158 108 105
0.07398820668458939 0.00981942005455494 0.1379999965429306 157 109 105
0.07377419620752335 0.009748264215886593 0.13699999451637268 151 103 99
0.07409633696079254 0.009748264215886593 0.13699999451637268 141 91 84
0.07441847771406174 0.009748264215886593 0.13699999451637268 131 81 74
0.07474061846733093 0.009748264215886593 0.13699999451637268 131 81 74
0.07506275922060013 0.009748264215886593 0.13699999451637268 130 80 73
0.07538489997386932 0.009748264215886593 0.13699999451637268 129 76 74
0.07570704072713852 0.009748264215886593 0.13699999451637268 126 73 71
0.07602918893098831 0.009748264215886593 0.13699999451637268 118 60 60
0.07579401880502701 0.009677109308540821 0.13600000739097595 105 47 47
0.07611380517482758 0.009677109308540821 0.13600000739097595 107 48 39
0.07643359899520874 0.009677109308540821 0.13600000739097595 112 53 44
0.07675338536500931 0.009677109308540821 0.13600000739097595 136 82 72
0.07707317918539047 0.009677109308540821 0.13600000739097595 137 83 73
0.07739296555519104 0.009677109308540821 0.13600000739097595 137 88 76
0.07771275192499161 0.009677109308540821 0.13600000739097595 138 89 77
0.07803254574537277 0.009677109308540821 0.13600000739097595 139 90 80
0.07835233211517334 0.009677109308540821 0.13600000739097595 134 85 75
0.0786721259355545 0.009677109308540821 0.13600000739097595 133 81 72
0.07899191230535507 0.009677109308540821 0.13600000739097595 131 79 70
0.07931170612573624 0.009677109308540821 0.13600000739097595 127 75 66
0.07904596626758575 0.00960595440119505 0.13500000536441803 125 73 64
0.07936340570449829 0.00960595440119505 0.13500000536441803 122 70 59
0.07968084514141083 0.00960595440119505 0.13500000536441803 126 74 63
0.07999828457832336 0.00960595440119505 0.13500000536441803 119 70 58
0.0803157165646553 0.00960595440119505 0.13500000536441803 115 66 54
0.08063315600156784 0.00960595440119505 0.13500000536441803 110 56 46
0.08095059543848038 0.00960595440119505 0.13500000536441803 106 52 42
0.08126803487539291 0.00960595440119505 0.13500000536441803 108 51 44
0.08158547431230545 0.00960595440119505 0.13500000536441803 113 56 49
0.08190291374921799 0.00960595440119505 0.13500000536441803 122 64 60
0.08222034573554993 0.00960595440119505 0.13500000536441803 125 67 63
0.08253778517246246 0.00960595440119505 0.13500000536441803 125 67 67
0.082855224609375 0.00960595440119505 0.13500000536441803 127 69 69
0.08317266404628754 0.00960595440119505 0.13500000536441803 128 70 70
0.08349010348320007 0.00960595440119505 0.13500000536441803 125 67 67
0.08380754292011261 0.00960595440119505 0.13500000536441803 126 71 68
0.08412497490644455 0.00960595440119505 0.13500000536441803 125 70 67
0.08444241434335709 0.00960595440119505 0.13500000536441803 121 69 60
0.08475985378026962 0.00960595440119505 0.13500000536441803 119 67 58
0.08570749312639236 0.009677109308540821 0.13600000739097595 119 65 57
0.08602728694677353 0.009677109308540821 0.13600000739097595 120 66 58
0.0863470733165741 0.009677109308540821 0.13600000739097595 123 68 63
0.08666686713695526 0.009677109308540821 0.13600000739097595 128 73 68
0.08698665350675583 0.009677109308540821 0.13600000739097595 118 66 57
0.0873064398765564 0.009677109308540821 0.13600000739097595 122 70 61
0.08762623369693756 0.009677109308540821 0.13600000739097595 126 75 61
0.08794602006673813 0.009677109308540821 0.13600000739097595 122 71 57
0.0882658138871193 0.009677109308540821 0.13600000739097595 122 69 54
0.08858560025691986 0.009677109308540821 0.13600000739097595 123 70 55
0.08890539407730103 0.009677109308540821 0.13600000739097595 124 68 56
0.08922518044710159 0.009677109308540821 0.13600000739097595 125 69 57
0.08954496681690216 0.009677109308540821 0.13600000739097595 120 63 54
0.08986476063728333 0.009677109308540821 0.13600000739097595 120 63 54
0.09018454700708389 0.009677109308540821 0.13600000739097595 123 61 58
0.09050434082746506 0.009677109308540821 0.13600000739097595 123 61 58
0.0914919525384903 0.009748264215886593 0.13699999451637268 125 60 58
0.09181409329175949 0.009748264215886593 0.13699999451637268 125 60 58
0.09213623404502869 0.009748264215886593 0.13699999451637268 130 65 63
0.09245837479829788 0.009748264215886593 0.13699999451637268 134 69 67
0.09345774352550507 0.00981942005455494 0.1379999965429306 139 74 72
0.09378223866224289 0.00981942005455494 0.1379999965429306 143 78 76
0.09410673379898071 0.00981942005455494 0.1379999965429306 143 78 76
0.09443122148513794 0.00981942005455494 0.1379999965429306 137 72 70
0.09475571662187576 0.00981942005455494 0.1379999965429306 135 68 67
0.09576919674873352 0.009890574961900711 0.13899999856948853 136 69 68
0.09609603881835938 0.009890574961900711 0.13899999856948853 142 72 72
0.09642288088798523 0.009890574961900711 0.13899999856948853 143 73 73
0.09674973040819168 0.009890574961900711 0.13899999856948853 143 74 71
0.09707657247781754 0.009890574961900711 0.13899999856948853 142 73 70
0.09740341454744339 0.009890574961900711 0.13899999856948853 155 89 85
0.09773025661706924 0.009890574961900711 0.13899999856948853 152 86 82
0.0980570986866951 0.009890574961900711 0.13899999856948853 147 80 79
0.06317202001810074 0.01073196530342102 0.1459999978542328 208 129 134
0.0635153204202652 0.01073196530342102 0.1459999978542328 210 131 136
0.06385862827301025 0.01073196530342102 0.1459999978542328 211 137 145
