0.08859268575906754 0.005560431629419327 0.13699999451637268 223 173 166
0.08891482651233673 0.005560431629419327 0.13699999451637268 211 169 166
0.08923696726560593 0.005560431629419327 0.13699999451637268 208 166 163
0.056127529591321945 0.006698403973132372 0.15600000321865082 255 77 71
0.056494347751140594 0.006698403973132372 0.15600000321865082 255 79 77
0.056861162185668945 0.006698403973132372 0.15600000321865082 255 80 78
0.057227980345487595 0.006698403973132372 0.15600000321865082 255 79 79
0.057594798505306244 0.006698403973132372 0.15600000321865082 252 73 73
0.05796161666512489 0.006698403973132372 0.15600000321865082 252 73 87
0.05832843482494354 0.006698403973132372 0.15600000321865082 254 75 89
0.05869524925947189 0.006698403973132372 0.15600000321865082 255 83 101
0.058304861187934875 0.006612527184188366 0.15399999916553497 255 86 104
0.058666978031396866 0.006612527184188366 0.15399999916553497 252 92 111
0.05902909114956856 0.006612527184188366 0.15399999916553497 255 103 122
0.05900555104017258 0.006569588556885719 0.15299999713897705 252 107 123
0.05936531350016594 0.006569588556885719 0.15299999713897705 250 105 121
0.0597250759601593 0.006569588556885719 0.15299999713897705 249 106 121
0.060084838420152664 0.006569588556885719 0.15299999713897705 254 111 126
0.06004954129457474 0.006526649929583073 0.15199999511241913 252 115 126
0.06040695309638977 0.006526649929583073 0.15199999511241913 252 115 126
0.0607643648982048 0.006526649929583073 0.15199999511241913 255 138 146
0.061121776700019836 0.006526649929583073 0.15199999511241913 255 139 147
0.06147918850183487 0.006526649929583073 0.15199999511241913 254 147 150
0.0618366003036499 0.006526649929583073 0.15199999511241913 255 149 152
0.062194012105464935 0.006526649929583073 0.15199999511241913 255 165 169
0.06255142390727997 0.006526649929583073 0.15199999511241913 240 144 148
0.062908835709095 0.006526649929583073 0.15199999511241913 205 120 120
0.06320508569478989 0.006483711767941713 0.1509999930858612 211 127 127
0.06313921511173248 0.006440773140639067 0.15000000596046448 217 133 133
0.06306864321231842 0.00639783451333642 0.14900000393390656 220 136 138
0.06341899931430817 0.00639783451333642 0.14900000393390656 209 125 127
0.06368938088417053 0.006354896351695061 0.14800000190734863 255 222 225
0.06360470503568649 0.006311957724392414 0.1469999998807907 255 252 249
0.06395035982131958 0.006311957724392414 0.1469999998807907 255 252 249
0.06429601460695267 0.006311957724392414 0.1469999998807907 254 255 249
0.06464166939258575 0.006311957724392414 0.1469999998807907 254 255 249
0.06454523652791977 0.0062690190970897675 0.1459999978542328 254 255 249
0.06488853693008423 0.0062690190970897675 0.1459999978542328 254 255 249
0.06523183733224869 0.0062690190970897675 0.1459999978542328 254 255 249
0.06557514518499374 0.0062690190970897675 0.1459999978542328 254 255 249
0.0659184455871582 0.0062690190970897675 0.1459999978542328 254 255 249
0.06626175343990326 0.0062690190970897675 0.1459999978542328 254 255 249
0.06614885479211807 0.006226080935448408 0.14499999582767487 254 255 249
0.0664898082613945 0.006226080935448408 0.14499999582767487 254 255 249
0.06683076173067093 0.006226080935448408 0.14499999582767487 255 255 249
0.06670846045017242 0.0061831423081457615 0.14399999380111694 254 254 248
0.06704705953598022 0.0061831423081457615 0.14399999380111694 255 244 242
0.06691770255565643 0.006140203680843115 0.14300000667572021 255 228 226
0.0672539547085762 0.006140203680843115 0.14300000667572021 255 209 203
0.06711754202842712 0.006097265053540468 0.1420000046491623 239 191 185
0.06745143979787827 0.006097265053540468 0.1420000046491623 255 241 232
0.0677853375673294 0.006097265053540468 0.1420000046491623 255 246 237
0.06811923533678055 0.006097265053540468 0.1420000046491623 255 255 243
0.06845313310623169 0.006097265053540468 0.1420000046491623 255 255 243
0.06878703087568283 0.006097265053540468 0.1420000046491623 254 255 249
0.06912093609571457 0.006097265053540468 0.1420000046491623 254 255 249
0.06945483386516571 0.006097265053540468 0.1420000046491623 254 255 249
0.06978873163461685 0.006097265053540468 0.1420000046491623 254 255 249
0.070122629404068 0.006097265053540468 0.1420000046491623 254 255 249
0.07045652717351913 0.006097265053540468 0.1420000046491623 254 255 249
0.07079042494297028 0.006097265053540468 0.1420000046491623 254 255 249
0.07062344253063202 0.006054326891899109 0.14100000262260437 254 255 249
0.0704517662525177 0.006011388264596462 0.14000000059604645 254 255 249
0.07027538120746613 0.005968449637293816 0.13899999856948853 254 255 249
0.07009429484605789 0.005925511475652456 0.1379999965429306 255 254 249
0.07041878998279572 0.005925511475652456 0.1379999965429306 255 254 249
0.07074327766895294 0.005925511475652456 0.1379999965429306 248 212 214
0.07106777280569077 0.005925511475652456 0.1379999965429306 233 197 199
0.07171675562858582 0.005925511475652456 0.1379999965429306 238 199 195
0.07216349244117737 0.00588257284834981 0.13699999451637268 255 252 245
0.07248563319444656 0.00588257284834981 0.13699999451637268 255 250 243
0.07280777394771576 0.00588257284834981 0.13699999451637268 255 237 237
0.07312991470098495 0.00588257284834981 0.13699999451637268 247 216 216
0.07345205545425415 0.00588257284834981 0.13699999451637268 245 204 198
0.07377419620752335 0.00588257284834981 0.13699999451637268 246 205 199
0.07355549186468124 0.005839634221047163 0.13600000739097595 253 205 199
0.07387527823448181 0.005839634221047163 0.13600000739097595 249 201 195
0.07579401880502701 0.005839634221047163 0.13600000739097595 215 168 169
0.07739296555519104 0.005839634221047163 0.13600000739097595 255 221 222
0.07714133709669113 0.005796696059405804 0.13500000536441803 250 203 204
0.07745877653360367 0.005796696059405804 0.13500000536441803 243 201 198
0.0777762159705162 0.005796696059405804 0.13500000536441803 234 192 189
0.07809365540742874 0.005796696059405804 0.13500000536441803 230 190 175
0.07841108739376068 0.005796696059405804 0.13500000536441803 237 197 182
0.07872852683067322 0.005796696059405804 0.13500000536441803 222 186 167
0.07904596626758575 0.005796696059405804 0.13500000536441803 215 179 160
0.07936340570449829 0.005796696059405804 0.13500000536441803 202 161 153
0.07968084514141083 0.005796696059405804 0.13500000536441803 201 160 152
0.08282938599586487 0.005839634221047163 0.13600000739097595 211 162 150
0.08314917981624603 0.005839634221047163 0.13600000739097595 201 153 138
0.08794840425252914 0.00588257284834981 0.13699999451637268 207 152 149
0.08827054500579834 0.00588257284834981 0.13699999451637268 210 160 153
0.08859268575906754 0.00588257284834981 0.13699999451637268 216 166 159
0.08891482651233673 0.00588257284834981 0.13699999451637268 212 166 162
0.056127529591321945 0.007065221667289734 0.15600000321865082 255 80 71
0.056494347751140594 0.007065221667289734 0.15600000321865082 254 78 77
0.056861162185668945 0.007065221667289734 0.15600000321865082 254 78 77
0.057227980345487595 0.007065221667289734 0.15600000321865082 252 75 79
0.057594798505306244 0.007065221667289734 0.15600000321865082 254 77 81
0.05796161666512489 0.007065221667289734 0.15600000321865082 255 82 92
0.058304861187934875 0.00697464169934392 0.15399999916553497 255 87 102
0.058286022394895554 0.006929351948201656 0.15299999713897705 255 101 118
0.058645784854888916 0.006929351948201656 0.15299999713897705 255 109 126
0.05900555104017258 0.006929351948201656 0.15299999713897705 255 113 129
0.05897730588912964 0.006884062197059393 0.15199999511241913 255 112 128
0.05933471769094467 0.006884062197059393 0.15199999511241913 254 111 128
0.059692129492759705 0.006884062197059393 0.15199999511241913 254 111 128
0.06004954129457474 0.006884062197059393 0.15199999511241913 252 115 128
0.06040695309638977 0.006884062197059393 0.15199999511241913 255 118 131
0.0607643648982048 0.006884062197059393 0.15199999511241913 255 139 147
0.061121776700019836 0.006884062197059393 0.15199999511241913 255 139 147
0.06147918850183487 0.006884062197059393 0.15199999511241913 253 149 151
0.0618366003036499 0.006884062197059393 0.15199999511241913 255 152 154
0.062194012105464935 0.006884062197059393 0.15199999511241913 254 161 164
0.06255142390727997 0.006884062197059393 0.15199999511241913 255 162 165
0.062908835709095 0.006884062197059393 0.15199999511241913 251 163 164
0.06285002082586288 0.006838771980255842 0.1509999930858612 238 150 151
0.06320508569478989 0.006838771980255842 0.1509999930858612 211 126 128
0.06313921511173248 0.006793482229113579 0.15000000596046448 219 134 136
0.06306864321231842 0.006748192477971315 0.14900000393390656 221 137 139
0.06341899931430817 0.006748192477971315 0.14900000393390656 208 124 126
0.06334137916564941 0.006702902726829052 0.14800000190734863 229 178 178
0.06368938088417053 0.006702902726829052 0.14800000190734863 255 239 239
0.06360470503568649 0.006657612510025501 0.1469999998807907 255 255 247
0.06395035982131958 0.006657612510025501 0.1469999998807907 255 255 247
0.06429601460695267 0.006657612510025501 0.1469999998807907 254 255 249
0.06464166939258575 0.006657612510025501 0.1469999998807907 254 255 249
0.06454523652791977 0.006612322758883238 0.1459999978542328 254 255 249
0.06488853693008423 0.006612322758883238 0.1459999978542328 254 255 249
0.06523183733224869 0.006612322758883238 0.1459999978542328 254 255 251
0.06557514518499374 0.006612322758883238 0.1459999978542328 254 255 251
0.0659184455871582 0.006612322758883238 0.1459999978542328 254 255 251
0.06626175343990326 0.006612322758883238 0.1459999978542328 254 255 251
0.06614885479211807 0.006567033007740974 0.14499999582767487 254 255 251
0.0664898082613945 0.006567033007740974 0.14499999582767487 254 255 251
0.06636986136436462 0.006521742790937424 0.14399999380111694 255 255 249
0.06670846045017242 0.006521742790937424 0.14399999380111694 255 255 249
0.06704705953598022 0.006521742790937424 0.14399999380111694 255 245 243
0.06691770255565643 0.00647645303979516 0.14300000667572021 242 216 214
0.0672539547085762 0.00647645303979516 0.14300000667572021 255 209 205
0.06711754202842712 0.006431163288652897 0.1420000046491623 241 195 191
0.06745143979787827 0.006431163288652897 0.1420000046491623 255 245 234
0.0677853375673294 0.006431163288652897 0.1420000046491623 255 248 237
0.06811923533678055 0.006431163288652897 0.1420000046491623 255 255 243
0.06845313310623169 0.006431163288652897 0.1420000046491623 255 255 243
0.06878703087568283 0.006431163288652897 0.1420000046491623 254 255 249
0.06912093609571457 0.006431163288652897 0.1420000046491623 254 255 249
0.06945483386516571 0.006431163288652897 0.1420000046491623 254 255 249
0.06978873163461685 0.006431163288652897 0.1420000046491623 254 255 249
0.070122629404068 0.006431163288652897 0.1420000046491623 254 255 249
0.07045652717351913 0.006431163288652897 0.1420000046491623 254 255 249
0.07079042494297028 0.006431163288652897 0.1420000046491623 254 255 249
0.07009429484605789 0.006250003818422556 0.1379999965429306 255 251 248
0.07041878998279572 0.006250003818422556 0.1379999965429306 255 247 244
0.07074327766895294 0.006250003818422556 0.1379999965429306 238 200 202
0.07106777280569077 0.006250003818422556 0.1379999965429306 235 197 199
0.07171675562858582 0.006250003818422556 0.1379999965429306 246 208 201
0.07204125076532364 0.006250003818422556 0.1379999965429306 255 252 241
0.07236573845148087 0.006250003818422556 0.1379999965429306 255 252 241
0.07216349244117737 0.006204713601619005 0.13699999451637268 255 250 245
0.07248563319444656 0.006204713601619005 0.13699999451637268 245 236 231
0.07280777394771576 0.006204713601619005 0.13699999451637268 255 221 228
0.07312991470098495 0.006204713601619005 0.13699999451637268 240 203 210
0.07345205545425415 0.006204713601619005 0.13699999451637268 251 200 202
0.07377419620752335 0.006204713601619005 0.13699999451637268 246 195 197
0.07355549186468124 0.006159423850476742 0.13600000739097595 247 192 191
0.07387527823448181 0.006159423850476742 0.13600000739097595 248 193 192
0.07419507205486298 0.006159423850476742 0.13600000739097595 245 190 187
0.07451485842466354 0.006159423850476742 0.13600000739097595 242 187 184
0.07483465224504471 0.006159423850476742 0.13600000739097595 232 186 182
0.07515443861484528 0.006159423850476742 0.13600000739097595 235 189 185
0.07547422498464584 0.006159423850476742 0.13600000739097595 218 174 174
0.07675338536500931 0.006159423850476742 0.13600000739097595 237 183 184
0.07707317918539047 0.006159423850476742 0.13600000739097595 255 213 214
0.07739296555519104 0.006159423850476742 0.13600000739097595 255 223 227
0.07771275192499161 0.006159423850476742 0.13600000739097595 232 184 188
0.07745877653360367 0.006114134099334478 0.13500000536441803 230 187 189
0.0777762159705162 0.006114134099334478 0.13500000536441803 224 181 183
0.07809365540742874 0.006114134099334478 0.13500000536441803 209 169 156
0.07841108739376068 0.006114134099334478 0.13500000536441803 212 172 159
0.07872852683067322 0.006114134099334478 0.13500000536441803 204 165 147
0.07904596626758575 0.006114134099334478 0.13500000536441803 211 172 154
0.08794840425252914 0.006204713601619005 0.13699999451637268 202 149 143
0.08827054500579834 0.006204713601619005 0.13699999451637268 211 162 152
0.08859268575906754 0.006204713601619005 0.13699999451637268 217 168 158
0.08891482651233673 0.006204713601619005 0.13699999451637268 213 165 161
0.08923696726560593 0.006204713601619005 0.13699999451637268 209 161 157
0.08955910801887512 0.006204713601619005 0.13699999451637268 203 158 161
0.056127529591321945 0.0074320388957858086 0.15600000321865082 255 81 69
0.056494347751140594 0.0074320388957858086 0.15600000321865082 255 80 82
0.056861162185668945 0.0074320388957858086 0.15600000321865082 255 78 80
0.057227980345487595 0.0074320388957858086 0.15600000321865082 255 83 89
0.057594798505306244 0.0074320388957858086 0.15600000321865082 255 84 90
0.05796161666512489 0.0074320388957858086 0.15600000321865082 255 90 103
0.058304861187934875 0.007336756680160761 0.15399999916553497 251 92 103
0.058286022394895554 0.007289115339517593 0.15299999713897705 255 112 130
0.058262478560209274 0.007241473998874426 0.15199999511241913 255 115 133
0.05861989036202431 0.007241473998874426 0.15199999511241913 255 114 130
0.05897730588912964 0.007241473998874426 0.15199999511241913 254 109 125
0.05933471769094467 0.007241473998874426 0.15199999511241913 254 111 126
0.059692129492759705 0.007241473998874426 0.15199999511241913 253 110 125
0.06004954129457474 0.007241473998874426 0.15199999511241913 253 116 127
0.06040695309638977 0.007241473998874426 0.15199999511241913 255 120 131
0.0607643648982048 0.007241473998874426 0.15199999511241913 255 132 138
0.061121776700019836 0.007241473998874426 0.15199999511241913 255 138 144
0.06147918850183487 0.007241473998874426 0.15199999511241913 254 150 152
0.0618366003036499 0.007241473998874426 0.15199999511241913 255 159 161
0.062194012105464935 0.007241473998874426 0.15199999511241913 255 167 165
0.06255142390727997 0.007241473998874426 0.15199999511241913 255 167 165
0.06249495968222618 0.007193832658231258 0.1509999930858612 254 167 165
0.06285002082586288 0.007193832658231258 0.1509999930858612 250 163 161
0.06278650462627411 0.007146191317588091 0.15000000596046448 244 156 157
0.06313921511173248 0.007146191317588091 0.15000000596046448 245 157 158
0.06306864321231842 0.007098549976944923 0.14900000393390656 232 147 147
0.06341899931430817 0.007098549976944923 0.14900000393390656 215 130 130
0.06334137916564941 0.007050908636301756 0.14800000190734863 255 210 209
0.0632590502500534 0.007003267761319876 0.1469999998807907 255 240 239
0.06360470503568649 0.007003267761319876 0.1469999998807907 255 255 245
0.06395035982131958 0.007003267761319876 0.1469999998807907 255 255 245
0.06429601460695267 0.007003267761319876 0.1469999998807907 254 255 249
0.06464166939258575 0.007003267761319876 0.1469999998807907 254 255 249
0.06454523652791977 0.006955626420676708 0.1459999978542328 254 255 249
0.06488853693008423 0.006955626420676708 0.1459999978542328 254 255 249
0.06523183733224869 0.006955626420676708 0.1459999978542328 254 255 249
0.06557514518499374 0.006955626420676708 0.1459999978542328 254 255 249
0.0659184455871582 0.006955626420676708 0.1459999978542328 254 255 249
0.06626175343990326 0.006955626420676708 0.1459999978542328 254 255 249
0.06614885479211807 0.006907985080033541 0.14499999582767487 254 255 249
0.0664898082613945 0.006907985080033541 0.14499999582767487 254 255 249
0.06636986136436462 0.006860343739390373 0.14399999380111694 255 255 249
0.06670846045017242 0.006860343739390373 0.14399999380111694 255 255 249
0.06658145785331726 0.006812702398747206 0.14300000667572021 255 229 228
0.06691770255565643 0.006812702398747206 0.14300000667572021 241 213 212
0.0672539547085762 0.006812702398747206 0.14300000667572021 248 205 198
0.06711754202842712 0.006765061058104038 0.1420000046491623 240 197 190
0.06745143979787827 0.006765061058104038 0.1420000046491623 255 247 232
0.0677853375673294 0.006765061058104038 0.1420000046491623 255 249 234
0.06811923533678055 0.006765061058104038 0.1420000046491623 254 255 243
0.06845313310623169 0.006765061058104038 0.1420000046491623 254 255 243
0.06878703087568283 0.006765061058104038 0.1420000046491623 254 255 249
0.06912093609571457 0.006765061058104038 0.1420000046491623 254 255 249
0.06945483386516571 0.006765061058104038 0.1420000046491623 254 255 249
0.06978873163461685 0.006765061058104038 0.1420000046491623 254 255 249
0.070122629404068 0.006765061058104038 0.1420000046491623 254 255 249
0.0699603483080864 0.006717419717460871 0.14100000262260437 254 255 249
0.0702918991446495 0.006717419717460871 0.14100000262260437 254 255 249
0.06994853913784027 0.006622137501835823 0.13899999856948853 254 255 249
0.07027538120746613 0.006622137501835823 0.13899999856948853 254 255 249
0.07009429484605789 0.0065744961611926556 0.1379999965429306 255 251 251
0.07041878998279572 0.0065744961611926556 0.1379999965429306 245 235 235
0.07074327766895294 0.0065744961611926556 0.1379999965429306 230 188 187
0.07106777280569077 0.0065744961611926556 0.1379999965429306 223 181 180
0.07139226794242859 0.0065744961611926556 0.1379999965429306 208 168 153
0.07171675562858582 0.0065744961611926556 0.1379999965429306 252 212 197
0.07204125076532364 0.0065744961611926556 0.1379999965429306 255 253 235
0.07236573845148087 0.0065744961611926556 0.1379999965429306 255 253 235
0.07269023358821869 0.0065744961611926556 0.1379999965429306 255 251 242
0.07248563319444656 0.006526854820549488 0.13699999451637268 235 224 215
0.07280777394771576 0.006526854820549488 0.13699999451637268 239 196 202
0.07312991470098495 0.006526854820549488 0.13699999451637268 240 197 203
0.07345205545425415 0.006526854820549488 0.13699999451637268 248 189 194
0.07377419620752335 0.006526854820549488 0.13699999451637268 244 185 190
0.07355549186468124 0.006479213479906321 0.13600000739097595 249 189 189
0.07387527823448181 0.006479213479906321 0.13600000739097595 246 186 186
0.07419507205486298 0.006479213479906321 0.13600000739097595 231 178 176
0.07451485842466354 0.006479213479906321 0.13600000739097595 224 171 169
0.07483465224504471 0.006479213479906321 0.13600000739097595 230 184 180
0.07515443861484528 0.006479213479906321 0.13600000739097595 234 188 184
0.07547422498464584 0.006479213479906321 0.13600000739097595 219 175 175
0.07675338536500931 0.006479213479906321 0.13600000739097595 217 158 161
0.07707317918539047 0.006479213479906321 0.13600000739097595 243 184 187
0.07739296555519104 0.006479213479906321 0.13600000739097595 244 193 195
0.07771275192499161 0.006479213479906321 0.13600000739097595 226 175 177
0.07803254574537277 0.006479213479906321 0.13600000739097595 213 170 172
0.0777762159705162 0.006431572139263153 0.13500000536441803 208 165 167
0.07809365540742874 0.006431572139263153 0.13500000536441803 203 162 152
0.07841108739376068 0.006431572139263153 0.13500000536441803 205 164 154
0.07872852683067322 0.006431572139263153 0.13500000536441803 206 166 151
0.08827054500579834 0.006526854820549488 0.13699999451637268 214 167 156
0.08859268575906754 0.006526854820549488 0.13699999451637268 207 160 149
0.08891482651233673 0.006526854820549488 0.13699999451637268 208 162 158
0.08923696726560593 0.006526854820549488 0.13699999451637268 205 159 155
0.056127529591321945 0.0077988565899431705 0.15600000321865082 255 82 74
0.056494347751140594 0.0077988565899431705 0.15600000321865082 255 84 83
0.056861162185668945 0.0077988565899431705 0.15600000321865082 255 83 82
0.057227980345487595 0.0077988565899431705 0.15600000321865082 255 84 89
0.057594798505306244 0.0077988565899431705 0.15600000321865082 255 84 89
0.05796161666512489 0.0077988565899431705 0.15600000321865082 255 88 103
0.057942748069763184 0.007698871195316315 0.15399999916553497 240 81 97
0.05792625993490219 0.007648878265172243 0.15299999713897705 254 95 111
0.05790506675839424 0.007598885800689459 0.15199999511241913 255 106 124
0.058262478560209274 0.007598885800689459 0.15199999511241913 255 113 131
0.05861989036202431 0.007598885800689459 0.15199999511241913 255 111 128
0.05897730588912964 0.007598885800689459 0.15199999511241913 255 109 126
0.05933471769094467 0.007598885800689459 0.15199999511241913 255 114 127
0.059692129492759705 0.007598885800689459 0.15199999511241913 254 111 124
0.06004954129457474 0.007598885800689459 0.15199999511241913 254 118 124
0.06040695309638977 0.007598885800689459 0.15199999511241913 254 118 124
0.0607643648982048 0.007598885800689459 0.15199999511241913 255 138 139
0.061121776700019836 0.007598885800689459 0.15199999511241913 255 144 145
0.06147918850183487 0.007598885800689459 0.15199999511241913 255 156 154
0.0618366003036499 0.007598885800689459 0.15199999511241913 255 163 161
0.062194012105464935 0.007598885800689459 0.15199999511241913 255 163 159
0.062139902263879776 0.007548893336206675 0.1509999930858612 255 165 161
0.06249495968222618 0.007548893336206675 0.1509999930858612 252 163 158
0.06285002082586288 0.007548893336206675 0.1509999930858612 251 162 157
0.06278650462627411 0.007498900406062603 0.15000000596046448 255 165 161
0.06313921511173248 0.007498900406062603 0.15000000596046448 247 155 151
0.06306864321231842 0.007448907941579819 0.14900000393390656 237 148 145
0.0629933699965477 0.007398915011435747 0.14800000190734863 230 141 138
0.06334137916564941 0.007398915011435747 0.14800000190734863 255 235 228
0.0632590502500534 0.007348922546952963 0.1469999998807907 255 242 235
0.06360470503568649 0.007348922546952963 0.1469999998807907 255 255 245
0.06395035982131958 0.007348922546952963 0.1469999998807907 255 255 245
0.06429601460695267 0.007348922546952963 0.1469999998807907 254 255 249
0.06464166939258575 0.007348922546952963 0.1469999998807907 254 255 249
0.06454523652791977 0.007298929616808891 0.1459999978542328 254 255 249
0.06488853693008423 0.007298929616808891 0.1459999978542328 254 255 249
0.06523183733224869 0.007298929616808891 0.1459999978542328 254 255 249
0.06557514518499374 0.007298929616808891 0.1459999978542328 254 255 249
0.0659184455871582 0.007298929616808891 0.1459999978542328 254 255 249
0.06626175343990326 0.007298929616808891 0.1459999978542328 254 255 249
0.06614885479211807 0.007248937152326107 0.14499999582767487 254 255 249
0.0664898082613945 0.007248937152326107 0.14499999582767487 254 255 249
0.06636986136436462 0.007198944687843323 0.14399999380111694 255 252 251
0.06670846045017242 0.007198944687843323 0.14399999380111694 255 249 248
0.06658145785331726 0.007148951757699251 0.14300000667572021 252 219 218
0.06691770255565643 0.007148951757699251 0.14300000667572021 251 218 217
0.0672539547085762 0.007148951757699251 0.14300000667572021 252 209 200
0.06711754202842712 0.007098959293216467 0.1420000046491623 235 192 183
0.06745143979787827 0.007098959293216467 0.1420000046491623 255 247 230
0.0677853375673294 0.007098959293216467 0.1420000046491623 255 249 232
0.06811923533678055 0.007098959293216467 0.1420000046491623 254 255 243
0.06845313310623169 0.007098959293216467 0.1420000046491623 254 255 243
0.06878703087568283 0.007098959293216467 0.1420000046491623 254 255 249
0.06912093609571457 0.007098959293216467 0.1420000046491623 254 255 249
0.06945483386516571 0.007098959293216467 0.1420000046491623 254 255 249
0.06978873163461685 0.007098959293216467 0.1420000046491623 254 255 249
0.070122629404068 0.007098959293216467 0.1420000046491623 254 255 249
0.0699603483080864 0.007048966363072395 0.14100000262260437 254 255 249
0.0702918991446495 0.007048966363072395 0.14100000262260437 254 255 249
0.07012256979942322 0.006998973898589611 0.14000000059604645 254 255 249
0.06994853913784027 0.0069489809684455395 0.13899999856948853 254 255 249
0.06976979970932007 0.006898988503962755 0.1379999965429306 254 255 249
0.07009429484605789 0.006898988503962755 0.1379999965429306 255 247 248
0.07041878998279572 0.006898988503962755 0.1379999965429306 237 217 218
0.07074327766895294 0.006898988503962755 0.1379999965429306 238 187 187
0.07106777280569077 0.006898988503962755 0.1379999965429306 229 178 178
0.07139226794242859 0.006898988503962755 0.1379999965429306 224 176 157
0.07171675562858582 0.006898988503962755 0.1379999965429306 255 212 193
0.07204125076532364 0.006898988503962755 0.1379999965429306 255 252 231
0.07236573845148087 0.006898988503962755 0.1379999965429306 255 251 230
0.07269023358821869 0.006898988503962755 0.1379999965429306 255 250 237
0.07248563319444656 0.006848995573818684 0.13699999451637268 237 224 211
0.07280777394771576 0.006848995573818684 0.13699999451637268 247 202 205
0.07312991470098495 0.006848995573818684 0.13699999451637268 241 196 199
0.07345205545425415 0.006848995573818684 0.13699999451637268 245 184 189
0.07377419620752335 0.006848995573818684 0.13699999451637268 243 182 187
0.07409633696079254 0.006848995573818684 0.13699999451637268 242 181 184
0.07387527823448181 0.006799003109335899 0.13600000739097595 238 177 180
0.07419507205486298 0.006799003109335899 0.13600000739097595 229 178 178
0.07451485842466354 0.006799003109335899 0.13600000739097595 217 166 166
0.07483465224504471 0.006799003109335899 0.13600000739097595 218 169 168
0.07515443861484528 0.006799003109335899 0.13600000739097595 214 165 164
0.07547422498464584 0.006799003109335899 0.13600000739097595 207 158 159
0.07675338536500931 0.006799003109335899 0.13600000739097595 212 151 154
0.07707317918539047 0.006799003109335899 0.13600000739097595 236 175 178
0.07739296555519104 0.006799003109335899 0.13600000739097595 228 169 174
0.07771275192499161 0.006799003109335899 0.13600000739097595 221 162 167
0.07803254574537277 0.006799003109335899 0.13600000739097595 211 162 161
0.07835233211517334 0.006799003109335899 0.13600000739097595 211 162 161
0.08827054500579834 0.006848995573818684 0.13699999451637268 213 166 155
0.08859268575906754 0.006848995573818684 0.13699999451637268 204 157 146
0.08891482651233673 0.006848995573818684 0.13699999451637268 206 159 158
0.08923696726560593 0.006848995573818684 0.13699999451637268 207 160 159
0.08955910801887512 0.006848995573818684 0.13699999451637268 205 157 165
0.056127529591321945 0.008165674284100533 0.15600000321865082 255 86 83
0.056494347751140594 0.008165674284100533 0.15600000321865082 255 88 89
0.056496668606996536 0.008113330230116844 0.1550000011920929 254 79 80
0.056861136108636856 0.008113330230116844 0.1550000011920929 254 78 84
0.05722559988498688 0.008113330230116844 0.1550000011920929 255 82 88
0.0572185181081295 0.008060986176133156 0.15399999916553497 255 90 109
0.05758063495159149 0.008060986176133156 0.15399999916553497 255 93 112
0.05756649747490883 0.008008642122149467 0.15299999713897705 255 106 125
0.05754765495657921 0.007956298068165779 0.15199999511241913 255 109 128
0.05790506675839424 0.007956298068165779 0.15199999511241913 253 104 123
0.058262478560209274 0.007956298068165779 0.15199999511241913 255 111 130
0.05861989036202431 0.007956298068165779 0.15199999511241913 255 109 126
0.05897730588912964 0.007956298068165779 0.15199999511241913 255 109 126
0.05933471769094467 0.007956298068165779 0.15199999511241913 255 120 129
0.059692129492759705 0.007956298068165779 0.15199999511241913 254 115 124
0.06004954129457474 0.007956298068165779 0.15199999511241913 252 119 117
0.06040695309638977 0.007956298068165779 0.15199999511241913 254 121 119
0.0607643648982048 0.007956298068165779 0.15199999511241913 255 145 140
0.061121776700019836 0.007956298068165779 0.15199999511241913 255 144 139
0.06147918850183487 0.007956298068165779 0.15199999511241913 255 159 149
0.0618366003036499 0.007956298068165779 0.15199999511241913 255 162 152
0.062194012105464935 0.007956298068165779 0.15199999511241913 255 165 153
0.062139902263879776 0.00790395401418209 0.1509999930858612 254 164 152
0.06249495968222618 0.00790395401418209 0.1509999930858612 252 159 148
0.06285002082586288 0.00790395401418209 0.1509999930858612 249 156 145
0.06278650462627411 0.007851609960198402 0.15000000596046448 255 161 155
0.06271828711032867 0.007799265440553427 0.14900000393390656 249 155 149
0.06306864321231842 0.007799265440553427 0.14900000393390656 239 150 145
0.0629933699965477 0.007746921386569738 0.14800000190734863 235 146 141
0.06334137916564941 0.007746921386569738 0.14800000190734863 255 238 231
0.0632590502500534 0.00769457733258605 0.1469999998807907 255 242 235
0.06360470503568649 0.00769457733258605 0.1469999998807907 255 255 243
0.06395035982131958 0.00769457733258605 0.1469999998807907 255 255 243
0.06429601460695267 0.00769457733258605 0.1469999998807907 254 255 249
0.06464166939258575 0.00769457733258605 0.1469999998807907 254 255 249
0.06454523652791977 0.007642233278602362 0.1459999978542328 254 255 249
0.06488853693008423 0.007642233278602362 0.1459999978542328 254 255 249
0.06523183733224869 0.007642233278602362 0.1459999978542328 254 255 249
0.06557514518499374 0.007642233278602362 0.1459999978542328 254 255 249
0.0659184455871582 0.007642233278602362 0.1459999978542328 254 255 249
0.06626175343990326 0.007642233278602362 0.1459999978542328 254 255 249
0.06614885479211807 0.007589889224618673 0.14499999582767487 254 255 249
0.0664898082613945 0.007589889224618673 0.14499999582767487 254 255 249
0.06636986136436462 0.007537545170634985 0.14399999380111694 255 248 247
0.06670846045017242 0.007537545170634985 0.14399999380111694 251 236 235
0.06658145785331726 0.007485201116651297 0.14300000667572021 246 201 204
0.06691770255565643 0.007485201116651297 0.14300000667572021 246 201 204
0.0672539547085762 0.007485201116651297 0.14300000667572021 246 198 190
0.06711754202842712 0.007432857062667608 0.1420000046491623 234 186 178
0.06745143979787827 0.007432857062667608 0.1420000046491623 255 247 230
0.0677853375673294 0.007432857062667608 0.1420000046491623 255 250 233
0.06811923533678055 0.007432857062667608 0.1420000046491623 254 255 243
0.06845313310623169 0.007432857062667608 0.1420000046491623 254 255 243
0.06878703087568283 0.007432857062667608 0.1420000046491623 254 255 249
0.06912093609571457 0.007432857062667608 0.1420000046491623 254 255 249
0.06945483386516571 0.007432857062667608 0.1420000046491623 254 255 249
0.06929726153612137 0.00738051300868392 0.14100000262260437 254 255 249
0.06962880492210388 0.00738051300868392 0.14100000262260437 254 255 249
0.0699603483080864 0.00738051300868392 0.14100000262260437 254 255 249
0.06979337334632874 0.0073281689547002316 0.14000000059604645 254 255 249
0.07012256979942322 0.0073281689547002316 0.14000000059604645 254 255 249
0.06994853913784027 0.007275824900716543 0.13899999856948853 255 255 251
0.06976979970932007 0.007223480846732855 0.1379999965429306 243 243 239
0.07009429484605789 0.007223480846732855 0.1379999965429306 255 227 231
0.07041878998279572 0.007223480846732855 0.1379999965429306 237 208 212
0.07074327766895294 0.007223480846732855 0.1379999965429306 245 184 187
0.07106777280569077 0.007223480846732855 0.1379999965429306 230 169 172
0.07139226794242859 0.007223480846732855 0.1379999965429306 226 178 159
0.07171675562858582 0.007223480846732855 0.1379999965429306 243 195 176
0.07204125076532364 0.007223480846732855 0.1379999965429306 255 249 227
0.07236573845148087 0.007223480846732855 0.1379999965429306 255 250 228
0.07269023358821869 0.007223480846732855 0.1379999965429306 255 251 241
0.07248563319444656 0.0071711367927491665 0.13699999451637268 251 236 226
0.07280777394771576 0.0071711367927491665 0.13699999451637268 254 206 210
0.07312991470098495 0.0071711367927491665 0.13699999451637268 232 184 188
0.07345205545425415 0.0071711367927491665 0.13699999451637268 241 178 184
0.07377419620752335 0.0071711367927491665 0.13699999451637268 239 176 182
0.07409633696079254 0.0071711367927491665 0.13699999451637268 233 174 177
0.07387527823448181 0.007118792738765478 0.13600000739097595 235 176 179
0.07419507205486298 0.007118792738765478 0.13600000739097595 223 172 172
0.07451485842466354 0.007118792738765478 0.13600000739097595 209 158 158
0.07483465224504471 0.007118792738765478 0.13600000739097595 204 155 156
0.07515443861484528 0.007118792738765478 0.13600000739097595 207 158 159
0.07675338536500931 0.007118792738765478 0.13600000739097595 210 149 152
0.07707317918539047 0.007118792738765478 0.13600000739097595 233 172 175
0.07739296555519104 0.007118792738765478 0.13600000739097595 229 168 171
0.07771275192499161 0.007118792738765478 0.13600000739097595 231 170 173
0.07803254574537277 0.007118792738765478 0.13600000739097595 219 160 163
0.07835233211517334 0.007118792738765478 0.13600000739097595 203 144 147
0.08923696726560593 0.0071711367927491665 0.13699999451637268 204 161 156
0.056127529591321945 0.008532491512596607 0.15600000321865082 254 75 75
0.056132201105356216 0.008477795869112015 0.1550000011920929 255 81 84
0.05613217502832413 0.008423100225627422 0.15399999916553497 255 83 86
0.05649428814649582 0.008423100225627422 0.15399999916553497 253 80 85
0.05648720636963844 0.008368405513465405 0.15299999713897705 250 77 82
0.056846968829631805 0.008368405513465405 0.15299999713897705 253 93 109
0.05720673128962517 0.008368405513465405 0.15299999713897705 255 111 127
0.057190243154764175 0.008313709869980812 0.15199999511241913 255 117 137
0.05754765495657921 0.008313709869980812 0.15199999511241913 255 107 127
0.05752411484718323 0.00825901422649622 0.1509999930858612 252 100 120
0.05787917599081993 0.00825901422649622 0.1509999930858612 254 102 122
0.05861989036202431 0.008313709869980812 0.15199999511241913 241 92 109
0.05897730588912964 0.008313709869980812 0.15199999511241913 239 90 107
0.05933471769094467 0.008313709869980812 0.15199999511241913 255 114 124
0.059692129492759705 0.008313709869980812 0.15199999511241913 255 113 123
0.06004954129457474 0.008313709869980812 0.15199999511241913 252 120 113
0.06040695309638977 0.008313709869980812 0.15199999511241913 255 128 121
0.0607643648982048 0.008313709869980812 0.15199999511241913 249 132 125
0.061121776700019836 0.008313709869980812 0.15199999511241913 255 141 134
0.06147918850183487 0.008313709869980812 0.15199999511241913 255 161 150
0.0618366003036499 0.008313709869980812 0.15199999511241913 255 164 153
0.06178484112024307 0.00825901422649622 0.1509999930858612 254 160 149
0.062139902263879776 0.00825901422649622 0.1509999930858612 251 157 146
0.06249495968222618 0.00825901422649622 0.1509999930858612 249 154 146
0.06243379786610603 0.008204318583011627 0.15000000596046448 250 155 147
0.06278650462627411 0.008204318583011627 0.15000000596046448 255 160 152
0.06271828711032867 0.008149622939527035 0.14900000393390656 253 158 150
0.06306864321231842 0.008149622939527035 0.14900000393390656 243 152 145
0.0629933699965477 0.008094928227365017 0.14800000190734863 238 147 140
0.06334137916564941 0.008094928227365017 0.14800000190734863 255 239 229
0.0632590502500534 0.008040232583880424 0.1469999998807907 255 243 233
0.06360470503568649 0.008040232583880424 0.1469999998807907 255 255 243
0.06395035982131958 0.008040232583880424 0.1469999998807907 255 255 243
0.06429601460695267 0.008040232583880424 0.1469999998807907 254 255 249
0.06464166939258575 0.008040232583880424 0.1469999998807907 254 255 249
0.06454523652791977 0.007985536940395832 0.1459999978542328 254 255 249
0.06488853693008423 0.007985536940395832 0.1459999978542328 254 255 249
0.06523183733224869 0.007985536940395832 0.1459999978542328 254 255 249
0.06557514518499374 0.007985536940395832 0.1459999978542328 254 255 249
0.0659184455871582 0.007985536940395832 0.1459999978542328 254 255 249
0.06626175343990326 0.007985536940395832 0.1459999978542328 254 255 249
0.06614885479211807 0.00793084129691124 0.14499999582767487 255 253 248
0.0664898082613945 0.00793084129691124 0.14499999582767487 253 250 245
0.06636986136436462 0.007876145653426647 0.14399999380111694 255 227 231
0.06670846045017242 0.007876145653426647 0.14399999380111694 236 207 211
0.06658145785331726 0.00782145094126463 0.14300000667572021 242 191 191
0.06691770255565643 0.00782145094126463 0.14300000667572021 243 192 192
0.0672539547085762 0.00782145094126463 0.14300000667572021 243 189 179
0.06711754202842712 0.00776675483211875 0.1420000046491623 232 178 168
0.06745143979787827 0.00776675483211875 0.1420000046491623 255 248 228
0.0677853375673294 0.00776675483211875 0.1420000046491623 255 251 231
0.06811923533678055 0.00776675483211875 0.1420000046491623 254 255 243
0.06845313310623169 0.00776675483211875 0.1420000046491623 254 255 243
0.06878703087568283 0.00776675483211875 0.1420000046491623 254 255 249
0.06912093609571457 0.00776675483211875 0.1420000046491623 254 255 249
0.06945483386516571 0.00776675483211875 0.1420000046491623 254 255 249
0.06929726153612137 0.0077120596542954445 0.14100000262260437 254 255 249
0.06962880492210388 0.0077120596542954445 0.14100000262260437 254 255 249
0.0699603483080864 0.0077120596542954445 0.14100000262260437 254 255 249
0.06979337334632874 0.007657364010810852 0.14000000059604645 254 255 249
0.07012256979942322 0.007657364010810852 0.14000000059604645 254 255 249
0.06994853913784027 0.007602668832987547 0.13899999856948853 255 254 249
0.06976979970932007 0.0075479731895029545 0.1379999965429306 245 242 237
0.07009429484605789 0.0075479731895029545 0.1379999965429306 243 206 213
0.07041878998279572 0.0075479731895029545 0.1379999965429306 233 196 203
0.07074327766895294 0.0075479731895029545 0.1379999965429306 231 171 169
0.07106777280569077 0.0075479731895029545 0.1379999965429306 222 162 160
0.07139226794242859 0.0075479731895029545 0.1379999965429306 215 169 149
0.07171675562858582 0.0075479731895029545 0.1379999965429306 232 186 166
0.07204125076532364 0.0075479731895029545 0.1379999965429306 255 249 229
0.07236573845148087 0.0075479731895029545 0.1379999965429306 255 250 230
0.07269023358821869 0.0075479731895029545 0.1379999965429306 255 248 242
0.07301472872495651 0.0075479731895029545 0.1379999965429306 244 225 219
0.07280777394771576 0.007493277546018362 0.13699999451637268 242 192 198
0.07312991470098495 0.007493277546018362 0.13699999451637268 229 179 185
0.07345205545425415 0.007493277546018362 0.13699999451637268 241 178 184
0.07377419620752335 0.007493277546018362 0.13699999451637268 240 177 183
0.07409633696079254 0.007493277546018362 0.13699999451637268 235 174 177
0.07387527823448181 0.007438582368195057 0.13600000739097595 236 175 178
0.07419507205486298 0.007438582368195057 0.13600000739097595 229 173 175
0.07451485842466354 0.007438582368195057 0.13600000739097595 231 175 177
0.07483465224504471 0.007438582368195057 0.13600000739097595 216 167 168
0.07515443861484528 0.007438582368195057 0.13600000739097595 203 154 155
0.07675338536500931 0.007438582368195057 0.13600000739097595 202 142 142
0.07707317918539047 0.007438582368195057 0.13600000739097595 219 159 159
0.07739296555519104 0.007438582368195057 0.13600000739097595 228 168 168
0.07771275192499161 0.007438582368195057 0.13600000739097595 219 159 159
0.07803254574537277 0.007438582368195057 0.13600000739097595 208 148 148
0.07835233211517334 0.007438582368195057 0.13600000739097595 207 147 147
0.0786721259355545 0.007438582368195057 0.13600000739097595 203 145 143
0.07841108739376068 0.0073838867247104645 0.13500000536441803 202 144 142
0.055767737329006195 0.00884226243942976 0.1550000011920929 254 79 82
0.05577005818486214 0.008785215206444263 0.15399999916553497 255 87 89
0.05576768144965172 0.008728167973458767 0.15299999713897705 254 82 84
0.055760595947504044 0.008671121671795845 0.15199999511241913 246 77 81
0.05611800774931908 0.008671121671795845 0.15199999511241913 253 84 88
0.056103870272636414 0.008614074438810349 0.1509999930858612 255 102 117
0.05645893141627312 0.008614074438810349 0.1509999930858612 255 105 120
0.05681399255990982 0.008614074438810349 0.1509999930858612 255 106 122
0.057169053703546524 0.008614074438810349 0.1509999930858612 255 104 120
0.05752411484718323 0.008614074438810349 0.1509999930858612 254 102 120
0.05787917599081993 0.008614074438810349 0.1509999930858612 255 103 121
0.058234233409166336 0.008614074438810349 0.1509999930858612 240 91 108
0.05858929455280304 0.008614074438810349 0.1509999930858612 238 89 106
0.05933471769094467 0.008671121671795845 0.15199999511241913 255 110 117
0.059692129492759705 0.008671121671795845 0.15199999511241913 255 110 117
0.06004954129457474 0.008671121671795845 0.15199999511241913 251 121 116
0.06040695309638977 0.008671121671795845 0.15199999511241913 255 128 123
0.0607643648982048 0.008671121671795845 0.15199999511241913 255 140 131
0.061121776700019836 0.008671121671795845 0.15199999511241913 255 146 137
0.06147918850183487 0.008671121671795845 0.15199999511241913 255 154 150
0.06142977997660637 0.008614074438810349 0.1509999930858612 255 156 152
0.06178484112024307 0.008614074438810349 0.1509999930858612 253 153 147
0.062139902263879776 0.008614074438810349 0.1509999930858612 254 154 148
0.06208108738064766 0.008557028137147427 0.15000000596046448 251 151 145
0.06243379786610603 0.008557028137147427 0.15000000596046448 249 149 143
0.06278650462627411 0.008557028137147427 0.15000000596046448 252 152 146
0.06271828711032867 0.00849998090416193 0.14900000393390656 254 154 148
0.06264536082744598 0.008442933671176434 0.14800000190734863 246 153 142
0.0629933699965477 0.008442933671176434 0.14800000190734863 238 145 134
0.06334137916564941 0.008442933671176434 0.14800000190734863 255 236 223
0.0632590502500534 0.008385887369513512 0.1469999998807907 255 244 231
0.06360470503568649 0.008385887369513512 0.1469999998807907 255 255 243
0.06395035982131958 0.008385887369513512 0.1469999998807907 255 255 243
0.06429601460695267 0.008385887369513512 0.1469999998807907 254 255 249
0.06420192867517471 0.008328840136528015 0.1459999978542328 254 255 249
0.06454523652791977 0.008328840136528015 0.1459999978542328 254 255 249
0.06488853693008423 0.008328840136528015 0.1459999978542328 254 255 249
0.06523183733224869 0.008328840136528015 0.1459999978542328 254 255 249
0.06557514518499374 0.008328840136528015 0.1459999978542328 254 255 249
0.0659184455871582 0.008328840136528015 0.1459999978542328 254 255 249
0.06626175343990326 0.008328840136528015 0.1459999978542328 254 255 249
0.06614885479211807 0.008271793834865093 0.14499999582767487 255 250 248
0.0664898082613945 0.008271793834865093 0.14499999582767487 247 235 233
0.06636986136436462 0.008214746601879597 0.14399999380111694 251 211 214
0.06624520570039749 0.008157700300216675 0.14300000667572021 234 194 197
0.06658145785331726 0.008157700300216675 0.14300000667572021 249 189 189
0.06691770255565643 0.008157700300216675 0.14300000667572021 249 189 189
0.0672539547085762 0.008157700300216675 0.14300000667572021 240 179 171
0.06711754202842712 0.008100653067231178 0.1420000046491623 233 172 164
0.06745143979787827 0.008100653067231178 0.1420000046491623 255 247 228
0.0677853375673294 0.008100653067231178 0.1420000046491623 255 250 231
0.06811923533678055 0.008100653067231178 0.1420000046491623 254 255 243
0.06845313310623169 0.008100653067231178 0.1420000046491623 254 255 243
0.06878703087568283 0.008100653067231178 0.1420000046491623 254 255 249
0.06912093609571457 0.008100653067231178 0.1420000046491623 254 255 249
0.06945483386516571 0.008100653067231178 0.1420000046491623 254 255 249
0.06929726153612137 0.008043605834245682 0.14100000262260437 254 255 249
0.06962880492210388 0.008043605834245682 0.14100000262260437 254 255 249
0.0699603483080864 0.008043605834245682 0.14100000262260437 254 255 249
0.06979337334632874 0.00798655953258276 0.14000000059604645 254 255 249
0.07012256979942322 0.00798655953258276 0.14000000059604645 254 255 249
0.06994853913784027 0.007929512299597263 0.13899999856948853 255 252 249
0.06976979970932007 0.007872465997934341 0.1379999965429306 250 242 239
0.07009429484605789 0.007872465997934341 0.1379999965429306 239 197 196
0.07041878998279572 0.007872465997934341 0.1379999965429306 218 176 175
0.07074327766895294 0.007872465997934341 0.1379999965429306 222 158 151
0.07106777280569077 0.007872465997934341 0.1379999965429306 213 149 142
0.07139226794242859 0.007872465997934341 0.1379999965429306 205 153 133
0.07171675562858582 0.007872465997934341 0.1379999965429306 252 200 180
0.07204125076532364 0.007872465997934341 0.1379999965429306 255 249 228
0.07236573845148087 0.007872465997934341 0.1379999965429306 255 250 229
0.07269023358821869 0.007872465997934341 0.1379999965429306 255 243 242
0.07301472872495651 0.007872465997934341 0.1379999965429306 236 215 214
0.07280777394771576 0.007815418764948845 0.13699999451637268 243 195 203
0.07312991470098495 0.007815418764948845 0.13699999451637268 235 187 195
0.07345205545425415 0.007815418764948845 0.13699999451637268 246 184 194
0.07377419620752335 0.007815418764948845 0.13699999451637268 244 182 192
0.07409633696079254 0.007815418764948845 0.13699999451637268 245 178 188
0.07387527823448181 0.007758371997624636 0.13600000739097595 241 174 184
0.07419507205486298 0.007758371997624636 0.13600000739097595 232 166 173
0.07451485842466354 0.007758371997624636 0.13600000739097595 224 158 165
0.07483465224504471 0.007758371997624636 0.13600000739097595 219 165 168
0.07515443861484528 0.007758371997624636 0.13600000739097595 207 153 156
0.07675338536500931 0.007758371997624636 0.13600000739097595 202 143 136
0.07707317918539047 0.007758371997624636 0.13600000739097595 218 159 152
0.07739296555519104 0.007758371997624636 0.13600000739097595 225 165 163
0.07771275192499161 0.007758371997624636 0.13600000739097595 224 164 162
0.07803254574537277 0.007758371997624636 0.13600000739097595 221 161 159
0.07835233211517334 0.007758371997624636 0.13600000739097595 207 147 145
0.0786721259355545 0.007758371997624636 0.13600000739097595 213 148 148
0.07899191230535507 0.007758371997624636 0.13600000739097595 210 145 145
0.08827054500579834 0.007815418764948845 0.13699999451637268 201 156 143
0.08955910801887512 0.007815418764948845 0.13699999451637268 201 153 147
0.055048152804374695 0.009087931364774704 0.15299999713897705 255 81 84
0.05504577234387398 0.009028533473610878 0.15199999511241913 253 80 85
0.05540318414568901 0.009028533473610878 0.15199999511241913 253 80 85
0.055393751710653305 0.008969135582447052 0.1509999930858612 245 83 91
0.05574881285429001 0.008969135582447052 0.1509999930858612 255 103 111
0.056103870272636414 0.008969135582447052 0.1509999930858612 255 107 118
0.05645893141627312 0.008969135582447052 0.1509999930858612 255 108 119
0.056437741965055466 0.008909736759960651 0.15000000596046448 255 103 119
0.05679044872522354 0.008909736759960651 0.15000000596046448 255 103 119
0.057143159210681915 0.008909736759960651 0.15000000596046448 254 102 118
0.05749586969614029 0.008909736759960651 0.15000000596046448 254 102 118
0.058234233409166336 0.008969135582447052 0.1509999930858612 253 104 119
