0.08762626349925995 0.00588257284834981 0.13699999451637268 186 130 132
0.08794840425252914 0.00588257284834981 0.13699999451637268 194 138 140
0.08827054500579834 0.00588257284834981 0.13699999451637268 199 144 150
0.08859268575906754 0.00588257284834981 0.13699999451637268 207 152 158
0.08891482651233673 0.00588257284834981 0.13699999451637268 200 152 158
0.08923696726560593 0.00588257284834981 0.13699999451637268 191 143 149
0.08955910801887512 0.00588257284834981 0.13699999451637268 178 146 142
0.08988124877214432 0.00588257284834981 0.13699999451637268 175 143 139
0.09020338952541351 0.00588257284834981 0.13699999451637268 161 131 126
0.09052553027868271 0.00588257284834981 0.13699999451637268 171 141 136
0.0908476710319519 0.00588257284834981 0.13699999451637268 172 134 134
0.0911698117852211 0.00588257284834981 0.13699999451637268 173 135 135
0.0914919525384903 0.00588257284834981 0.13699999451637268 174 124 128
0.09345774352550507 0.005925511475652456 0.1379999965429306 173 121 112
0.05749586969614029 0.006793482229113579 0.15000000596046448 255 103 100
0.057848576456308365 0.006793482229113579 0.15000000596046448 255 111 109
0.05820128694176674 0.006793482229113579 0.15000000596046448 255 112 110
0.05855399742722511 0.006793482229113579 0.15000000596046448 255 109 109
0.05890670418739319 0.006793482229113579 0.15000000596046448 255 109 109
0.05925941467285156 0.006793482229113579 0.15000000596046448 251 105 110
0.059612125158309937 0.006793482229113579 0.15000000596046448 251 105 110
0.05996483191847801 0.006793482229113579 0.15000000596046448 248 119 118
0.060317542403936386 0.006793482229113579 0.15000000596046448 255 128 127
0.06067024916410446 0.006793482229113579 0.15000000596046448 254 143 136
0.06142977997660637 0.006838771980255842 0.1509999930858612 255 148 141
0.06178484112024307 0.006838771980255842 0.1509999930858612 254 152 144
0.062139902263879776 0.006838771980255842 0.1509999930858612 255 154 146
0.06249495968222618 0.006838771980255842 0.1509999930858612 254 162 158
0.06285002082586288 0.006838771980255842 0.1509999930858612 230 138 134
0.06278650462627411 0.006793482229113579 0.15000000596046448 215 129 120
0.06313921511173248 0.006793482229113579 0.15000000596046448 211 125 116
0.06306864321231842 0.006748192477971315 0.14900000393390656 207 124 114
0.0629933699965477 0.006702902726829052 0.14800000190734863 203 120 110
0.06334137916564941 0.006702902726829052 0.14800000190734863 203 149 141
0.0632590502500534 0.006657612510025501 0.1469999998807907 255 235 227
0.06317202001810074 0.006612322758883238 0.1459999978542328 255 254 243
0.0635153204202652 0.006612322758883238 0.1459999978542328 255 254 243
0.06385862827301025 0.006612322758883238 0.1459999978542328 254 255 247
0.06420192867517471 0.006612322758883238 0.1459999978542328 254 255 247
0.06454523652791977 0.006612322758883238 0.1459999978542328 254 255 249
0.06444409489631653 0.006567033007740974 0.14499999582767487 254 255 249
0.06478504836559296 0.006567033007740974 0.14499999582767487 254 255 249
0.06512600183486938 0.006567033007740974 0.14499999582767487 254 255 249
0.06546695530414581 0.006567033007740974 0.14499999582767487 247 248 244
0.06580790132284164 0.006567033007740974 0.14499999582767487 236 237 233
0.06569265574216843 0.006521742790937424 0.14399999380111694 250 249 249
0.06603125482797623 0.006521742790937424 0.14399999380111694 255 254 254
0.06590895354747772 0.00647645303979516 0.14300000667572021 255 247 246
0.06624520570039749 0.00647645303979516 0.14300000667572021 255 250 249
0.06658145785331726 0.00647645303979516 0.14300000667572021 255 240 247
0.06691770255565643 0.00647645303979516 0.14300000667572021 249 210 217
0.06678364425897598 0.006431163288652897 0.1420000046491623 246 191 197
0.06711754202842712 0.006431163288652897 0.1420000046491623 234 179 185
0.06745143979787827 0.006431163288652897 0.1420000046491623 255 237 233
0.0677853375673294 0.006431163288652897 0.1420000046491623 255 245 241
0.06811923533678055 0.006431163288652897 0.1420000046491623 255 255 245
0.06845313310623169 0.006431163288652897 0.1420000046491623 255 255 245
0.06830261647701263 0.0063858735375106335 0.14100000262260437 254 255 249
0.06863416731357574 0.0063858735375106335 0.14100000262260437 254 255 249
0.06896571069955826 0.0063858735375106335 0.14100000262260437 254 255 249
0.06929726153612137 0.0063858735375106335 0.14100000262260437 254 255 249
0.06962880492210388 0.0063858735375106335 0.14100000262260437 254 255 249
0.06946417689323425 0.006340583320707083 0.14000000059604645 254 255 249
0.06979337334632874 0.006340583320707083 0.14000000059604645 254 255 249
0.07012256979942322 0.006340583320707083 0.14000000059604645 254 255 249
0.06994853913784027 0.006295293569564819 0.13899999856948853 254 255 251
0.07027538120746613 0.006295293569564819 0.13899999856948853 254 255 251
0.07060222327709198 0.006295293569564819 0.13899999856948853 255 249 250
0.07041878998279572 0.006250003818422556 0.1379999965429306 241 226 227
0.07074327766895294 0.006250003818422556 0.1379999965429306 213 177 181
0.07106777280569077 0.006250003818422556 0.1379999965429306 199 163 167
0.07139226794242859 0.006250003818422556 0.1379999965429306 193 156 151
0.07171675562858582 0.006250003818422556 0.1379999965429306 224 187 182
0.07204125076532364 0.006250003818422556 0.1379999965429306 255 249 234
0.07236573845148087 0.006250003818422556 0.1379999965429306 255 250 235
0.07269023358821869 0.006250003818422556 0.1379999965429306 255 232 227
0.07301472872495651 0.006250003818422556 0.1379999965429306 237 214 209
0.07333921641111374 0.006250003818422556 0.1379999965429306 231 185 195
0.07366371154785156 0.006250003818422556 0.1379999965429306 235 189 199
0.07398820668458939 0.006250003818422556 0.1379999965429306 228 177 188
0.07579401880502701 0.006159423850476742 0.13600000739097595 206 168 159
0.07611380517482758 0.006159423850476742 0.13600000739097595 194 155 135
0.07643359899520874 0.006159423850476742 0.13600000739097595 188 149 129
0.07675338536500931 0.006159423850476742 0.13600000739097595 201 162 142
0.07707317918539047 0.006159423850476742 0.13600000739097595 240 201 181
0.07739296555519104 0.006159423850476742 0.13600000739097595 242 197 186
0.07771275192499161 0.006159423850476742 0.13600000739097595 248 203 192
0.07803254574537277 0.006159423850476742 0.13600000739097595 222 174 170
0.07835233211517334 0.006159423850476742 0.13600000739097595 209 161 157
0.0786721259355545 0.006159423850476742 0.13600000739097595 209 163 157
0.07899191230535507 0.006159423850476742 0.13600000739097595 209 163 157
0.07931170612573624 0.006159423850476742 0.13600000739097595 206 160 154
0.0796314924955368 0.006159423850476742 0.13600000739097595 199 153 147
0.07995127886533737 0.006159423850476742 0.13600000739097595 198 152 144
0.08027107268571854 0.006159423850476742 0.13600000739097595 185 139 131
0.0805908590555191 0.006159423850476742 0.13600000739097595 180 133 122
0.08091065287590027 0.006159423850476742 0.13600000739097595 190 143 132
0.08123043924570084 0.006159423850476742 0.13600000739097595 190 136 126
0.081550233066082 0.006159423850476742 0.13600000739097595 184 130 120
0.08187001943588257 0.006159423850476742 0.13600000739097595 182 131 117
0.08218980580568314 0.006159423850476742 0.13600000739097595 184 133 119
0.0825095996260643 0.006159423850476742 0.13600000739097595 184 140 124
0.08282938599586487 0.006159423850476742 0.13600000739097595 193 149 133
0.08314917981624603 0.006159423850476742 0.13600000739097595 189 148 131
0.0834689661860466 0.006159423850476742 0.13600000739097595 186 145 128
0.08378876000642776 0.006159423850476742 0.13600000739097595 182 138 120
0.08410854637622833 0.006159423850476742 0.13600000739097595 183 139 121
0.0844283327460289 0.006159423850476742 0.13600000739097595 183 139 123
0.08474812656641006 0.006159423850476742 0.13600000739097595 176 132 116
0.08506791293621063 0.006159423850476742 0.13600000739097595 172 124 118
0.0853877067565918 0.006159423850476742 0.13600000739097595 171 123 117
0.08570749312639236 0.006159423850476742 0.13600000739097595 170 122 116
0.08602728694677353 0.006159423850476742 0.13600000739097595 168 120 114
0.08762626349925995 0.006204713601619005 0.13699999451637268 171 117 118
0.08794840425252914 0.006204713601619005 0.13699999451637268 200 146 147
0.08827054500579834 0.006204713601619005 0.13699999451637268 197 143 146
0.08859268575906754 0.006204713601619005 0.13699999451637268 202 148 151
0.08891482651233673 0.006204713601619005 0.13699999451637268 200 151 150
0.08923696726560593 0.006204713601619005 0.13699999451637268 195 146 145
0.08955910801887512 0.006204713601619005 0.13699999451637268 185 143 140
0.08988124877214432 0.006204713601619005 0.13699999451637268 180 138 135
0.09020338952541351 0.006204713601619005 0.13699999451637268 173 136 131
0.09052553027868271 0.006204713601619005 0.13699999451637268 173 136 131
0.0908476710319519 0.006204713601619005 0.13699999451637268 168 128 129
0.0911698117852211 0.006204713601619005 0.13699999451637268 171 131 132
0.0914919525384903 0.006204713601619005 0.13699999451637268 174 124 128
0.05679044872522354 0.007146191317588091 0.15000000596046448 255 89 85
0.057143159210681915 0.007146191317588091 0.15000000596046448 240 87 81
0.05749586969614029 0.007146191317588091 0.15000000596046448 255 109 103
0.057848576456308365 0.007146191317588091 0.15000000596046448 255 116 112
0.05820128694176674 0.007146191317588091 0.15000000596046448 255 112 108
0.05855399742722511 0.007146191317588091 0.15000000596046448 255 109 107
0.05890670418739319 0.007146191317588091 0.15000000596046448 252 106 104
0.05925941467285156 0.007146191317588091 0.15000000596046448 252 107 107
0.059612125158309937 0.007146191317588091 0.15000000596046448 247 102 102
0.05996483191847801 0.007146191317588091 0.15000000596046448 243 112 112
0.060317542403936386 0.007146191317588091 0.15000000596046448 255 127 127
0.06067024916410446 0.007146191317588091 0.15000000596046448 255 149 143
0.06142977997660637 0.007193832658231258 0.1509999930858612 255 150 144
0.06178484112024307 0.007193832658231258 0.1509999930858612 254 152 144
0.062139902263879776 0.007193832658231258 0.1509999930858612 253 151 143
0.06249495968222618 0.007193832658231258 0.1509999930858612 253 158 150
0.06285002082586288 0.007193832658231258 0.1509999930858612 255 160 152
0.06278650462627411 0.007146191317588091 0.15000000596046448 246 158 150
0.06313921511173248 0.007146191317588091 0.15000000596046448 232 144 136
0.06306864321231842 0.007098549976944923 0.14900000393390656 210 126 119
0.0629933699965477 0.007050908636301756 0.14800000190734863 219 135 128
0.06334137916564941 0.007050908636301756 0.14800000190734863 235 188 177
0.0632590502500534 0.007003267761319876 0.1469999998807907 255 242 231
0.06317202001810074 0.006955626420676708 0.1459999978542328 255 255 245
0.0635153204202652 0.006955626420676708 0.1459999978542328 255 255 245
0.06385862827301025 0.006955626420676708 0.1459999978542328 254 255 249
0.06420192867517471 0.006955626420676708 0.1459999978542328 254 255 249
0.06454523652791977 0.006955626420676708 0.1459999978542328 254 255 249
0.06444409489631653 0.006907985080033541 0.14499999582767487 254 255 249
0.06478504836559296 0.006907985080033541 0.14499999582767487 254 255 249
0.06512600183486938 0.006907985080033541 0.14499999582767487 254 255 249
0.06546695530414581 0.006907985080033541 0.14499999582767487 251 252 248
0.06580790132284164 0.006907985080033541 0.14499999582767487 237 238 234
0.06569265574216843 0.006860343739390373 0.14399999380111694 241 240 240
0.06603125482797623 0.006860343739390373 0.14399999380111694 253 252 252
0.06590895354747772 0.006812702398747206 0.14300000667572021 255 251 251
0.06624520570039749 0.006812702398747206 0.14300000667572021 255 250 250
0.06658145785331726 0.006812702398747206 0.14300000667572021 255 221 225
0.06691770255565643 0.006812702398747206 0.14300000667572021 238 200 204
0.06678364425897598 0.006765061058104038 0.1420000046491623 249 199 196
0.06711754202842712 0.006765061058104038 0.1420000046491623 232 182 179
0.06745143979787827 0.006765061058104038 0.1420000046491623 255 245 234
0.0677853375673294 0.006765061058104038 0.1420000046491623 255 248 237
0.06811923533678055 0.006765061058104038 0.1420000046491623 255 255 245
0.06845313310623169 0.006765061058104038 0.1420000046491623 255 255 245
0.06878703087568283 0.006765061058104038 0.1420000046491623 254 255 249
0.06863416731357574 0.006717419717460871 0.14100000262260437 254 255 249
0.06896571069955826 0.006717419717460871 0.14100000262260437 254 255 249
0.06929726153612137 0.006717419717460871 0.14100000262260437 254 255 249
0.06962880492210388 0.006717419717460871 0.14100000262260437 254 255 249
0.0699603483080864 0.006717419717460871 0.14100000262260437 254 255 249
0.06979337334632874 0.006669778376817703 0.14000000059604645 253 254 248
0.07012256979942322 0.006669778376817703 0.14000000059604645 253 254 248
0.06994853913784027 0.006622137501835823 0.13899999856948853 253 254 250
0.07027538120746613 0.006622137501835823 0.13899999856948853 254 255 251
0.07060222327709198 0.006622137501835823 0.13899999856948853 255 237 240
0.07041878998279572 0.0065744961611926556 0.1379999965429306 238 218 221
0.07074327766895294 0.0065744961611926556 0.1379999965429306 224 181 187
0.07106777280569077 0.0065744961611926556 0.1379999965429306 198 155 161
0.07139226794242859 0.0065744961611926556 0.1379999965429306 199 156 149
0.07171675562858582 0.0065744961611926556 0.1379999965429306 230 187 180
0.07204125076532364 0.0065744961611926556 0.1379999965429306 255 248 236
0.07236573845148087 0.0065744961611926556 0.1379999965429306 255 249 237
0.07269023358821869 0.0065744961611926556 0.1379999965429306 250 227 222
0.07301472872495651 0.0065744961611926556 0.1379999965429306 227 204 199
0.07333921641111374 0.0065744961611926556 0.1379999965429306 235 187 191
0.07366371154785156 0.0065744961611926556 0.1379999965429306 240 192 196
0.07398820668458939 0.0065744961611926556 0.1379999965429306 232 175 182
0.07431269437074661 0.0065744961611926556 0.1379999965429306 227 170 177
0.07463718950748444 0.0065744961611926556 0.1379999965429306 227 172 169
0.07547422498464584 0.006479213479906321 0.13600000739097595 212 172 159
0.07579401880502701 0.006479213479906321 0.13600000739097595 205 165 152
0.07611380517482758 0.006479213479906321 0.13600000739097595 187 148 130
0.07643359899520874 0.006479213479906321 0.13600000739097595 184 145 127
0.07675338536500931 0.006479213479906321 0.13600000739097595 192 148 130
0.07707317918539047 0.006479213479906321 0.13600000739097595 214 170 152
0.07739296555519104 0.006479213479906321 0.13600000739097595 222 177 164
0.07771275192499161 0.006479213479906321 0.13600000739097595 222 177 164
0.07803254574537277 0.006479213479906321 0.13600000739097595 201 153 149
0.07835233211517334 0.006479213479906321 0.13600000739097595 202 154 150
0.0786721259355545 0.006479213479906321 0.13600000739097595 194 148 142
0.07899191230535507 0.006479213479906321 0.13600000739097595 192 146 140
0.07931170612573624 0.006479213479906321 0.13600000739097595 190 144 136
0.0796314924955368 0.006479213479906321 0.13600000739097595 191 145 137
0.07995127886533737 0.006479213479906321 0.13600000739097595 192 147 136
0.08027107268571854 0.006479213479906321 0.13600000739097595 180 135 124
0.0805908590555191 0.006479213479906321 0.13600000739097595 180 135 124
0.08091065287590027 0.006479213479906321 0.13600000739097595 180 135 124
0.08123043924570084 0.006479213479906321 0.13600000739097595 187 131 119
0.081550233066082 0.006479213479906321 0.13600000739097595 184 128 116
0.08187001943588257 0.006479213479906321 0.13600000739097595 182 124 108
0.08218980580568314 0.006479213479906321 0.13600000739097595 182 124 108
0.0825095996260643 0.006479213479906321 0.13600000739097595 181 133 114
0.08282938599586487 0.006479213479906321 0.13600000739097595 197 149 130
0.08314917981624603 0.006479213479906321 0.13600000739097595 179 135 117
0.0834689661860466 0.006479213479906321 0.13600000739097595 184 140 122
0.08378876000642776 0.006479213479906321 0.13600000739097595 186 140 124
0.08410854637622833 0.006479213479906321 0.13600000739097595 184 138 122
0.0844283327460289 0.006479213479906321 0.13600000739097595 182 135 122
0.08474812656641006 0.006479213479906321 0.13600000739097595 181 134 121
0.08506791293621063 0.006479213479906321 0.13600000739097595 175 127 119
0.0853877067565918 0.006479213479906321 0.13600000739097595 170 122 114
0.08570749312639236 0.006479213479906321 0.13600000739097595 171 123 115
0.08762626349925995 0.006526854820549488 0.13699999451637268 167 119 115
0.08794840425252914 0.006526854820549488 0.13699999451637268 180 132 128
0.08827054500579834 0.006526854820549488 0.13699999451637268 196 148 144
0.08859268575906754 0.006526854820549488 0.13699999451637268 196 148 144
0.08891482651233673 0.006526854820549488 0.13699999451637268 194 148 144
0.08923696726560593 0.006526854820549488 0.13699999451637268 191 145 141
0.08955910801887512 0.006526854820549488 0.13699999451637268 185 138 137
0.08988124877214432 0.006526854820549488 0.13699999451637268 190 143 142
0.09020338952541351 0.006526854820549488 0.13699999451637268 181 142 138
0.09052553027868271 0.006526854820549488 0.13699999451637268 171 132 128
0.0908476710319519 0.006526854820549488 0.13699999451637268 168 128 129
0.0911698117852211 0.006526854820549488 0.13699999451637268 167 127 128
0.05606149137020111 0.007448907941579819 0.14900000393390656 255 95 94
0.05641184747219086 0.007448907941579819 0.14900000393390656 255 101 100
0.0567622035741806 0.007448907941579819 0.14900000393390656 255 118 112
0.05711256340146065 0.007448907941579819 0.14900000393390656 255 110 104
0.057462919503450394 0.007448907941579819 0.14900000393390656 252 106 102
0.05781327933073044 0.007448907941579819 0.14900000393390656 254 108 104
0.058163635432720184 0.007448907941579819 0.14900000393390656 255 110 106
0.05890670418739319 0.007498900406062603 0.15000000596046448 250 104 100
0.05925941467285156 0.007498900406062603 0.15000000596046448 251 106 104
0.059612125158309937 0.007498900406062603 0.15000000596046448 255 112 110
0.05996483191847801 0.007498900406062603 0.15000000596046448 252 121 121
0.060317542403936386 0.007498900406062603 0.15000000596046448 255 125 125
0.06067024916410446 0.007498900406062603 0.15000000596046448 255 138 133
0.061022959649562836 0.007498900406062603 0.15000000596046448 255 147 142
0.06137567013502121 0.007498900406062603 0.15000000596046448 254 149 140
0.062139902263879776 0.007548893336206675 0.1509999930858612 255 150 141
0.06208108738064766 0.007498900406062603 0.15000000596046448 250 152 145
0.06243379786610603 0.007498900406062603 0.15000000596046448 253 155 148
0.06278650462627411 0.007498900406062603 0.15000000596046448 255 167 160
0.06313921511173248 0.007498900406062603 0.15000000596046448 255 169 162
0.06306864321231842 0.007448907941579819 0.14900000393390656 230 143 137
0.0629933699965477 0.007398915011435747 0.14800000190734863 238 151 145
0.06334137916564941 0.007398915011435747 0.14800000190734863 255 215 209
0.0632590502500534 0.007348922546952963 0.1469999998807907 255 241 235
0.06317202001810074 0.007298929616808891 0.1459999978542328 255 255 245
0.0635153204202652 0.007298929616808891 0.1459999978542328 255 255 245
0.06385862827301025 0.007298929616808891 0.1459999978542328 254 255 249
0.06420192867517471 0.007298929616808891 0.1459999978542328 254 255 249
0.06454523652791977 0.007298929616808891 0.1459999978542328 254 255 249
0.06444409489631653 0.007248937152326107 0.14499999582767487 254 255 249
0.06478504836559296 0.007248937152326107 0.14499999582767487 254 255 249
0.06512600183486938 0.007248937152326107 0.14499999582767487 254 255 249
0.06546695530414581 0.007248937152326107 0.14499999582767487 251 252 248
0.06580790132284164 0.007248937152326107 0.14499999582767487 244 245 241
0.06569265574216843 0.007198944687843323 0.14399999380111694 235 235 235
0.06603125482797623 0.007198944687843323 0.14399999380111694 239 239 239
0.06590895354747772 0.007148951757699251 0.14300000667572021 255 246 252
0.06624520570039749 0.007148951757699251 0.14300000667572021 254 236 242
0.06658145785331726 0.007148951757699251 0.14300000667572021 252 210 209
0.06691770255565643 0.007148951757699251 0.14300000667572021 247 205 204
0.06678364425897598 0.007098959293216467 0.1420000046491623 247 198 188
0.06711754202842712 0.007098959293216467 0.1420000046491623 232 183 173
0.06745143979787827 0.007098959293216467 0.1420000046491623 255 245 232
0.0677853375673294 0.007098959293216467 0.1420000046491623 255 248 235
0.06811923533678055 0.007098959293216467 0.1420000046491623 254 255 243
0.06845313310623169 0.007098959293216467 0.1420000046491623 254 255 243
0.06878703087568283 0.007098959293216467 0.1420000046491623 254 255 249
0.06912093609571457 0.007098959293216467 0.1420000046491623 254 255 249
0.06896571069955826 0.007048966363072395 0.14100000262260437 254 255 249
0.06929726153612137 0.007048966363072395 0.14100000262260437 254 255 249
0.06962880492210388 0.007048966363072395 0.14100000262260437 254 255 249
0.0699603483080864 0.007048966363072395 0.14100000262260437 254 255 249
0.06979337334632874 0.006998973898589611 0.14000000059604645 251 252 246
0.07012256979942322 0.006998973898589611 0.14000000059604645 244 245 239
0.06994853913784027 0.0069489809684455395 0.13899999856948853 245 244 244
0.07027538120746613 0.0069489809684455395 0.13899999856948853 255 254 254
0.07060222327709198 0.0069489809684455395 0.13899999856948853 250 226 230
0.07041878998279572 0.006898988503962755 0.1379999965429306 237 213 217
0.07074327766895294 0.006898988503962755 0.1379999965429306 239 187 194
0.07106777280569077 0.006898988503962755 0.1379999965429306 219 167 174
0.07139226794242859 0.006898988503962755 0.1379999965429306 207 157 150
0.07171675562858582 0.006898988503962755 0.1379999965429306 229 179 172
0.07204125076532364 0.006898988503962755 0.1379999965429306 255 243 233
0.07236573845148087 0.006898988503962755 0.1379999965429306 255 244 234
0.07269023358821869 0.006898988503962755 0.1379999965429306 255 243 240
0.07301472872495651 0.006898988503962755 0.1379999965429306 241 213 210
0.07333921641111374 0.006898988503962755 0.1379999965429306 237 186 188
0.07366371154785156 0.006898988503962755 0.1379999965429306 229 178 180
0.07398820668458939 0.006898988503962755 0.1379999965429306 238 176 175
0.07431269437074661 0.006898988503962755 0.1379999965429306 231 169 168
0.07409633696079254 0.006848995573818684 0.13699999451637268 231 169 166
0.07441847771406174 0.006848995573818684 0.13699999451637268 232 170 167
0.07451485842466354 0.006799003109335899 0.13600000739097595 209 149 147
0.07483465224504471 0.006799003109335899 0.13600000739097595 225 170 165
0.07515443861484528 0.006799003109335899 0.13600000739097595 208 153 148
0.07547422498464584 0.006799003109335899 0.13600000739097595 207 160 147
0.07579401880502701 0.006799003109335899 0.13600000739097595 184 137 124
0.07611380517482758 0.006799003109335899 0.13600000739097595 171 127 111
0.07643359899520874 0.006799003109335899 0.13600000739097595 175 131 115
0.07675338536500931 0.006799003109335899 0.13600000739097595 202 151 135
0.07707317918539047 0.006799003109335899 0.13600000739097595 216 165 149
0.07739296555519104 0.006799003109335899 0.13600000739097595 212 164 149
0.07771275192499161 0.006799003109335899 0.13600000739097595 214 166 151
0.07803254574537277 0.006799003109335899 0.13600000739097595 208 160 154
0.07835233211517334 0.006799003109335899 0.13600000739097595 200 152 146
0.0786721259355545 0.006799003109335899 0.13600000739097595 193 145 139
0.07899191230535507 0.006799003109335899 0.13600000739097595 194 146 140
0.07931170612573624 0.006799003109335899 0.13600000739097595 183 137 129
0.0796314924955368 0.006799003109335899 0.13600000739097595 184 138 130
0.07995127886533737 0.006799003109335899 0.13600000739097595 186 143 134
0.08027107268571854 0.006799003109335899 0.13600000739097595 178 135 126
0.0805908590555191 0.006799003109335899 0.13600000739097595 179 134 123
0.08091065287590027 0.006799003109335899 0.13600000739097595 173 128 117
0.08123043924570084 0.006799003109335899 0.13600000739097595 187 129 117
0.081550233066082 0.006799003109335899 0.13600000739097595 179 121 109
0.0825095996260643 0.006799003109335899 0.13600000739097595 177 126 108
0.08282938599586487 0.006799003109335899 0.13600000739097595 192 141 123
0.08314917981624603 0.006799003109335899 0.13600000739097595 178 132 114
0.0834689661860466 0.006799003109335899 0.13600000739097595 182 136 118
0.08378876000642776 0.006799003109335899 0.13600000739097595 186 138 123
0.08410854637622833 0.006799003109335899 0.13600000739097595 185 137 122
0.0844283327460289 0.006799003109335899 0.13600000739097595 182 130 119
0.08474812656641006 0.006799003109335899 0.13600000739097595 180 128 117
0.08506791293621063 0.006799003109335899 0.13600000739097595 180 128 119
0.0853877067565918 0.006799003109335899 0.13600000739097595 181 129 120
0.08570749312639236 0.006799003109335899 0.13600000739097595 173 121 112
0.08794840425252914 0.006848995573818684 0.13699999451637268 179 130 120
0.08827054500579834 0.006848995573818684 0.13699999451637268 202 152 145
0.08859268575906754 0.006848995573818684 0.13699999451637268 198 148 141
0.08891482651233673 0.006848995573818684 0.13699999451637268 200 154 148
0.08923696726560593 0.006848995573818684 0.13699999451637268 195 149 143
0.08955910801887512 0.006848995573818684 0.13699999451637268 180 134 130
0.08988124877214432 0.006848995573818684 0.13699999451637268 188 142 138
0.09020338952541351 0.006848995573818684 0.13699999451637268 180 138 135
0.09052553027868271 0.006848995573818684 0.13699999451637268 170 128 125
0.0908476710319519 0.006848995573818684 0.13699999451637268 167 127 128
0.0911698117852211 0.006848995573818684 0.13699999451637268 168 128 129
0.0914919525384903 0.006848995573818684 0.13699999451637268 167 123 123
0.05536077544093132 0.007799265440553427 0.14900000393390656 249 72 85
0.055711131542921066 0.007799265440553427 0.14900000393390656 255 86 99
0.05606149137020111 0.007799265440553427 0.14900000393390656 254 100 103
0.05641184747219086 0.007799265440553427 0.14900000393390656 255 107 110
0.0567622035741806 0.007799265440553427 0.14900000393390656 255 108 107
0.05711256340146065 0.007799265440553427 0.14900000393390656 255 108 107
0.057462919503450394 0.007799265440553427 0.14900000393390656 254 105 104
0.05781327933073044 0.007799265440553427 0.14900000393390656 254 105 104
0.058163635432720184 0.007799265440553427 0.14900000393390656 250 104 102
0.05851399526000023 0.007799265440553427 0.14900000393390656 252 106 104
0.058864351361989975 0.007799265440553427 0.14900000393390656 248 103 101
0.05921470746397972 0.007799265440553427 0.14900000393390656 248 103 101
0.05996483191847801 0.007851609960198402 0.15000000596046448 248 119 118
0.060317542403936386 0.007851609960198402 0.15000000596046448 253 124 123
0.06067024916410446 0.007851609960198402 0.15000000596046448 250 133 128
0.061022959649562836 0.007851609960198402 0.15000000596046448 255 141 136
0.06137567013502121 0.007851609960198402 0.15000000596046448 255 147 139
0.061728376895189285 0.007851609960198402 0.15000000596046448 255 149 141
0.06208108738064766 0.007851609960198402 0.15000000596046448 254 152 142
0.06243379786610603 0.007851609960198402 0.15000000596046448 253 151 141
0.06278650462627411 0.007851609960198402 0.15000000596046448 240 145 137
0.06271828711032867 0.007799265440553427 0.14900000393390656 246 151 143
0.06306864321231842 0.007799265440553427 0.14900000393390656 240 154 145
0.0629933699965477 0.007746921386569738 0.14800000190734863 236 150 141
0.06334137916564941 0.007746921386569738 0.14800000190734863 247 206 198
0.0632590502500534 0.00769457733258605 0.1469999998807907 255 243 235
0.06360470503568649 0.00769457733258605 0.1469999998807907 255 255 245
0.0635153204202652 0.007642233278602362 0.1459999978542328 255 255 245
0.06385862827301025 0.007642233278602362 0.1459999978542328 254 255 249
0.06420192867517471 0.007642233278602362 0.1459999978542328 254 255 249
0.06454523652791977 0.007642233278602362 0.1459999978542328 254 255 249
0.06444409489631653 0.007589889224618673 0.14499999582767487 254 255 249
0.06478504836559296 0.007589889224618673 0.14499999582767487 254 255 249
0.06512600183486938 0.007589889224618673 0.14499999582767487 254 255 249
0.06546695530414581 0.007589889224618673 0.14499999582767487 254 255 251
0.06580790132284164 0.007589889224618673 0.14499999582767487 254 255 251
0.06569265574216843 0.007537545170634985 0.14399999380111694 254 254 250
0.06603125482797623 0.007537545170634985 0.14399999380111694 254 254 250
0.06590895354747772 0.007485201116651297 0.14300000667572021 255 242 245
0.06624520570039749 0.007485201116651297 0.14300000667572021 249 222 225
0.06658145785331726 0.007485201116651297 0.14300000667572021 251 201 196
0.06644974648952484 0.007432857062667608 0.1420000046491623 245 195 190
0.06678364425897598 0.007432857062667608 0.1420000046491623 248 195 182
0.06711754202842712 0.007432857062667608 0.1420000046491623 235 182 169
0.06745143979787827 0.007432857062667608 0.1420000046491623 255 245 230
0.0677853375673294 0.007432857062667608 0.1420000046491623 255 248 233
0.06811923533678055 0.007432857062667608 0.1420000046491623 254 255 243
0.06845313310623169 0.007432857062667608 0.1420000046491623 254 255 243
0.06878703087568283 0.007432857062667608 0.1420000046491623 254 255 249
0.06912093609571457 0.007432857062667608 0.1420000046491623 254 255 249
0.06945483386516571 0.007432857062667608 0.1420000046491623 254 255 249
0.06929726153612137 0.00738051300868392 0.14100000262260437 254 255 249
0.06962880492210388 0.00738051300868392 0.14100000262260437 254 255 249
0.0699603483080864 0.00738051300868392 0.14100000262260437 254 255 249
0.06979337334632874 0.0073281689547002316 0.14000000059604645 253 254 248
0.07012256979942322 0.0073281689547002316 0.14000000059604645 247 248 242
0.06994853913784027 0.007275824900716543 0.13899999856948853 240 237 234
0.07027538120746613 0.007275824900716543 0.13899999856948853 255 254 251
0.07060222327709198 0.007275824900716543 0.13899999856948853 251 217 223
0.07041878998279572 0.007223480846732855 0.1379999965429306 234 200 206
0.07074327766895294 0.007223480846732855 0.1379999965429306 228 172 176
0.07106777280569077 0.007223480846732855 0.1379999965429306 218 162 166
0.07139226794242859 0.007223480846732855 0.1379999965429306 200 151 141
0.07171675562858582 0.007223480846732855 0.1379999965429306 223 174 164
0.07204125076532364 0.007223480846732855 0.1379999965429306 255 236 228
0.07236573845148087 0.007223480846732855 0.1379999965429306 255 231 223
0.07269023358821869 0.007223480846732855 0.1379999965429306 248 215 214
0.07301472872495651 0.007223480846732855 0.1379999965429306 233 200 199
0.07333921641111374 0.007223480846732855 0.1379999965429306 242 188 189
0.07366371154785156 0.007223480846732855 0.1379999965429306 238 184 185
0.07398820668458939 0.007223480846732855 0.1379999965429306 238 173 173
0.07431269437074661 0.007223480846732855 0.1379999965429306 235 170 170
0.07409633696079254 0.0071711367927491665 0.13699999451637268 239 174 172
0.07441847771406174 0.0071711367927491665 0.13699999451637268 232 167 165
0.07474061846733093 0.0071711367927491665 0.13699999451637268 230 168 165
0.07451485842466354 0.007118792738765478 0.13600000739097595 225 163 160
0.07483465224504471 0.007118792738765478 0.13600000739097595 227 170 163
0.07515443861484528 0.007118792738765478 0.13600000739097595 216 159 152
0.07547422498464584 0.007118792738765478 0.13600000739097595 198 147 133
0.07579401880502701 0.007118792738765478 0.13600000739097595 177 126 112
0.07611380517482758 0.007118792738765478 0.13600000739097595 174 123 109
0.07675338536500931 0.007118792738765478 0.13600000739097595 205 152 137
0.07707317918539047 0.007118792738765478 0.13600000739097595 219 166 151
0.07739296555519104 0.007118792738765478 0.13600000739097595 219 168 154
0.07771275192499161 0.007118792738765478 0.13600000739097595 210 159 145
0.07803254574537277 0.007118792738765478 0.13600000739097595 209 161 155
0.07835233211517334 0.007118792738765478 0.13600000739097595 195 147 141
0.0786721259355545 0.007118792738765478 0.13600000739097595 197 147 142
0.07899191230535507 0.007118792738765478 0.13600000739097595 191 141 136
0.07931170612573624 0.007118792738765478 0.13600000739097595 183 133 126
0.0796314924955368 0.007118792738765478 0.13600000739097595 182 132 125
0.07995127886533737 0.007118792738765478 0.13600000739097595 184 136 128
0.08027107268571854 0.007118792738765478 0.13600000739097595 184 136 128
0.0805908590555191 0.007118792738765478 0.13600000739097595 172 125 114
0.08091065287590027 0.007118792738765478 0.13600000739097595 175 128 117
0.08123043924570084 0.007118792738765478 0.13600000739097595 185 128 119
0.0825095996260643 0.007118792738765478 0.13600000739097595 175 122 105
0.08282938599586487 0.007118792738765478 0.13600000739097595 190 137 120
0.08314917981624603 0.007118792738765478 0.13600000739097595 189 141 124
0.0834689661860466 0.007118792738765478 0.13600000739097595 183 135 118
0.08378876000642776 0.007118792738765478 0.13600000739097595 184 132 121
0.08410854637622833 0.007118792738765478 0.13600000739097595 182 130 119
0.0844283327460289 0.007118792738765478 0.13600000739097595 180 128 117
0.08474812656641006 0.007118792738765478 0.13600000739097595 178 126 115
0.08506791293621063 0.007118792738765478 0.13600000739097595 177 125 116
0.0853877067565918 0.007118792738765478 0.13600000739097595 185 133 124
0.08794840425252914 0.0071711367927491665 0.13699999451637268 179 126 113
0.08827054500579834 0.0071711367927491665 0.13699999451637268 189 138 124
0.08859268575906754 0.0071711367927491665 0.13699999451637268 190 139 125
0.08891482651233673 0.0071711367927491665 0.13699999451637268 194 149 138
0.08923696726560593 0.0071711367927491665 0.13699999451637268 198 153 142
0.08955910801887512 0.0071711367927491665 0.13699999451637268 180 137 132
0.08988124877214432 0.0071711367927491665 0.13699999451637268 184 141 136
0.09020338952541351 0.0071711367927491665 0.13699999451637268 173 131 130
0.09052553027868271 0.0071711367927491665 0.13699999451637268 170 128 127
0.0908476710319519 0.0071711367927491665 0.13699999451637268 173 130 132
0.0911698117852211 0.0071711367927491665 0.13699999451637268 170 127 129
0.0914919525384903 0.0071711367927491665 0.13699999451637268 170 126 126
0.054989226162433624 0.008094928227365017 0.14800000190734863 243 77 93
0.05533723160624504 0.008094928227365017 0.14800000190734863 255 98 114
0.05606149137020111 0.008149622939527035 0.14900000393390656 255 100 110
0.05641184747219086 0.008149622939527035 0.14900000393390656 255 105 115
0.0567622035741806 0.008149622939527035 0.14900000393390656 252 99 104
0.05711256340146065 0.008149622939527035 0.14900000393390656 250 97 102
0.057462919503450394 0.008149622939527035 0.14900000393390656 249 97 99
0.05781327933073044 0.008149622939527035 0.14900000393390656 252 100 102
0.058163635432720184 0.008149622939527035 0.14900000393390656 249 97 97
0.05851399526000023 0.008149622939527035 0.14900000393390656 252 100 100
0.058864351361989975 0.008149622939527035 0.14900000393390656 255 111 111
0.05921470746397972 0.008149622939527035 0.14900000393390656 255 116 116
0.059565067291259766 0.008149622939527035 0.14900000393390656 252 121 121
0.060317542403936386 0.008204318583011627 0.15000000596046448 255 129 129
0.06067024916410446 0.008204318583011627 0.15000000596046448 255 137 133
0.061022959649562836 0.008204318583011627 0.15000000596046448 255 141 137
0.06137567013502121 0.008204318583011627 0.15000000596046448 255 144 137
0.061728376895189285 0.008204318583011627 0.15000000596046448 255 148 141
0.06208108738064766 0.008204318583011627 0.15000000596046448 254 147 139
0.06243379786610603 0.008204318583011627 0.15000000596046448 255 148 140
0.06278650462627411 0.008204318583011627 0.15000000596046448 248 146 138
0.06271828711032867 0.008149622939527035 0.14900000393390656 253 151 143
0.06306864321231842 0.008149622939527035 0.14900000393390656 245 151 143
0.0629933699965477 0.008094928227365017 0.14800000190734863 242 148 140
0.06334137916564941 0.008094928227365017 0.14800000190734863 239 198 188
0.0632590502500534 0.008040232583880424 0.1469999998807907 255 243 233
0.06360470503568649 0.008040232583880424 0.1469999998807907 255 255 245
0.0635153204202652 0.007985536940395832 0.1459999978542328 255 255 245
0.06385862827301025 0.007985536940395832 0.1459999978542328 254 255 249
0.06420192867517471 0.007985536940395832 0.1459999978542328 254 255 249
0.06454523652791977 0.007985536940395832 0.1459999978542328 254 255 249
0.06488853693008423 0.007985536940395832 0.1459999978542328 254 255 249
0.06478504836559296 0.00793084129691124 0.14499999582767487 254 255 249
0.06512600183486938 0.00793084129691124 0.14499999582767487 254 255 249
0.06546695530414581 0.00793084129691124 0.14499999582767487 254 255 249
0.06580790132284164 0.00793084129691124 0.14499999582767487 253 254 248
0.06569265574216843 0.007876145653426647 0.14399999380111694 254 244 244
0.06603125482797623 0.007876145653426647 0.14399999380111694 246 236 236
0.06590895354747772 0.00782145094126463 0.14300000667572021 255 217 219
0.06624520570039749 0.00782145094126463 0.14300000667572021 244 206 208
0.06658145785331726 0.00782145094126463 0.14300000667572021 236 182 172
0.06644974648952484 0.00776675483211875 0.1420000046491623 242 188 178
0.06678364425897598 0.00776675483211875 0.1420000046491623 244 184 171
0.06711754202842712 0.00776675483211875 0.1420000046491623 233 173 160
0.06745143979787827 0.00776675483211875 0.1420000046491623 255 234 219
0.0677853375673294 0.00776675483211875 0.1420000046491623 255 248 233
0.06811923533678055 0.00776675483211875 0.1420000046491623 254 255 243
0.06845313310623169 0.00776675483211875 0.1420000046491623 254 255 243
0.06878703087568283 0.00776675483211875 0.1420000046491623 254 255 249
0.06912093609571457 0.00776675483211875 0.1420000046491623 254 255 249
0.06945483386516571 0.00776675483211875 0.1420000046491623 254 255 249
0.06929726153612137 0.0077120596542954445 0.14100000262260437 254 255 249
0.06962880492210388 0.0077120596542954445 0.14100000262260437 254 255 249
0.0699603483080864 0.0077120596542954445 0.14100000262260437 254 255 249
0.06979337334632874 0.007657364010810852 0.14000000059604645 254 255 249
0.07012256979942322 0.007657364010810852 0.14000000059604645 247 248 242
0.06994853913784027 0.007602668832987547 0.13899999856948853 244 234 232
0.07027538120746613 0.007602668832987547 0.13899999856948853 255 246 244
0.07060222327709198 0.007602668832987547 0.13899999856948853 253 210 216
0.07041878998279572 0.0075479731895029545 0.1379999965429306 236 193 199
0.07074327766895294 0.0075479731895029545 0.1379999965429306 223 164 169
0.07106777280569077 0.0075479731895029545 0.1379999965429306 212 153 158
0.07139226794242859 0.0075479731895029545 0.1379999965429306 193 140 134
0.07171675562858582 0.0075479731895029545 0.1379999965429306 216 163 157
0.07204125076532364 0.0075479731895029545 0.1379999965429306 255 231 223
0.07236573845148087 0.0075479731895029545 0.1379999965429306 255 244 236
0.07269023358821869 0.0075479731895029545 0.1379999965429306 255 223 222
0.07301472872495651 0.0075479731895029545 0.1379999965429306 233 200 199
0.07333921641111374 0.0075479731895029545 0.1379999965429306 249 193 197
0.07366371154785156 0.0075479731895029545 0.1379999965429306 242 186 190
0.07398820668458939 0.0075479731895029545 0.1379999965429306 244 177 178
0.07431269437074661 0.0075479731895029545 0.1379999965429306 239 172 173
0.07409633696079254 0.007493277546018362 0.13699999451637268 233 166 165
0.07441847771406174 0.007493277546018362 0.13699999451637268 229 162 161
0.07474061846733093 0.007493277546018362 0.13699999451637268 223 161 158
0.07451485842466354 0.007438582368195057 0.13600000739097595 222 160 157
0.07483465224504471 0.007438582368195057 0.13600000739097595 213 155 151
0.07515443861484528 0.007438582368195057 0.13600000739097595 206 148 144
0.07547422498464584 0.007438582368195057 0.13600000739097595 198 145 132
0.07579401880502701 0.007438582368195057 0.13600000739097595 191 138 125
0.07611380517482758 0.007438582368195057 0.13600000739097595 180 124 110
0.07675338536500931 0.007438582368195057 0.13600000739097595 195 139 125
0.07707317918539047 0.007438582368195057 0.13600000739097595 215 159 145
0.07739296555519104 0.007438582368195057 0.13600000739097595 219 166 153
0.07771275192499161 0.007438582368195057 0.13600000739097595 217 164 151
0.07803254574537277 0.007438582368195057 0.13600000739097595 214 161 155
0.07835233211517334 0.007438582368195057 0.13600000739097595 200 147 141
0.0786721259355545 0.007438582368195057 0.13600000739097595 189 139 132
0.07899191230535507 0.007438582368195057 0.13600000739097595 189 139 132
0.07931170612573624 0.007438582368195057 0.13600000739097595 185 136 126
0.0796314924955368 0.007438582368195057 0.13600000739097595 186 137 127
0.07995127886533737 0.007438582368195057 0.13600000739097595 182 135 124
0.08027107268571854 0.007438582368195057 0.13600000739097595 177 130 119
0.0805908590555191 0.007438582368195057 0.13600000739097595 174 125 115
0.08091065287590027 0.007438582368195057 0.13600000739097595 175 126 116
0.0825095996260643 0.007438582368195057 0.13600000739097595 177 121 105
0.08282938599586487 0.007438582368195057 0.13600000739097595 180 124 108
0.08314917981624603 0.007438582368195057 0.13600000739097595 184 128 114
0.0834689661860466 0.007438582368195057 0.13600000739097595 185 129 115
0.08378876000642776 0.007438582368195057 0.13600000739097595 182 128 118
0.08410854637622833 0.007438582368195057 0.13600000739097595 179 125 115
0.0844283327460289 0.007438582368195057 0.13600000739097595 179 125 115
0.08474812656641006 0.007438582368195057 0.13600000739097595 179 125 115
0.08506791293621063 0.007438582368195057 0.13600000739097595 176 122 114
0.0853877067565918 0.007438582368195057 0.13600000739097595 177 123 115
0.08794840425252914 0.007493277546018362 0.13699999451637268 185 129 117
0.08827054500579834 0.007493277546018362 0.13699999451637268 187 139 124
0.08859268575906754 0.007493277546018362 0.13699999451637268 189 141 126
0.08891482651233673 0.007493277546018362 0.13699999451637268 197 152 141
0.08923696726560593 0.007493277546018362 0.13699999451637268 192 147 136
0.08955910801887512 0.007493277546018362 0.13699999451637268 189 146 139
0.08988124877214432 0.007493277546018362 0.13699999451637268 186 143 136
0.09020338952541351 0.007493277546018362 0.13699999451637268 180 138 137
0.09052553027868271 0.007493277546018362 0.13699999451637268 176 134 133
0.0908476710319519 0.007493277546018362 0.13699999451637268 169 126 128
0.0911698117852211 0.007493277546018362 0.13699999451637268 170 127 129
0.0914919525384903 0.007493277546018362 0.13699999451637268 166 119 120
0.053945206105709076 0.008442933671176434 0.14800000190734863 255 81 94
0.05429321154952049 0.008442933671176434 0.14800000190734863 255 83 96
0.05464122071862221 0.008442933671176434 0.14800000190734863 254 77 90
0.054989226162433624 0.008442933671176434 0.14800000190734863 255 109 125
0.05533723160624504 0.008442933671176434 0.14800000190734863 255 104 120
0.05568523705005646 0.008442933671176434 0.14800000190734863 251 100 113
0.05603324621915817 0.008442933671176434 0.14800000190734863 254 103 116
0.05638125166296959 0.008442933671176434 0.14800000190734863 251 101 109
0.056729257106781006 0.008442933671176434 0.14800000190734863 248 98 106
0.057462919503450394 0.00849998090416193 0.14900000393390656 249 97 99
0.05781327933073044 0.00849998090416193 0.14900000393390656 251 99 101
0.058163635432720184 0.00849998090416193 0.14900000393390656 251 99 99
0.05851399526000023 0.00849998090416193 0.14900000393390656 249 97 97
0.058864351361989975 0.00849998090416193 0.14900000393390656 249 102 105
0.05921470746397972 0.00849998090416193 0.14900000393390656 255 115 118
0.059565067291259766 0.00849998090416193 0.14900000393390656 252 121 121
0.060317542403936386 0.008557028137147427 0.15000000596046448 255 132 132
0.06067024916410446 0.008557028137147427 0.15000000596046448 255 134 130
0.061022959649562836 0.008557028137147427 0.15000000596046448 255 137 133
0.06137567013502121 0.008557028137147427 0.15000000596046448 255 139 136
0.061728376895189285 0.008557028137147427 0.15000000596046448 255 140 137
0.06208108738064766 0.008557028137147427 0.15000000596046448 254 143 138
0.06243379786610603 0.008557028137147427 0.15000000596046448 255 148 143
0.06236792728304863 0.00849998090416193 0.14900000393390656 254 145 139
0.06271828711032867 0.00849998090416193 0.14900000393390656 252 143 137
0.06306864321231842 0.00849998090416193 0.14900000393390656 255 154 144
0.0629933699965477 0.008442933671176434 0.14800000190734863 245 143 133
0.06334137916564941 0.008442933671176434 0.14800000190734863 241 196 183
0.0632590502500534 0.008385887369513512 0.1469999998807907 255 242 229
0.06360470503568649 0.008385887369513512 0.1469999998807907 255 255 241
0.06395035982131958 0.008385887369513512 0.1469999998807907 255 255 241
0.06385862827301025 0.008328840136528015 0.1459999978542328 254 255 249
0.06420192867517471 0.008328840136528015 0.1459999978542328 254 255 249
0.06454523652791977 0.008328840136528015 0.1459999978542328 254 255 249
0.06488853693008423 0.008328840136528015 0.1459999978542328 254 255 249
0.06478504836559296 0.008271793834865093 0.14499999582767487 254 255 249
0.06512600183486938 0.008271793834865093 0.14499999582767487 254 255 249
0.06546695530414581 0.008271793834865093 0.14499999582767487 254 255 249
0.06580790132284164 0.008271793834865093 0.14499999582767487 250 251 245
0.06569265574216843 0.008214746601879597 0.14399999380111694 253 233 234
0.06603125482797623 0.008214746601879597 0.14399999380111694 251 231 232
0.06590895354747772 0.008157700300216675 0.14300000667572021 252 207 210
0.06624520570039749 0.008157700300216675 0.14300000667572021 245 200 203
0.06658145785331726 0.008157700300216675 0.14300000667572021 241 180 174
0.06644974648952484 0.008100653067231178 0.1420000046491623 234 173 167
0.06678364425897598 0.008100653067231178 0.1420000046491623 239 179 166
0.06711754202842712 0.008100653067231178 0.1420000046491623 223 163 150
0.06745143979787827 0.008100653067231178 0.1420000046491623 241 218 199
0.0677853375673294 0.008100653067231178 0.1420000046491623 255 250 231
0.06811923533678055 0.008100653067231178 0.1420000046491623 254 255 241
0.06845313310623169 0.008100653067231178 0.1420000046491623 254 255 241
0.06878703087568283 0.008100653067231178 0.1420000046491623 254 255 249
0.06912093609571457 0.008100653067231178 0.1420000046491623 254 255 249
0.06945483386516571 0.008100653067231178 0.1420000046491623 254 255 249
0.06978873163461685 0.008100653067231178 0.1420000046491623 254 255 249
0.06962880492210388 0.008043605834245682 0.14100000262260437 254 255 249
0.0699603483080864 0.008043605834245682 0.14100000262260437 254 255 249
0.06979337334632874 0.00798655953258276 0.14000000059604645 254 255 249
0.07012256979942322 0.00798655953258276 0.14000000059604645 252 253 247
0.06994853913784027 0.007929512299597263 0.13899999856948853 242 222 223
0.07027538120746613 0.007929512299597263 0.13899999856948853 252 232 233
0.07060222327709198 0.007929512299597263 0.13899999856948853 252 197 203
0.07041878998279572 0.007872465997934341 0.1379999965429306 238 183 189
0.07074327766895294 0.007872465997934341 0.1379999965429306 225 164 167
0.07106777280569077 0.007872465997934341 0.1379999965429306 214 153 156
0.07139226794242859 0.007872465997934341 0.1379999965429306 186 131 126
