-0.004228225443512201 0.00538264587521553 0.15000000596046448 218 243 222
-0.0038755161222070456 0.00538264587521553 0.15000000596046448 191 216 195
-0.0035462924279272556 0.005418530199676752 0.1509999930858612 166 193 173
-0.050783686339855194 0.008603032678365707 0.22499999403953552 55 56 45
-0.05025462061166763 0.008603032678365707 0.22499999403953552 58 59 48
-0.049946561455726624 0.008641268126666546 0.22599999606609344 60 62 51
-0.04941514506936073 0.008641268126666546 0.22599999606609344 61 63 52
-0.04888373240828514 0.008641268126666546 0.22599999606609344 69 71 60
-0.04856626316905022 0.008679503574967384 0.22699999809265137 81 83 72
-0.048032496124506 0.008679503574967384 0.22699999809265137 77 79 66
-0.047498732805252075 0.008679503574967384 0.22699999809265137 75 77 64
-0.046964965760707855 0.008679503574967384 0.22699999809265137 64 72 69
-0.021214952692389488 0.00539123360067606 0.14100000262260437 246 255 255
-0.020883405581116676 0.00539123360067606 0.14100000262260437 247 255 255
-0.020551860332489014 0.00539123360067606 0.14100000262260437 245 255 252
-0.020220313221216202 0.00539123360067606 0.14100000262260437 246 255 253
-0.01988876610994339 0.00539123360067606 0.14100000262260437 248 255 253
-0.01969592459499836 0.0054294695146381855 0.1420000046491623 248 255 253
-0.01936202682554722 0.0054294695146381855 0.1420000046491623 250 255 254
-0.019028127193450928 0.0054294695146381855 0.1420000046491623 249 255 253
-0.018694229423999786 0.0054294695146381855 0.1420000046491623 230 238 239
-0.018360331654548645 0.0054294695146381855 0.1420000046491623 205 213 214
-0.018026433885097504 0.0054294695146381855 0.1420000046491623 249 255 255
-0.017692536115646362 0.0054294695146381855 0.1420000046491623 249 255 255
-0.01735863834619522 0.0054294695146381855 0.1420000046491623 250 255 251
-0.01702474057674408 0.0054294695146381855 0.1420000046491623 250 255 251
-0.016690842807292938 0.0054294695146381855 0.1420000046491623 250 255 251
-0.016472134739160538 0.005467704962939024 0.14300000667572021 250 255 251
-0.016135884448885918 0.005467704962939024 0.14300000667572021 250 255 251
-0.015799636021256447 0.005467704962939024 0.14300000667572021 250 255 251
-0.015463385730981827 0.005467704962939024 0.14300000667572021 250 255 251
-0.01523292064666748 0.00550594087690115 0.14399999380111694 250 255 251
-0.014894319698214531 0.00550594087690115 0.14399999380111694 250 255 251
-0.014555719681084156 0.00550594087690115 0.14399999380111694 250 255 251
-0.014217118732631207 0.00550594087690115 0.14399999380111694 250 255 251
-0.013878517784178257 0.00550594087690115 0.14399999380111694 250 255 251
-0.013539916835725307 0.00550594087690115 0.14399999380111694 250 255 251
-0.013201316818594933 0.00550594087690115 0.14399999380111694 250 255 251
-0.012862715870141983 0.00550594087690115 0.14399999380111694 250 255 251
-0.012524114921689034 0.00550594087690115 0.14399999380111694 250 255 251
-0.012185513973236084 0.00550594087690115 0.14399999380111694 250 255 251
-0.011846913024783134 0.00550594087690115 0.14399999380111694 250 255 251
-0.01150831300765276 0.00550594087690115 0.14399999380111694 250 255 251
-0.01116971205919981 0.00550594087690115 0.14399999380111694 250 255 251
-0.01090632751584053 0.005544176325201988 0.14499999582767487 250 255 251
-0.010565374977886677 0.005544176325201988 0.14499999582767487 250 255 251
-0.010224423371255398 0.005544176325201988 0.14499999582767487 250 255 251
-0.009883470833301544 0.005544176325201988 0.14499999582767487 250 255 251
-0.009608329273760319 0.005582412239164114 0.1459999978542328 250 255 251
-0.009265025146305561 0.005582412239164114 0.1459999978542328 249 255 250
-0.008921721950173378 0.005582412239164114 0.1459999978542328 249 255 250
-0.00863717496395111 0.0056206476874649525 0.1469999998807907 250 255 251
-0.008291520178318024 0.0056206476874649525 0.1469999998807907 250 255 251
-0.007945865392684937 0.0056206476874649525 0.1469999998807907 250 255 251
-0.007600210141390562 0.0056206476874649525 0.1469999998807907 250 255 251
-0.007254555355757475 0.0056206476874649525 0.1469999998807907 250 255 251
-0.0069558992981910706 0.005658883601427078 0.14800000190734863 250 255 251
-0.006607893388718367 0.005658883601427078 0.14800000190734863 250 255 251
-0.006259887013584375 0.005658883601427078 0.14800000190734863 250 255 251
-0.005911880638450384 0.005658883601427078 0.14800000190734863 250 255 251
-0.005563874263316393 0.005658883601427078 0.14800000190734863 250 255 251
-0.005215867888182402 0.005658883601427078 0.14800000190734863 250 255 251
-0.004900752566754818 0.005697119049727917 0.14900000393390656 245 255 247
-0.00455039506778121 0.005697119049727917 0.14900000393390656 240 252 242
-0.004200037103146315 0.005697119049727917 0.14900000393390656 216 241 222
-0.0038755161222070456 0.0057353549636900425 0.15000000596046448 195 220 201
-0.0035462924279272556 0.005773590411990881 0.1509999930858612 173 200 180
-0.0228726863861084 0.005722780246287584 0.14100000262260437 242 240 254
-0.022541139274835587 0.005722780246287584 0.14100000262260437 252 255 254
-0.022209592163562775 0.005722780246287584 0.14100000262260437 250 253 252
-0.021878046914935112 0.005722780246287584 0.14100000262260437 250 255 254
-0.0215464998036623 0.005722780246287584 0.14100000262260437 250 255 254
-0.021214952692389488 0.005722780246287584 0.14100000262260437 249 255 254
-0.020883405581116676 0.005722780246287584 0.14100000262260437 249 255 254
-0.020551860332489014 0.005722780246287584 0.14100000262260437 250 255 254
-0.020220313221216202 0.005722780246287584 0.14100000262260437 250 255 254
-0.01988876610994339 0.005722780246287584 0.14100000262260437 250 255 254
-0.01969592459499836 0.005763367284089327 0.1420000046491623 250 255 254
-0.01936202682554722 0.005763367284089327 0.1420000046491623 252 255 254
-0.019028127193450928 0.005763367284089327 0.1420000046491623 252 255 254
-0.018694229423999786 0.005763367284089327 0.1420000046491623 246 252 252
-0.018360331654548645 0.005763367284089327 0.1420000046491623 238 244 244
-0.018026433885097504 0.005763367284089327 0.1420000046491623 248 255 253
-0.017692536115646362 0.005763367284089327 0.1420000046491623 249 255 254
-0.01735863834619522 0.005763367284089327 0.1420000046491623 250 255 254
-0.01702474057674408 0.005763367284089327 0.1420000046491623 250 255 254
-0.016690842807292938 0.005763367284089327 0.1420000046491623 250 255 251
-0.016472134739160538 0.005803954321891069 0.14300000667572021 250 255 251
-0.016135884448885918 0.005803954321891069 0.14300000667572021 252 255 251
-0.015799636021256447 0.005803954321891069 0.14300000667572021 252 255 251
-0.015463385730981827 0.005803954321891069 0.14300000667572021 252 255 251
-0.01523292064666748 0.005844541359692812 0.14399999380111694 252 255 251
-0.014894319698214531 0.005844541359692812 0.14399999380111694 252 255 251
-0.014555719681084156 0.005844541359692812 0.14399999380111694 252 255 251
-0.014217118732631207 0.005844541359692812 0.14399999380111694 252 255 251
-0.013878517784178257 0.005844541359692812 0.14399999380111694 252 255 251
-0.013539916835725307 0.005844541359692812 0.14399999380111694 252 255 251
-0.013201316818594933 0.005844541359692812 0.14399999380111694 252 255 251
-0.012862715870141983 0.005844541359692812 0.14399999380111694 252 255 251
-0.012524114921689034 0.005844541359692812 0.14399999380111694 252 255 251
-0.012185513973236084 0.005844541359692812 0.14399999380111694 252 255 251
-0.011846913024783134 0.005844541359692812 0.14399999380111694 252 255 251
-0.011588231660425663 0.0058851283974945545 0.14499999582767487 252 255 251
-0.01124727912247181 0.0058851283974945545 0.14499999582767487 252 255 251
-0.01090632751584053 0.0058851283974945545 0.14499999582767487 252 255 251
-0.010565374977886677 0.0058851283974945545 0.14499999582767487 252 255 251
-0.010224423371255398 0.0058851283974945545 0.14499999582767487 252 255 251
-0.009883470833301544 0.0058851283974945545 0.14499999582767487 252 255 251
-0.009608329273760319 0.005925715435296297 0.1459999978542328 250 255 251
-0.009265025146305561 0.005925715435296297 0.1459999978542328 250 255 251
-0.008921721950173378 0.005925715435296297 0.1459999978542328 250 255 251
-0.00863717496395111 0.005966302938759327 0.1469999998807907 248 255 249
-0.008291520178318024 0.005966302938759327 0.1469999998807907 245 252 246
-0.007945865392684937 0.005966302938759327 0.1469999998807907 250 255 251
-0.007600210141390562 0.005966302938759327 0.1469999998807907 250 255 251
-0.007303905673325062 0.0060068899765610695 0.14800000190734863 250 255 251
-0.0069558992981910706 0.0060068899765610695 0.14800000190734863 250 255 251
-0.006607893388718367 0.0060068899765610695 0.14800000190734863 250 255 251
-0.006259887013584375 0.0060068899765610695 0.14800000190734863 250 255 251
-0.005911880638450384 0.0060068899765610695 0.14800000190734863 250 255 251
-0.005563874263316393 0.0060068899765610695 0.14800000190734863 250 255 251
-0.005215867888182402 0.0060068899765610695 0.14800000190734863 250 255 251
-0.00486786151304841 0.0060068899765610695 0.14800000190734863 248 255 248
-0.00455039506778121 0.006047477014362812 0.14900000393390656 247 255 247
-0.004200037103146315 0.006047477014362812 0.14900000393390656 237 255 241
-0.0038755161222070456 0.006088064052164555 0.15000000596046448 196 218 200
-0.0035228070337325335 0.006088064052164555 0.15000000596046448 173 200 180
-0.02503829076886177 0.006097265053540468 0.1420000046491623 251 255 250
-0.02470439299941063 0.006097265053540468 0.1420000046491623 253 253 255
-0.024370495229959488 0.006097265053540468 0.1420000046491623 240 240 244
-0.024036597460508347 0.006097265053540468 0.1420000046491623 169 173 185
-0.02320423163473606 0.006054326891899109 0.14100000262260437 248 253 255
-0.0228726863861084 0.006054326891899109 0.14100000262260437 250 255 255
-0.022541139274835587 0.006054326891899109 0.14100000262260437 252 255 254
-0.022209592163562775 0.006054326891899109 0.14100000262260437 252 255 254
-0.021878046914935112 0.006054326891899109 0.14100000262260437 252 255 254
-0.0215464998036623 0.006054326891899109 0.14100000262260437 252 255 254
-0.021214952692389488 0.006054326891899109 0.14100000262260437 252 255 254
-0.020883405581116676 0.006054326891899109 0.14100000262260437 252 255 254
-0.020551860332489014 0.006054326891899109 0.14100000262260437 252 255 254
-0.020220313221216202 0.006054326891899109 0.14100000262260437 252 255 254
-0.01988876610994339 0.006054326891899109 0.14100000262260437 252 255 254
-0.01969592459499836 0.006097265053540468 0.1420000046491623 252 255 254
-0.01936202682554722 0.006097265053540468 0.1420000046491623 252 255 254
-0.019028127193450928 0.006097265053540468 0.1420000046491623 252 255 254
-0.018694229423999786 0.006097265053540468 0.1420000046491623 251 254 253
-0.018360331654548645 0.006097265053540468 0.1420000046491623 250 253 252
-0.018026433885097504 0.006097265053540468 0.1420000046491623 250 255 254
-0.017692536115646362 0.006097265053540468 0.1420000046491623 250 255 254
-0.01735863834619522 0.006097265053540468 0.1420000046491623 250 255 254
-0.01702474057674408 0.006097265053540468 0.1420000046491623 250 255 254
-0.016690842807292938 0.006097265053540468 0.1420000046491623 250 255 251
-0.016472134739160538 0.006140203680843115 0.14300000667572021 250 255 251
-0.016135884448885918 0.006140203680843115 0.14300000667572021 250 255 251
-0.015799636021256447 0.006140203680843115 0.14300000667572021 250 255 251
-0.015463385730981827 0.006140203680843115 0.14300000667572021 250 255 251
-0.01523292064666748 0.0061831423081457615 0.14399999380111694 250 255 251
-0.014894319698214531 0.0061831423081457615 0.14399999380111694 250 255 251
-0.014555719681084156 0.0061831423081457615 0.14399999380111694 250 255 251
-0.014217118732631207 0.0061831423081457615 0.14399999380111694 250 255 251
-0.013878517784178257 0.0061831423081457615 0.14399999380111694 250 255 251
-0.013539916835725307 0.0061831423081457615 0.14399999380111694 250 255 251
-0.013201316818594933 0.0061831423081457615 0.14399999380111694 250 255 251
-0.012862715870141983 0.0061831423081457615 0.14399999380111694 250 255 251
-0.012524114921689034 0.0061831423081457615 0.14399999380111694 250 255 251
-0.012185513973236084 0.0061831423081457615 0.14399999380111694 250 255 251
-0.011929183267056942 0.006226080935448408 0.14499999582767487 250 255 251
-0.011588231660425663 0.006226080935448408 0.14499999582767487 250 255 251
-0.01124727912247181 0.006226080935448408 0.14499999582767487 250 255 251
-0.01090632751584053 0.006226080935448408 0.14499999582767487 250 255 251
-0.010565374977886677 0.006226080935448408 0.14499999582767487 250 255 251
-0.010224423371255398 0.006226080935448408 0.14499999582767487 250 255 251
-0.009883470833301544 0.006226080935448408 0.14499999582767487 250 255 251
-0.009608329273760319 0.0062690190970897675 0.1459999978542328 250 255 251
-0.009265025146305561 0.0062690190970897675 0.1459999978542328 249 255 250
-0.008921721950173378 0.0062690190970897675 0.1459999978542328 247 255 247
-0.00863717496395111 0.006311957724392414 0.1469999998807907 247 255 247
-0.008291520178318024 0.006311957724392414 0.1469999998807907 245 255 243
-0.007945865392684937 0.006311957724392414 0.1469999998807907 249 255 247
-0.007600210141390562 0.006311957724392414 0.1469999998807907 250 255 249
-0.007303905673325062 0.006354896351695061 0.14800000190734863 250 255 249
-0.0069558992981910706 0.006354896351695061 0.14800000190734863 252 255 251
-0.006607893388718367 0.006354896351695061 0.14800000190734863 252 255 251
-0.006259887013584375 0.006354896351695061 0.14800000190734863 252 255 251
-0.005911880638450384 0.006354896351695061 0.14800000190734863 252 255 251
-0.005563874263316393 0.006354896351695061 0.14800000190734863 252 255 251
-0.005215867888182402 0.006354896351695061 0.14800000190734863 252 255 251
-0.00486786151304841 0.006354896351695061 0.14800000190734863 250 255 249
-0.00455039506778121 0.00639783451333642 0.14900000393390656 249 255 248
-0.004200037103146315 0.00639783451333642 0.14900000393390656 242 255 245
-0.003849679371342063 0.00639783451333642 0.14900000393390656 219 239 222
-0.0035228070337325335 0.006440773140639067 0.15000000596046448 166 193 171
-0.02588711678981781 0.00647645303979516 0.14300000667572021 248 255 253
-0.025372188538312912 0.006431163288652897 0.1420000046491623 249 255 253
-0.02503829076886177 0.006431163288652897 0.1420000046491623 249 255 253
-0.02470439299941063 0.006431163288652897 0.1420000046491623 252 255 255
-0.024370495229959488 0.006431163288652897 0.1420000046491623 252 255 255
-0.024036597460508347 0.006431163288652897 0.1420000046491623 244 252 253
-0.023702699691057205 0.006431163288652897 0.1420000046491623 237 245 246
-0.02320423163473606 0.0063858735375106335 0.14100000262260437 251 254 255
-0.0228726863861084 0.0063858735375106335 0.14100000262260437 252 255 255
-0.022541139274835587 0.0063858735375106335 0.14100000262260437 252 255 254
-0.022209592163562775 0.0063858735375106335 0.14100000262260437 252 255 254
-0.021878046914935112 0.0063858735375106335 0.14100000262260437 252 255 254
-0.0215464998036623 0.0063858735375106335 0.14100000262260437 252 255 254
-0.021214952692389488 0.0063858735375106335 0.14100000262260437 252 255 254
-0.020883405581116676 0.0063858735375106335 0.14100000262260437 252 255 254
-0.020551860332489014 0.0063858735375106335 0.14100000262260437 252 255 254
-0.020220313221216202 0.0063858735375106335 0.14100000262260437 252 255 254
-0.01988876610994339 0.0063858735375106335 0.14100000262260437 252 255 254
-0.01969592459499836 0.006431163288652897 0.1420000046491623 252 255 254
-0.01936202682554722 0.006431163288652897 0.1420000046491623 252 255 254
-0.019028127193450928 0.006431163288652897 0.1420000046491623 252 255 254
-0.018694229423999786 0.006431163288652897 0.1420000046491623 252 255 254
-0.018360331654548645 0.006431163288652897 0.1420000046491623 252 255 254
-0.018026433885097504 0.006431163288652897 0.1420000046491623 252 255 254
-0.017692536115646362 0.006431163288652897 0.1420000046491623 252 255 254
-0.01735863834619522 0.006431163288652897 0.1420000046491623 252 255 254
-0.01702474057674408 0.006431163288652897 0.1420000046491623 252 255 254
-0.01680838316679001 0.00647645303979516 0.14300000667572021 252 255 254
-0.016472134739160538 0.00647645303979516 0.14300000667572021 252 255 254
-0.016135884448885918 0.00647645303979516 0.14300000667572021 252 255 251
-0.015799636021256447 0.00647645303979516 0.14300000667572021 252 255 251
-0.015463385730981827 0.00647645303979516 0.14300000667572021 252 255 251
-0.01523292064666748 0.006521742790937424 0.14399999380111694 252 255 251
-0.014894319698214531 0.006521742790937424 0.14399999380111694 252 255 251
-0.014555719681084156 0.006521742790937424 0.14399999380111694 252 255 251
-0.014217118732631207 0.006521742790937424 0.14399999380111694 252 255 251
-0.013878517784178257 0.006521742790937424 0.14399999380111694 252 255 251
-0.013539916835725307 0.006521742790937424 0.14399999380111694 252 255 251
-0.013201316818594933 0.006521742790937424 0.14399999380111694 252 255 251
-0.012862715870141983 0.006521742790937424 0.14399999380111694 252 255 251
-0.012524114921689034 0.006521742790937424 0.14399999380111694 252 255 251
-0.012270135805010796 0.006567033007740974 0.14499999582767487 252 255 251
-0.011929183267056942 0.006567033007740974 0.14499999582767487 252 255 251
-0.011588231660425663 0.006567033007740974 0.14499999582767487 252 255 251
-0.01124727912247181 0.006567033007740974 0.14499999582767487 252 255 251
-0.01090632751584053 0.006567033007740974 0.14499999582767487 252 255 251
-0.010565374977886677 0.006567033007740974 0.14499999582767487 252 255 251
-0.010224423371255398 0.006567033007740974 0.14499999582767487 252 255 251
-0.009883470833301544 0.006567033007740974 0.14499999582767487 252 255 251
-0.009608329273760319 0.006612322758883238 0.1459999978542328 250 255 251
-0.009265025146305561 0.006612322758883238 0.1459999978542328 249 255 250
-0.008921721950173378 0.006612322758883238 0.1459999978542328 246 253 245
-0.008578418754041195 0.006612322758883238 0.1459999978542328 243 250 242
-0.008291520178318024 0.006657612510025501 0.1469999998807907 214 220 203
-0.007945865392684937 0.006657612510025501 0.1469999998807907 240 246 229
-0.007600210141390562 0.006657612510025501 0.1469999998807907 254 255 243
-0.007254555355757475 0.006657612510025501 0.1469999998807907 254 255 243
-0.0069558992981910706 0.006702902726829052 0.14800000190734863 252 255 247
-0.006607893388718367 0.006702902726829052 0.14800000190734863 252 255 247
-0.006259887013584375 0.006702902726829052 0.14800000190734863 252 255 249
-0.005911880638450384 0.006702902726829052 0.14800000190734863 252 255 249
-0.005563874263316393 0.006702902726829052 0.14800000190734863 252 255 251
-0.005215867888182402 0.006702902726829052 0.14800000190734863 252 255 251
-0.00486786151304841 0.006702902726829052 0.14800000190734863 252 255 249
-0.00455039506778121 0.006748192477971315 0.14900000393390656 251 255 248
-0.004200037103146315 0.006748192477971315 0.14900000393390656 243 255 242
-0.003849679371342063 0.006748192477971315 0.14900000393390656 232 247 231
-0.0035228070337325335 0.006793482229113579 0.15000000596046448 195 218 195
-0.02588711678981781 0.006812702398747206 0.14300000667572021 250 255 254
-0.025372188538312912 0.006765061058104038 0.1420000046491623 250 255 254
-0.02503829076886177 0.006765061058104038 0.1420000046491623 250 255 254
-0.02470439299941063 0.006765061058104038 0.1420000046491623 250 255 254
-0.024370495229959488 0.006765061058104038 0.1420000046491623 250 255 254
-0.024036597460508347 0.006765061058104038 0.1420000046491623 246 252 250
-0.023702699691057205 0.006765061058104038 0.1420000046491623 245 251 249
-0.02320423163473606 0.006717419717460871 0.14100000262260437 252 255 254
-0.0228726863861084 0.006717419717460871 0.14100000262260437 252 255 254
-0.022541139274835587 0.006717419717460871 0.14100000262260437 252 255 254
-0.022209592163562775 0.006717419717460871 0.14100000262260437 252 255 254
-0.021878046914935112 0.006717419717460871 0.14100000262260437 252 255 254
-0.0215464998036623 0.006717419717460871 0.14100000262260437 252 255 254
-0.021214952692389488 0.006717419717460871 0.14100000262260437 252 255 254
-0.020883405581116676 0.006717419717460871 0.14100000262260437 252 255 254
-0.020551860332489014 0.006717419717460871 0.14100000262260437 252 255 254
-0.020220313221216202 0.006717419717460871 0.14100000262260437 252 255 254
-0.01988876610994339 0.006717419717460871 0.14100000262260437 252 255 254
-0.01969592459499836 0.006765061058104038 0.1420000046491623 252 255 254
-0.01936202682554722 0.006765061058104038 0.1420000046491623 252 255 254
-0.019028127193450928 0.006765061058104038 0.1420000046491623 252 255 254
-0.018694229423999786 0.006765061058104038 0.1420000046491623 252 255 254
-0.018360331654548645 0.006765061058104038 0.1420000046491623 252 255 254
-0.018026433885097504 0.006765061058104038 0.1420000046491623 252 255 254
-0.017692536115646362 0.006765061058104038 0.1420000046491623 252 255 254
-0.01735863834619522 0.006765061058104038 0.1420000046491623 252 255 254
-0.01702474057674408 0.006765061058104038 0.1420000046491623 252 255 254
-0.01680838316679001 0.006812702398747206 0.14300000667572021 252 255 254
-0.016472134739160538 0.006812702398747206 0.14300000667572021 252 255 254
-0.016135884448885918 0.006812702398747206 0.14300000667572021 252 255 251
-0.015799636021256447 0.006812702398747206 0.14300000667572021 252 255 251
-0.01557152159512043 0.006860343739390373 0.14399999380111694 252 255 251
-0.01523292064666748 0.006860343739390373 0.14399999380111694 252 255 251
-0.014894319698214531 0.006860343739390373 0.14399999380111694 252 255 251
-0.014555719681084156 0.006860343739390373 0.14399999380111694 252 255 251
-0.014217118732631207 0.006860343739390373 0.14399999380111694 252 255 251
-0.013878517784178257 0.006860343739390373 0.14399999380111694 252 255 251
-0.013539916835725307 0.006860343739390373 0.14399999380111694 252 255 251
-0.013201316818594933 0.006860343739390373 0.14399999380111694 252 255 251
-0.012862715870141983 0.006860343739390373 0.14399999380111694 250 254 249
-0.01261108834296465 0.006907985080033541 0.14499999582767487 252 255 251
-0.012270135805010796 0.006907985080033541 0.14499999582767487 252 255 251
-0.011929183267056942 0.006907985080033541 0.14499999582767487 252 255 251
-0.011588231660425663 0.006907985080033541 0.14499999582767487 252 255 251
-0.01124727912247181 0.006907985080033541 0.14499999582767487 252 255 251
-0.01090632751584053 0.006907985080033541 0.14499999582767487 252 255 251
-0.010565374977886677 0.006907985080033541 0.14499999582767487 252 255 251
-0.010224423371255398 0.006907985080033541 0.14499999582767487 252 255 251
-0.009883470833301544 0.006907985080033541 0.14499999582767487 252 255 251
-0.009608329273760319 0.006955626420676708 0.1459999978542328 252 255 251
-0.009265025146305561 0.006955626420676708 0.1459999978542328 251 255 250
-0.008921721950173378 0.006955626420676708 0.1459999978542328 249 254 244
-0.008578418754041195 0.006955626420676708 0.1459999978542328 250 255 245
-0.008291520178318024 0.007003267761319876 0.1469999998807907 211 212 185
-0.007945865392684937 0.007003267761319876 0.1469999998807907 220 221 194
-0.007600210141390562 0.007003267761319876 0.1469999998807907 254 253 225
-0.007254555355757475 0.007003267761319876 0.1469999998807907 255 255 229
-0.0069558992981910706 0.007050908636301756 0.14800000190734863 254 255 241
-0.006607893388718367 0.007050908636301756 0.14800000190734863 254 255 241
-0.006259887013584375 0.007050908636301756 0.14800000190734863 252 255 247
-0.005911880638450384 0.007050908636301756 0.14800000190734863 252 255 247
-0.005563874263316393 0.007050908636301756 0.14800000190734863 252 255 249
-0.005215867888182402 0.007050908636301756 0.14800000190734863 252 255 249
-0.00486786151304841 0.007050908636301756 0.14800000190734863 252 255 249
-0.004519855137914419 0.007050908636301756 0.14800000190734863 252 255 249
-0.004200037103146315 0.007098549976944923 0.14900000393390656 246 255 246
-0.003849679371342063 0.007098549976944923 0.14900000393390656 246 255 246
-0.0034993216395378113 0.007098549976944923 0.14900000393390656 203 224 200
-0.02503829076886177 0.007098959293216467 0.1420000046491623 252 255 254
-0.02470439299941063 0.007098959293216467 0.1420000046491623 252 255 254
-0.024370495229959488 0.007098959293216467 0.1420000046491623 252 255 254
-0.024036597460508347 0.007098959293216467 0.1420000046491623 252 255 254
-0.023702699691057205 0.007098959293216467 0.1420000046491623 252 255 254
-0.023368801921606064 0.007098959293216467 0.1420000046491623 252 255 254
-0.0228726863861084 0.007048966363072395 0.14100000262260437 252 255 254
-0.022541139274835587 0.007048966363072395 0.14100000262260437 252 255 254
-0.022209592163562775 0.007048966363072395 0.14100000262260437 252 255 254
-0.021878046914935112 0.007048966363072395 0.14100000262260437 252 255 254
-0.0215464998036623 0.007048966363072395 0.14100000262260437 252 255 254
-0.021214952692389488 0.007048966363072395 0.14100000262260437 252 255 254
-0.020883405581116676 0.007048966363072395 0.14100000262260437 252 255 254
-0.020551860332489014 0.007048966363072395 0.14100000262260437 252 255 254
-0.020220313221216202 0.007048966363072395 0.14100000262260437 252 255 254
-0.0200298223644495 0.007098959293216467 0.1420000046491623 252 255 254
-0.01969592459499836 0.007098959293216467 0.1420000046491623 252 255 254
-0.01936202682554722 0.007098959293216467 0.1420000046491623 252 255 254
-0.019028127193450928 0.007098959293216467 0.1420000046491623 252 255 254
-0.018694229423999786 0.007098959293216467 0.1420000046491623 252 255 254
-0.018360331654548645 0.007098959293216467 0.1420000046491623 252 255 254
-0.018026433885097504 0.007098959293216467 0.1420000046491623 252 255 254
-0.017692536115646362 0.007098959293216467 0.1420000046491623 252 255 254
-0.01735863834619522 0.007098959293216467 0.1420000046491623 252 255 254
-0.01702474057674408 0.007098959293216467 0.1420000046491623 252 255 254
-0.01680838316679001 0.007148951757699251 0.14300000667572021 252 255 254
-0.016472134739160538 0.007148951757699251 0.14300000667572021 252 255 254
-0.016135884448885918 0.007148951757699251 0.14300000667572021 252 255 251
-0.015799636021256447 0.007148951757699251 0.14300000667572021 252 255 251
-0.01557152159512043 0.007198944687843323 0.14399999380111694 252 255 251
-0.01523292064666748 0.007198944687843323 0.14399999380111694 252 255 251
-0.014894319698214531 0.007198944687843323 0.14399999380111694 252 255 251
-0.014555719681084156 0.007198944687843323 0.14399999380111694 252 255 251
-0.014217118732631207 0.007198944687843323 0.14399999380111694 252 255 251
-0.013878517784178257 0.007198944687843323 0.14399999380111694 252 255 251
-0.013539916835725307 0.007198944687843323 0.14399999380111694 250 255 251
-0.013201316818594933 0.007198944687843323 0.14399999380111694 250 255 251
-0.012862715870141983 0.007198944687843323 0.14399999380111694 236 243 237
-0.01261108834296465 0.007248937152326107 0.14499999582767487 250 255 251
-0.012270135805010796 0.007248937152326107 0.14499999582767487 250 255 251
-0.011929183267056942 0.007248937152326107 0.14499999582767487 250 255 251
-0.011588231660425663 0.007248937152326107 0.14499999582767487 252 255 251
-0.01124727912247181 0.007248937152326107 0.14499999582767487 252 255 251
-0.01090632751584053 0.007248937152326107 0.14499999582767487 252 255 251
-0.010565374977886677 0.007248937152326107 0.14499999582767487 252 255 251
-0.010224423371255398 0.007248937152326107 0.14499999582767487 252 255 251
-0.009883470833301544 0.007248937152326107 0.14499999582767487 252 255 251
-0.00954251829534769 0.007248937152326107 0.14499999582767487 252 255 251
-0.009265025146305561 0.007298929616808891 0.1459999978542328 252 255 251
-0.008921721950173378 0.007298929616808891 0.1459999978542328 253 255 240
-0.008578418754041195 0.007298929616808891 0.1459999978542328 251 254 238
-0.008291520178318024 0.007348922546952963 0.1469999998807907 209 204 171
-0.007945865392684937 0.007348922546952963 0.1469999998807907 199 194 161
-0.007600210141390562 0.007348922546952963 0.1469999998807907 212 197 160
-0.007254555355757475 0.007348922546952963 0.1469999998807907 253 238 201
-0.0069089001044631 0.007348922546952963 0.1469999998807907 255 253 229
-0.006607893388718367 0.007398915011435747 0.14800000190734863 255 253 229
-0.006259887013584375 0.007398915011435747 0.14800000190734863 252 255 243
-0.005911880638450384 0.007398915011435747 0.14800000190734863 252 255 243
-0.005563874263316393 0.007398915011435747 0.14800000190734863 252 255 247
-0.005215867888182402 0.007398915011435747 0.14800000190734863 252 255 247
-0.00486786151304841 0.007398915011435747 0.14800000190734863 252 255 249
-0.004519855137914419 0.007398915011435747 0.14800000190734863 252 255 249
-0.004200037103146315 0.007448907941579819 0.14900000393390656 249 255 247
-0.003849679371342063 0.007448907941579819 0.14900000393390656 248 255 246
-0.0034993216395378113 0.007448907941579819 0.14900000393390656 236 252 229
-0.03216295689344406 0.007537545170634985 0.14399999380111694 222 227 217
-0.03182435780763626 0.007537545170634985 0.14399999380111694 239 240 234
-0.03148575499653816 0.007537545170634985 0.14399999380111694 244 245 239
-0.031147155910730362 0.007537545170634985 0.14399999380111694 250 243 235
-0.030808554962277412 0.007537545170634985 0.14399999380111694 245 238 230
-0.027422547340393066 0.007537545170634985 0.14399999380111694 252 255 251
-0.027083946391940117 0.007537545170634985 0.14399999380111694 252 255 251
-0.02655961364507675 0.007485201116651297 0.14300000667572021 252 255 251
-0.02622336521744728 0.007485201116651297 0.14300000667572021 252 255 251
-0.02588711678981781 0.007485201116651297 0.14300000667572021 252 255 251
-0.02555086649954319 0.007485201116651297 0.14300000667572021 252 255 251
-0.02521461807191372 0.007485201116651297 0.14300000667572021 252 255 251
-0.02470439299941063 0.007432857062667608 0.1420000046491623 252 255 251
-0.024370495229959488 0.007432857062667608 0.1420000046491623 252 255 251
-0.024036597460508347 0.007432857062667608 0.1420000046491623 252 255 251
-0.023702699691057205 0.007432857062667608 0.1420000046491623 252 255 251
-0.023368801921606064 0.007432857062667608 0.1420000046491623 252 255 251
-0.023034904152154922 0.007432857062667608 0.1420000046491623 252 255 251
-0.022541139274835587 0.00738051300868392 0.14100000262260437 252 255 251
-0.022209592163562775 0.00738051300868392 0.14100000262260437 252 255 251
-0.021878046914935112 0.00738051300868392 0.14100000262260437 252 255 251
-0.0215464998036623 0.00738051300868392 0.14100000262260437 252 255 251
-0.021214952692389488 0.00738051300868392 0.14100000262260437 252 255 251
-0.020883405581116676 0.00738051300868392 0.14100000262260437 252 255 251
-0.020551860332489014 0.00738051300868392 0.14100000262260437 252 255 251
-0.020220313221216202 0.00738051300868392 0.14100000262260437 252 255 251
-0.0200298223644495 0.007432857062667608 0.1420000046491623 252 255 251
-0.01969592459499836 0.007432857062667608 0.1420000046491623 252 255 251
-0.01936202682554722 0.007432857062667608 0.1420000046491623 252 255 251
-0.019028127193450928 0.007432857062667608 0.1420000046491623 252 255 251
-0.018694229423999786 0.007432857062667608 0.1420000046491623 252 255 251
-0.018360331654548645 0.007432857062667608 0.1420000046491623 252 255 251
-0.018026433885097504 0.007432857062667608 0.1420000046491623 252 255 251
-0.017692536115646362 0.007432857062667608 0.1420000046491623 252 255 251
-0.01735863834619522 0.007432857062667608 0.1420000046491623 252 255 251
-0.01702474057674408 0.007432857062667608 0.1420000046491623 252 255 251
-0.01680838316679001 0.007485201116651297 0.14300000667572021 252 255 251
-0.016472134739160538 0.007485201116651297 0.14300000667572021 252 255 251
-0.016135884448885918 0.007485201116651297 0.14300000667572021 252 255 251
-0.015799636021256447 0.007485201116651297 0.14300000667572021 252 255 251
-0.01557152159512043 0.007537545170634985 0.14399999380111694 252 255 251
-0.01523292064666748 0.007537545170634985 0.14399999380111694 252 255 251
-0.014894319698214531 0.007537545170634985 0.14399999380111694 252 255 251
-0.014555719681084156 0.007537545170634985 0.14399999380111694 252 255 251
-0.014217118732631207 0.007537545170634985 0.14399999380111694 252 255 251
-0.013878517784178257 0.007537545170634985 0.14399999380111694 252 255 251
-0.013539916835725307 0.007537545170634985 0.14399999380111694 250 255 251
-0.013201316818594933 0.007537545170634985 0.14399999380111694 247 254 248
-0.012952039949595928 0.007589889224618673 0.14499999582767487 216 224 221
-0.01261108834296465 0.007589889224618673 0.14499999582767487 246 254 251
-0.012270135805010796 0.007589889224618673 0.14499999582767487 249 255 251
-0.011929183267056942 0.007589889224618673 0.14499999582767487 249 255 251
-0.011588231660425663 0.007589889224618673 0.14499999582767487 250 255 251
-0.01124727912247181 0.007589889224618673 0.14499999582767487 250 255 251
-0.01090632751584053 0.007589889224618673 0.14499999582767487 250 255 251
-0.010565374977886677 0.007589889224618673 0.14499999582767487 250 255 251
-0.010224423371255398 0.007589889224618673 0.14499999582767487 250 255 251
-0.009883470833301544 0.007589889224618673 0.14499999582767487 250 255 251
-0.00954251829534769 0.007589889224618673 0.14499999582767487 250 255 251
-0.009201566688716412 0.007589889224618673 0.14499999582767487 250 255 251
-0.008921721950173378 0.007642233278602362 0.1459999978542328 254 255 240
-0.008578418754041195 0.007642233278602362 0.1459999978542328 247 249 233
-0.008235114626586437 0.007642233278602362 0.1459999978542328 214 199 162
-0.007945865392684937 0.00769457733258605 0.1469999998807907 198 183 146
-0.007600210141390562 0.00769457733258605 0.1469999998807907 200 162 126
-0.007254555355757475 0.00769457733258605 0.1469999998807907 224 186 150
-0.0069089001044631 0.00769457733258605 0.1469999998807907 242 207 181
-0.006607893388718367 0.007746921386569738 0.14800000190734863 255 224 198
-0.006259887013584375 0.007746921386569738 0.14800000190734863 255 253 233
-0.005911880638450384 0.007746921386569738 0.14800000190734863 255 255 235
-0.005563874263316393 0.007746921386569738 0.14800000190734863 252 255 243
-0.005215867888182402 0.007746921386569738 0.14800000190734863 252 255 243
-0.00486786151304841 0.007746921386569738 0.14800000190734863 252 255 247
-0.004519855137914419 0.007746921386569738 0.14800000190734863 252 255 247
-0.004171848762780428 0.007746921386569738 0.14800000190734863 250 255 247
-0.003849679371342063 0.007799265440553427 0.14900000393390656 249 255 246
-0.0034993216395378113 0.007799265440553427 0.14900000393390656 239 255 234
-0.03216295689344406 0.007876145653426647 0.14399999380111694 249 255 250
-0.03182435780763626 0.007876145653426647 0.14399999380111694 252 255 249
-0.03148575499653816 0.007876145653426647 0.14399999380111694 251 255 248
-0.031147155910730362 0.007876145653426647 0.14399999380111694 253 255 246
-0.030808554962277412 0.007876145653426647 0.14399999380111694 254 255 247
-0.030469954013824463 0.007876145653426647 0.14399999380111694 252 255 243
-0.029115552082657814 0.007876145653426647 0.14399999380111694 242 247 237
-0.028776951134204865 0.007876145653426647 0.14399999380111694 252 255 247
-0.028438350185751915 0.007876145653426647 0.14399999380111694 251 255 250
-0.027422547340393066 0.007876145653426647 0.14399999380111694 252 255 251
-0.027083946391940117 0.007876145653426647 0.14399999380111694 252 255 251
-0.02655961364507675 0.00782145094126463 0.14300000667572021 252 255 251
-0.02622336521744728 0.00782145094126463 0.14300000667572021 252 255 254
-0.02588711678981781 0.00782145094126463 0.14300000667572021 252 255 254
-0.02555086649954319 0.00782145094126463 0.14300000667572021 252 255 254
-0.02521461807191372 0.00782145094126463 0.14300000667572021 252 255 254
-0.02470439299941063 0.00776675483211875 0.1420000046491623 252 255 254
-0.024370495229959488 0.00776675483211875 0.1420000046491623 252 255 254
-0.024036597460508347 0.00776675483211875 0.1420000046491623 252 255 254
-0.023702699691057205 0.00776675483211875 0.1420000046491623 252 255 254
-0.023368801921606064 0.00776675483211875 0.1420000046491623 252 255 254
-0.023034904152154922 0.00776675483211875 0.1420000046491623 252 255 254
-0.022541139274835587 0.0077120596542954445 0.14100000262260437 252 255 254
-0.022209592163562775 0.0077120596542954445 0.14100000262260437 252 255 254
-0.021878046914935112 0.0077120596542954445 0.14100000262260437 252 255 254
-0.0215464998036623 0.0077120596542954445 0.14100000262260437 252 255 254
-0.021214952692389488 0.0077120596542954445 0.14100000262260437 252 255 254
-0.020883405581116676 0.0077120596542954445 0.14100000262260437 252 255 254
-0.020697617903351784 0.00776675483211875 0.1420000046491623 252 255 254
-0.020363720133900642 0.00776675483211875 0.1420000046491623 252 255 254
-0.0200298223644495 0.00776675483211875 0.1420000046491623 252 255 254
-0.01969592459499836 0.00776675483211875 0.1420000046491623 252 255 254
-0.01936202682554722 0.00776675483211875 0.1420000046491623 252 255 254
-0.019028127193450928 0.00776675483211875 0.1420000046491623 252 255 254
-0.018694229423999786 0.00776675483211875 0.1420000046491623 252 255 254
-0.018360331654548645 0.00776675483211875 0.1420000046491623 252 255 254
-0.018026433885097504 0.00776675483211875 0.1420000046491623 252 255 254
-0.017692536115646362 0.00776675483211875 0.1420000046491623 252 255 254
-0.01735863834619522 0.00776675483211875 0.1420000046491623 252 255 254
-0.01702474057674408 0.00776675483211875 0.1420000046491623 252 255 254
-0.01680838316679001 0.00782145094126463 0.14300000667572021 252 255 254
-0.016472134739160538 0.00782145094126463 0.14300000667572021 252 255 254
-0.016135884448885918 0.00782145094126463 0.14300000667572021 252 255 254
-0.015799636021256447 0.00782145094126463 0.14300000667572021 252 255 254
-0.015463385730981827 0.00782145094126463 0.14300000667572021 252 255 251
-0.01523292064666748 0.007876145653426647 0.14399999380111694 252 255 251
-0.014894319698214531 0.007876145653426647 0.14399999380111694 252 255 251
-0.014555719681084156 0.007876145653426647 0.14399999380111694 252 255 251
-0.014217118732631207 0.007876145653426647 0.14399999380111694 252 255 251
-0.013878517784178257 0.007876145653426647 0.14399999380111694 252 255 251
-0.013539916835725307 0.007876145653426647 0.14399999380111694 252 255 251
-0.013201316818594933 0.007876145653426647 0.14399999380111694 242 246 241
-0.012862715870141983 0.007876145653426647 0.14399999380111694 211 215 210
-0.012524114921689034 0.007876145653426647 0.14399999380111694 248 252 247
-0.012270135805010796 0.00793084129691124 0.14499999582767487 254 255 251
-0.011929183267056942 0.00793084129691124 0.14499999582767487 254 255 251
-0.011588231660425663 0.00793084129691124 0.14499999582767487 252 255 251
-0.01124727912247181 0.00793084129691124 0.14499999582767487 252 255 251
-0.01090632751584053 0.00793084129691124 0.14499999582767487 252 255 251
-0.010565374977886677 0.00793084129691124 0.14499999582767487 252 255 251
-0.010224423371255398 0.00793084129691124 0.14499999582767487 252 255 251
-0.009883470833301544 0.00793084129691124 0.14499999582767487 252 255 251
-0.00954251829534769 0.00793084129691124 0.14499999582767487 252 255 251
-0.009201566688716412 0.00793084129691124 0.14499999582767487 252 255 251
-0.008921721950173378 0.007985536940395832 0.1459999978542328 255 255 236
-0.008578418754041195 0.007985536940395832 0.1459999978542328 254 254 234
-0.008235114626586437 0.007985536940395832 0.1459999978542328 222 197 161
-0.007945865392684937 0.008040232583880424 0.1469999998807907 198 173 137
-0.007600210141390562 0.008040232583880424 0.1469999998807907 210 155 122
-0.007254555355757475 0.008040232583880424 0.1469999998807907 210 155 122
-0.0069089001044631 0.008040232583880424 0.1469999998807907 215 164 137
-0.006607893388718367 0.008094928227365017 0.14800000190734863 226 175 148
-0.006259887013584375 0.008094928227365017 0.14800000190734863 240 222 200
-0.005911880638450384 0.008094928227365017 0.14800000190734863 255 243 221
-0.005563874263316393 0.008094928227365017 0.14800000190734863 255 255 235
-0.005215867888182402 0.008094928227365017 0.14800000190734863 255 255 235
-0.00486786151304841 0.008094928227365017 0.14800000190734863 250 255 245
-0.004519855137914419 0.008094928227365017 0.14800000190734863 250 255 245
-0.004171848762780428 0.008094928227365017 0.14800000190734863 249 255 245
-0.003849679371342063 0.008149622939527035 0.14900000393390656 249 255 245
-0.0034993216395378113 0.008149622939527035 0.14900000393390656 223 239 218
-0.03340916708111763 0.008271793834865093 0.14499999582767487 171 179 176
-0.03284015879034996 0.008214746601879597 0.14399999380111694 240 248 245
-0.03250155970454216 0.008214746601879597 0.14399999380111694 249 255 251
-0.03216295689344406 0.008214746601879597 0.14399999380111694 249 255 251
-0.03182435780763626 0.008214746601879597 0.14399999380111694 250 255 251
-0.03148575499653816 0.008214746601879597 0.14399999380111694 250 255 251
-0.031147155910730362 0.008214746601879597 0.14399999380111694 252 255 251
-0.030808554962277412 0.008214746601879597 0.14399999380111694 252 255 251
-0.030469954013824463 0.008214746601879597 0.14399999380111694 251 255 248
-0.030131353065371513 0.008214746601879597 0.14399999380111694 250 254 247
-0.029792752116918564 0.008214746601879597 0.14399999380111694 251 255 248
-0.029454151168465614 0.008214746601879597 0.14399999380111694 250 254 247
-0.029115552082657814 0.008214746601879597 0.14399999380111694 250 254 247
-0.028776951134204865 0.008214746601879597 0.14399999380111694 252 255 249
-0.028438350185751915 0.008214746601879597 0.14399999380111694 252 255 251
-0.027422547340393066 0.008214746601879597 0.14399999380111694 252 255 251
-0.027083946391940117 0.008214746601879597 0.14399999380111694 252 255 251
-0.02655961364507675 0.008157700300216675 0.14300000667572021 252 255 251
-0.02622336521744728 0.008157700300216675 0.14300000667572021 252 255 251
-0.02588711678981781 0.008157700300216675 0.14300000667572021 252 255 251
-0.02555086649954319 0.008157700300216675 0.14300000667572021 252 255 251
-0.02521461807191372 0.008157700300216675 0.14300000667572021 252 255 251
-0.02470439299941063 0.008100653067231178 0.1420000046491623 252 255 251
-0.024370495229959488 0.008100653067231178 0.1420000046491623 252 255 251
-0.024036597460508347 0.008100653067231178 0.1420000046491623 252 255 251
-0.023702699691057205 0.008100653067231178 0.1420000046491623 252 255 251
-0.023368801921606064 0.008100653067231178 0.1420000046491623 252 255 251
-0.023034904152154922 0.008100653067231178 0.1420000046491623 252 255 251
-0.02270100638270378 0.008100653067231178 0.1420000046491623 252 255 251
-0.02236710675060749 0.008100653067231178 0.1420000046491623 252 255 251
-0.02203320898115635 0.008100653067231178 0.1420000046491623 252 255 251
-0.021699311211705208 0.008100653067231178 0.1420000046491623 252 255 251
-0.021365413442254066 0.008100653067231178 0.1420000046491623 252 255 251
-0.021031515672802925 0.008100653067231178 0.1420000046491623 252 255 251
-0.020697617903351784 0.008100653067231178 0.1420000046491623 252 255 251
-0.020363720133900642 0.008100653067231178 0.1420000046491623 252 255 251
-0.0200298223644495 0.008100653067231178 0.1420000046491623 252 255 251
-0.01969592459499836 0.008100653067231178 0.1420000046491623 252 255 251
-0.01936202682554722 0.008100653067231178 0.1420000046491623 252 255 251
-0.019028127193450928 0.008100653067231178 0.1420000046491623 252 255 251
-0.018694229423999786 0.008100653067231178 0.1420000046491623 252 255 251
-0.018360331654548645 0.008100653067231178 0.1420000046491623 252 255 251
-0.018026433885097504 0.008100653067231178 0.1420000046491623 252 255 251
-0.017692536115646362 0.008100653067231178 0.1420000046491623 252 255 251
-0.01735863834619522 0.008100653067231178 0.1420000046491623 252 255 251
-0.01714463345706463 0.008157700300216675 0.14300000667572021 252 255 251
-0.01680838316679001 0.008157700300216675 0.14300000667572021 252 255 251
-0.016472134739160538 0.008157700300216675 0.14300000667572021 252 255 251
-0.016135884448885918 0.008157700300216675 0.14300000667572021 252 255 251
-0.015799636021256447 0.008157700300216675 0.14300000667572021 252 255 251
-0.015463385730981827 0.008157700300216675 0.14300000667572021 252 255 251
-0.015127136372029781 0.008157700300216675 0.14300000667572021 252 255 251
-0.014894319698214531 0.008214746601879597 0.14399999380111694 252 255 251
-0.014555719681084156 0.008214746601879597 0.14399999380111694 252 255 251
-0.014217118732631207 0.008214746601879597 0.14399999380111694 252 255 251
-0.013878517784178257 0.008214746601879597 0.14399999380111694 252 255 251
-0.013539916835725307 0.008214746601879597 0.14399999380111694 252 255 251
-0.013201316818594933 0.008214746601879597 0.14399999380111694 251 255 250
-0.012862715870141983 0.008214746601879597 0.14399999380111694 201 205 200
-0.012524114921689034 0.008214746601879597 0.14399999380111694 212 216 211
-0.012185513973236084 0.008214746601879597 0.14399999380111694 255 250 245
-0.011929183267056942 0.008271793834865093 0.14499999582767487 255 252 247
-0.011588231660425663 0.008271793834865093 0.14499999582767487 254 255 247
-0.01124727912247181 0.008271793834865093 0.14499999582767487 254 255 247
-0.01090632751584053 0.008271793834865093 0.14499999582767487 252 255 249
-0.010565374977886677 0.008271793834865093 0.14499999582767487 252 255 249
-0.010224423371255398 0.008271793834865093 0.14499999582767487 252 255 249
-0.009883470833301544 0.008271793834865093 0.14499999582767487 252 255 249
-0.00954251829534769 0.008271793834865093 0.14499999582767487 252 255 249
-0.009201566688716412 0.008271793834865093 0.14499999582767487 252 255 249
-0.008921721950173378 0.008328840136528015 0.1459999978542328 255 255 234
-0.008578418754041195 0.008328840136528015 0.1459999978542328 252 252 230
-0.008235114626586437 0.008328840136528015 0.1459999978542328 234 200 165
-0.007945865392684937 0.008385887369513512 0.1469999998807907 206 172 137
-0.007600210141390562 0.008385887369513512 0.1469999998807907 224 157 124
-0.007254555355757475 0.008385887369513512 0.1469999998807907 226 159 126
-0.0069089001044631 0.008385887369513512 0.1469999998807907 229 169 138
-0.006563245318830013 0.008385887369513512 0.1469999998807907 215 155 124
-0.006259887013584375 0.008442933671176434 0.14800000190734863 209 169 143
-0.005911880638450384 0.008442933671176434 0.14800000190734863 242 202 176
-0.005563874263316393 0.008442933671176434 0.14800000190734863 237 230 201
-0.005215867888182402 0.008442933671176434 0.14800000190734863 255 249 220
-0.00486786151304841 0.008442933671176434 0.14800000190734863 251 255 236
-0.004519855137914419 0.008442933671176434 0.14800000190734863 250 255 235
-0.004171848762780428 0.008442933671176434 0.14800000190734863 246 255 238
-0.0038238426204770803 0.008442933671176434 0.14800000190734863 246 255 238
-0.0034993216395378113 0.00849998090416193 0.14900000393390656 225 243 220
-0.03340916708111763 0.008612745441496372 0.14499999582767487 241 247 245
-0.03284015879034996 0.008553347550332546 0.14399999380111694 249 255 253
-0.03250155970454216 0.008553347550332546 0.14399999380111694 250 255 251
-0.03216295689344406 0.008553347550332546 0.14399999380111694 250 255 251
-0.03182435780763626 0.008553347550332546 0.14399999380111694 250 255 251
-0.03148575499653816 0.008553347550332546 0.14399999380111694 250 255 251
