-0.005180625710636377 0.0021640986669808626 0.1469999998807907 194 208 188
-0.004834970459342003 0.0021640986669808626 0.1469999998807907 188 195 173
-0.004489315673708916 0.0021640986669808626 0.1469999998807907 179 186 164
-0.004171848762780428 0.002178820315748453 0.14800000190734863 183 185 167
-0.05213811621069908 0.003824386280030012 0.2240000069141388 142 147 137
-0.05161140486598015 0.003824386280030012 0.2240000069141388 122 130 119
-0.051084693521261215 0.003824386280030012 0.2240000069141388 121 129 118
-0.05055798217654228 0.003824386280030012 0.2240000069141388 53 67 56
-0.04980791360139847 0.0038073130417615175 0.22300000488758087 46 60 49
-0.049283552914857864 0.0038073130417615175 0.22300000488758087 56 81 62
-0.04854054003953934 0.0037902400363236666 0.22200000286102295 53 78 59
-0.04801853001117706 0.0037902400363236666 0.22200000286102295 46 75 57
-0.04728257283568382 0.003773166798055172 0.22100000083446503 44 73 55
-0.046762917190790176 0.003773166798055172 0.22100000083446503 48 77 76
-0.046034011989831924 0.0037560935597866774 0.2199999988079071 45 74 73
-0.04551670700311661 0.0037560935597866774 0.2199999988079071 21 46 51
-0.04499939829111099 0.0037560935597866774 0.2199999988079071 25 50 55
-0.04427989944815636 0.0037390205543488264 0.21899999678134918 26 52 54
-0.04376494511961937 0.0037390205543488264 0.21899999678134918 27 53 55
-0.012524114921689034 0.0024585339706391096 0.14399999380111694 193 192 199
-0.012185513973236084 0.0024585339706391096 0.14399999380111694 196 207 205
-0.011846913024783134 0.0024585339706391096 0.14399999380111694 197 208 206
-0.01150831300765276 0.0024585339706391096 0.14399999380111694 199 219 204
-0.01116971205919981 0.0024585339706391096 0.14399999380111694 210 230 215
-0.01083111111074686 0.0024585339706391096 0.14399999380111694 202 228 202
-0.010492510162293911 0.0024585339706391096 0.14399999380111694 201 227 201
-0.010153909213840961 0.0024585339706391096 0.14399999380111694 211 231 216
-0.009883470833301544 0.0024756072089076042 0.14499999582767487 198 218 203
-0.00954251829534769 0.0024756072089076042 0.14499999582767487 188 206 202
-0.009201566688716412 0.0024756072089076042 0.14499999582767487 181 199 195
-0.008860614150762558 0.0024756072089076042 0.14499999582767487 117 139 142
-0.008519662544131279 0.0024756072089076042 0.14499999582767487 64 86 89
-0.008178710006177425 0.0024756072089076042 0.14499999582767487 95 114 114
-0.007837758399546146 0.0024756072089076042 0.14499999582767487 197 216 216
-0.007496805861592293 0.0024756072089076042 0.14499999582767487 241 248 242
-0.007205204572528601 0.002492680447176099 0.1459999978542328 243 250 244
-0.00686190091073513 0.002492680447176099 0.1459999978542328 242 246 239
-0.00651859724894166 0.002492680447176099 0.1459999978542328 230 234 227
-0.0061752935871481895 0.002492680447176099 0.1459999978542328 232 242 230
-0.0058319903910160065 0.002492680447176099 0.1459999978542328 238 248 236
-0.0055262804962694645 0.0025097534526139498 0.1469999998807907 228 238 222
-0.005180625710636377 0.0025097534526139498 0.1469999998807907 216 226 210
-0.004834970459342003 0.0025097534526139498 0.1469999998807907 198 207 187
-0.004489315673708916 0.0025097534526139498 0.1469999998807907 196 205 185
-0.004171848762780428 0.0025268266908824444 0.14800000190734863 190 196 177
-0.05190535634756088 0.004331673961132765 0.22300000488758087 173 177 172
-0.05161140486598015 0.00435109855607152 0.2240000069141388 184 185 174
-0.051084693521261215 0.00435109855607152 0.2240000069141388 134 135 124
-0.05055798217654228 0.00435109855607152 0.2240000069141388 49 54 44
-0.04980791360139847 0.004331673961132765 0.22300000488758087 52 57 47
-0.049283552914857864 0.004331673961132765 0.22300000488758087 60 80 61
-0.04854054003953934 0.00431224936619401 0.22200000286102295 56 76 57
-0.04801853001117706 0.00431224936619401 0.22200000286102295 57 84 64
-0.04728257283568382 0.004292824771255255 0.22100000083446503 48 75 55
-0.046762917190790176 0.004292824771255255 0.22100000083446503 45 67 66
-0.046034011989831924 0.0042734001763165 0.2199999988079071 39 61 60
-0.04551670700311661 0.0042734001763165 0.2199999988079071 30 49 53
-0.04499939829111099 0.0042734001763165 0.2199999988079071 37 56 60
-0.013109640218317509 0.002777710324153304 0.14300000667572021 211 224 235
-0.012773390859365463 0.002777710324153304 0.14300000667572021 237 240 241
-0.012437141500413418 0.002777710324153304 0.14300000667572021 238 241 242
-0.012100892141461372 0.002777710324153304 0.14300000667572021 217 224 218
-0.011846913024783134 0.0027971346862614155 0.14399999380111694 238 245 239
-0.01150831300765276 0.0027971346862614155 0.14399999380111694 237 252 234
-0.01116971205919981 0.0027971346862614155 0.14399999380111694 238 253 235
-0.01083111111074686 0.0027971346862614155 0.14399999380111694 231 253 226
-0.010492510162293911 0.0027971346862614155 0.14399999380111694 232 254 227
-0.010153909213840961 0.0027971346862614155 0.14399999380111694 232 250 229
-0.009883470833301544 0.0028165592812001705 0.14499999582767487 218 236 215
-0.00954251829534769 0.0028165592812001705 0.14499999582767487 192 212 197
-0.009201566688716412 0.0028165592812001705 0.14499999582767487 189 209 194
-0.008860614150762558 0.0028165592812001705 0.14499999582767487 179 199 194
-0.008519662544131279 0.0028165592812001705 0.14499999582767487 115 135 130
-0.008178710006177425 0.0028165592812001705 0.14499999582767487 197 212 207
-0.007837758399546146 0.0028165592812001705 0.14499999582767487 243 255 253
-0.007496805861592293 0.0028165592812001705 0.14499999582767487 249 255 251
-0.007205204572528601 0.0028359838761389256 0.1459999978542328 248 255 250
-0.00686190091073513 0.0028359838761389256 0.1459999978542328 250 255 251
-0.00651859724894166 0.0028359838761389256 0.1459999978542328 249 255 250
-0.0061752935871481895 0.0028359838761389256 0.1459999978542328 247 255 245
-0.0058319903910160065 0.0028359838761389256 0.1459999978542328 241 251 239
-0.0055262804962694645 0.0028554084710776806 0.1469999998807907 245 255 245
-0.005180625710636377 0.0028554084710776806 0.1469999998807907 231 244 231
-0.004834970459342003 0.0028554084710776806 0.1469999998807907 211 225 205
-0.004519855137914419 0.0028748330660164356 0.14800000190734863 197 211 191
-0.004171848762780428 0.0028748330660164356 0.14800000190734863 185 199 177
-0.0038238426204770803 0.0028748330660164356 0.14800000190734863 168 182 160
-0.05138099566102028 0.0048560346476733685 0.22300000488758087 111 107 98
-0.051084693521261215 0.004877810832113028 0.2240000069141388 66 62 53
-0.05055798217654228 0.004877810832113028 0.2240000069141388 46 44 34
-0.04980791360139847 0.0048560346476733685 0.22300000488758087 61 59 49
-0.049283552914857864 0.0048560346476733685 0.22300000488758087 64 74 60
-0.04854054003953934 0.004834258928894997 0.22200000286102295 62 72 58
-0.04801853001117706 0.004834258928894997 0.22200000286102295 62 82 63
-0.04728257283568382 0.004812483210116625 0.22100000083446503 49 69 50
-0.046762917190790176 0.004812483210116625 0.22100000083446503 50 65 62
-0.046034011989831924 0.004790707025676966 0.2199999988079071 48 63 60
-0.04551670700311661 0.004790707025676966 0.2199999988079071 33 50 55
-0.04499939829111099 0.004790707025676966 0.2199999988079071 32 49 54
-0.0137821389362216 0.0031139596831053495 0.14300000667572021 66 90 104
-0.013445889577269554 0.0031139596831053495 0.14300000667572021 194 204 211
-0.013109640218317509 0.0031139596831053495 0.14300000667572021 244 254 255
-0.012773390859365463 0.0031139596831053495 0.14300000667572021 254 255 251
-0.012437141500413418 0.0031139596831053495 0.14300000667572021 254 255 251
-0.012100892141461372 0.0031139596831053495 0.14300000667572021 250 255 245
-0.011846913024783134 0.003135735634714365 0.14399999380111694 250 255 245
-0.01150831300765276 0.003135735634714365 0.14399999380111694 248 255 246
-0.01116971205919981 0.003135735634714365 0.14399999380111694 245 255 243
-0.01083111111074686 0.003135735634714365 0.14399999380111694 244 255 236
-0.010492510162293911 0.003135735634714365 0.14399999380111694 245 255 237
-0.010153909213840961 0.003135735634714365 0.14399999380111694 242 255 237
-0.009815309196710587 0.003135735634714365 0.14399999380111694 236 252 231
-0.00954251829534769 0.003157511353492737 0.14499999582767487 223 241 220
-0.009201566688716412 0.003157511353492737 0.14499999582767487 215 233 212
-0.008860614150762558 0.003157511353492737 0.14499999582767487 205 225 208
-0.008519662544131279 0.003157511353492737 0.14499999582767487 169 189 172
-0.008178710006177425 0.003157511353492737 0.14499999582767487 215 227 219
-0.007837758399546146 0.003157511353492737 0.14499999582767487 246 255 250
-0.007548507768660784 0.0031792873051017523 0.1459999978542328 250 255 254
-0.007205204572528601 0.0031792873051017523 0.1459999978542328 250 255 254
-0.00686190091073513 0.0031792873051017523 0.1459999978542328 250 255 251
-0.00651859724894166 0.0031792873051017523 0.1459999978542328 249 255 250
-0.0061752935871481895 0.0031792873051017523 0.1459999978542328 249 255 248
-0.0058319903910160065 0.0031792873051017523 0.1459999978542328 247 254 246
-0.005488686729222536 0.0031792873051017523 0.1459999978542328 246 255 244
-0.005180625710636377 0.0032010632567107677 0.1469999998807907 244 254 242
-0.004834970459342003 0.0032010632567107677 0.1469999998807907 223 241 218
-0.004519855137914419 0.003222839208319783 0.14800000190734863 199 217 194
-0.004171848762780428 0.003222839208319783 0.14800000190734863 189 208 182
-0.0038238426204770803 0.003222839208319783 0.14800000190734863 175 194 168
-0.05138099566102028 0.005380395799875259 0.22300000488758087 109 109 105
-0.051084693521261215 0.005404523108154535 0.2240000069141388 60 60 56
-0.05055798217654228 0.005404523108154535 0.2240000069141388 44 46 35
-0.04906255006790161 0.0053562684915959835 0.22200000286102295 61 71 57
-0.04854054003953934 0.0053562684915959835 0.22200000286102295 60 70 56
-0.04801853001117706 0.0053562684915959835 0.22200000286102295 63 73 57
-0.04728257283568382 0.005332141183316708 0.22100000083446503 60 70 54
-0.046762917190790176 0.005332141183316708 0.22100000083446503 59 71 63
-0.04624325782060623 0.005332141183316708 0.22100000083446503 60 72 64
-0.04551670700311661 0.005308013875037432 0.2199999988079071 42 56 62
-0.015355250798165798 0.0034260815009474754 0.1420000046491623 122 124 130
-0.015021352097392082 0.0034260815009474754 0.1420000046491623 145 147 153
-0.01468745432794094 0.0034260815009474754 0.1420000046491623 153 165 167
-0.0143535565584898 0.0034260815009474754 0.1420000046491623 161 173 175
-0.014019658789038658 0.0034260815009474754 0.1420000046491623 158 177 181
-0.0137821389362216 0.003450209042057395 0.14300000667572021 133 152 156
-0.013445889577269554 0.003450209042057395 0.14300000667572021 217 227 232
-0.013109640218317509 0.003450209042057395 0.14300000667572021 247 255 255
-0.012773390859365463 0.003450209042057395 0.14300000667572021 251 255 250
-0.012437141500413418 0.003450209042057395 0.14300000667572021 252 255 251
-0.012100892141461372 0.003450209042057395 0.14300000667572021 252 255 249
-0.011764642782509327 0.003450209042057395 0.14300000667572021 252 255 249
-0.01150831300765276 0.003474336350336671 0.14399999380111694 252 255 247
-0.01116971205919981 0.003474336350336671 0.14399999380111694 251 255 246
-0.01083111111074686 0.003474336350336671 0.14399999380111694 252 255 245
-0.010492510162293911 0.003474336350336671 0.14399999380111694 251 255 244
-0.010153909213840961 0.003474336350336671 0.14399999380111694 246 255 242
-0.009815309196710587 0.003474336350336671 0.14399999380111694 244 255 240
-0.00954251829534769 0.0034984636586159468 0.14499999582767487 242 255 235
-0.009201566688716412 0.0034984636586159468 0.14499999582767487 242 255 235
-0.008860614150762558 0.0034984636586159468 0.14499999582767487 228 244 223
-0.008519662544131279 0.0034984636586159468 0.14499999582767487 222 238 217
-0.008178710006177425 0.0034984636586159468 0.14499999582767487 241 248 240
-0.007837758399546146 0.0034984636586159468 0.14499999582767487 250 255 249
-0.007548507768660784 0.0035225909668952227 0.1459999978542328 250 255 251
-0.007205204572528601 0.0035225909668952227 0.1459999978542328 250 255 251
-0.00686190091073513 0.0035225909668952227 0.1459999978542328 250 255 251
-0.00651859724894166 0.0035225909668952227 0.1459999978542328 250 255 251
-0.0061752935871481895 0.0035225909668952227 0.1459999978542328 250 255 249
-0.0058319903910160065 0.0035225909668952227 0.1459999978542328 250 255 249
-0.005488686729222536 0.0035225909668952227 0.1459999978542328 248 255 245
-0.005180625710636377 0.0035467182751744986 0.1469999998807907 245 253 242
-0.004834970459342003 0.0035467182751744986 0.1469999998807907 229 248 222
-0.004519855137914419 0.0035708455834537745 0.14800000190734863 206 225 199
-0.004171848762780428 0.0035708455834537745 0.14800000190734863 188 210 179
-0.0038238426204770803 0.0035708455834537745 0.14800000190734863 170 192 161
-0.017236394807696342 0.003733500838279724 0.14100000262260437 54 74 85
-0.01690484769642353 0.003733500838279724 0.14100000262260437 71 91 102
-0.01657330058515072 0.003733500838279724 0.14100000262260437 105 122 127
-0.016241755336523056 0.003733500838279724 0.14100000262260437 141 158 163
-0.015910208225250244 0.003733500838279724 0.14100000262260437 184 197 194
-0.015689147636294365 0.0037599795032292604 0.1420000046491623 217 230 227
-0.015355250798165798 0.0037599795032292604 0.1420000046491623 234 238 231
-0.015021352097392082 0.0037599795032292604 0.1420000046491623 238 242 235
-0.01468745432794094 0.0037599795032292604 0.1420000046491623 233 244 240
-0.0143535565584898 0.0037599795032292604 0.1420000046491623 228 239 235
-0.014019658789038658 0.0037599795032292604 0.1420000046491623 221 238 239
-0.0137821389362216 0.0037864584010094404 0.14300000667572021 199 216 217
-0.013445889577269554 0.0037864584010094404 0.14300000667572021 215 228 227
-0.013109640218317509 0.0037864584010094404 0.14300000667572021 246 255 255
-0.012773390859365463 0.0037864584010094404 0.14300000667572021 250 255 251
-0.012437141500413418 0.0037864584010094404 0.14300000667572021 250 255 251
-0.012100892141461372 0.0037864584010094404 0.14300000667572021 250 255 251
-0.011764642782509327 0.0037864584010094404 0.14300000667572021 250 255 251
-0.011428393423557281 0.0037864584010094404 0.14300000667572021 252 255 251
-0.011092144064605236 0.0037864584010094404 0.14300000667572021 252 255 251
-0.01083111111074686 0.0038129370659589767 0.14399999380111694 252 255 251
-0.010492510162293911 0.0038129370659589767 0.14399999380111694 252 255 251
-0.010153909213840961 0.0038129370659589767 0.14399999380111694 249 255 248
-0.009815309196710587 0.0038129370659589767 0.14399999380111694 247 254 246
-0.009476708248257637 0.0038129370659589767 0.14399999380111694 242 253 234
-0.009201566688716412 0.003839415730908513 0.14499999582767487 228 239 220
-0.008860614150762558 0.003839415730908513 0.14499999582767487 234 245 226
-0.008519662544131279 0.003839415730908513 0.14499999582767487 225 236 217
-0.008178710006177425 0.003839415730908513 0.14499999582767487 251 255 244
-0.007837758399546146 0.003839415730908513 0.14499999582767487 251 255 244
-0.007496805861592293 0.003839415730908513 0.14499999582767487 252 255 251
-0.007205204572528601 0.0038658943958580494 0.1459999978542328 252 255 251
-0.00686190091073513 0.0038658943958580494 0.1459999978542328 252 255 251
-0.00651859724894166 0.0038658943958580494 0.1459999978542328 252 255 251
-0.0061752935871481895 0.0038658943958580494 0.1459999978542328 252 255 249
-0.0058319903910160065 0.0038658943958580494 0.1459999978542328 252 255 249
-0.005488686729222536 0.0038658943958580494 0.1459999978542328 249 255 246
-0.005180625710636377 0.0038923732936382294 0.1469999998807907 247 255 244
-0.004834970459342003 0.0038923732936382294 0.1469999998807907 237 255 230
-0.004519855137914419 0.003918851725757122 0.14800000190734863 222 241 215
-0.004171848762780428 0.003918851725757122 0.14800000190734863 195 220 185
-0.003849679371342063 0.003945330623537302 0.14900000393390656 175 200 165
-0.017443345859646797 0.004036217462271452 0.14000000059604645 99 112 123
-0.017114149406552315 0.004036217462271452 0.14000000059604645 134 151 152
-0.01690484769642353 0.004065047483891249 0.14100000262260437 191 208 209
-0.01657330058515072 0.004065047483891249 0.14100000262260437 227 242 237
-0.016241755336523056 0.004065047483891249 0.14100000262260437 241 255 251
-0.015910208225250244 0.004065047483891249 0.14100000262260437 248 255 248
-0.015689147636294365 0.0040938775055110455 0.1420000046491623 249 255 249
-0.015355250798165798 0.0040938775055110455 0.1420000046491623 252 255 251
-0.015021352097392082 0.0040938775055110455 0.1420000046491623 252 255 251
-0.01468745432794094 0.0040938775055110455 0.1420000046491623 250 255 254
-0.0143535565584898 0.0040938775055110455 0.1420000046491623 250 255 254
-0.014019658789038658 0.0040938775055110455 0.1420000046491623 245 255 255
-0.0137821389362216 0.004122707527130842 0.14300000667572021 228 241 238
-0.013445889577269554 0.004122707527130842 0.14300000667572021 219 227 224
-0.013109640218317509 0.004122707527130842 0.14300000667572021 248 255 253
-0.012773390859365463 0.004122707527130842 0.14300000667572021 252 255 251
-0.012437141500413418 0.004122707527130842 0.14300000667572021 252 255 251
-0.012100892141461372 0.004122707527130842 0.14300000667572021 252 255 251
-0.011764642782509327 0.004122707527130842 0.14300000667572021 252 255 251
-0.011428393423557281 0.004122707527130842 0.14300000667572021 252 255 251
-0.011092144064605236 0.004122707527130842 0.14300000667572021 252 255 251
-0.01083111111074686 0.004151537548750639 0.14399999380111694 252 255 251
-0.010492510162293911 0.004151537548750639 0.14399999380111694 252 255 251
-0.010153909213840961 0.004151537548750639 0.14399999380111694 250 255 249
-0.009815309196710587 0.004151537548750639 0.14399999380111694 248 255 247
-0.009476708248257637 0.004151537548750639 0.14399999380111694 245 253 238
-0.009201566688716412 0.004180368036031723 0.14499999582767487 235 243 228
-0.008860614150762558 0.004180368036031723 0.14499999582767487 242 249 227
-0.008519662544131279 0.004180368036031723 0.14499999582767487 247 254 232
-0.008178710006177425 0.004180368036031723 0.14499999582767487 253 255 240
-0.007837758399546146 0.004180368036031723 0.14499999582767487 254 255 241
-0.007496805861592293 0.004180368036031723 0.14499999582767487 252 255 247
-0.007205204572528601 0.00420919805765152 0.1459999978542328 252 255 247
-0.00686190091073513 0.00420919805765152 0.1459999978542328 252 255 249
-0.00651859724894166 0.00420919805765152 0.1459999978542328 252 255 249
-0.0061752935871481895 0.00420919805765152 0.1459999978542328 252 255 249
-0.0058319903910160065 0.00420919805765152 0.1459999978542328 252 255 249
-0.005488686729222536 0.00420919805765152 0.1459999978542328 252 255 249
-0.005180625710636377 0.0042380280792713165 0.1469999998807907 251 255 248
-0.004834970459342003 0.0042380280792713165 0.1469999998807907 240 255 235
-0.004519855137914419 0.004266858100891113 0.14800000190734863 229 247 224
-0.004171848762780428 0.004266858100891113 0.14800000190734863 211 235 203
-0.003849679371342063 0.004295688588172197 0.14900000393390656 193 217 185
-0.01777254045009613 0.0043654125183820724 0.14000000059604645 161 178 179
-0.017443345859646797 0.0043654125183820724 0.14000000059604645 223 240 241
-0.017114149406552315 0.0043654125183820724 0.14000000059604645 244 255 251
-0.01690484769642353 0.004396594129502773 0.14100000262260437 247 255 254
-0.01657330058515072 0.004396594129502773 0.14100000262260437 244 255 254
-0.016241755336523056 0.004396594129502773 0.14100000262260437 246 255 255
-0.015910208225250244 0.004396594129502773 0.14100000262260437 249 255 254
-0.015689147636294365 0.004427775274962187 0.1420000046491623 248 255 253
-0.015355250798165798 0.004427775274962187 0.1420000046491623 250 255 251
-0.015021352097392082 0.004427775274962187 0.1420000046491623 250 255 251
-0.01468745432794094 0.004427775274962187 0.1420000046491623 250 255 251
-0.0143535565584898 0.004427775274962187 0.1420000046491623 249 255 250
-0.014019658789038658 0.004427775274962187 0.1420000046491623 248 255 249
-0.0137821389362216 0.004458956886082888 0.14300000667572021 248 255 249
-0.013445889577269554 0.004458956886082888 0.14300000667572021 239 246 240
-0.013109640218317509 0.004458956886082888 0.14300000667572021 248 255 249
-0.012773390859365463 0.004458956886082888 0.14300000667572021 250 255 251
-0.012437141500413418 0.004458956886082888 0.14300000667572021 250 255 251
-0.012100892141461372 0.004458956886082888 0.14300000667572021 250 255 251
-0.011764642782509327 0.004458956886082888 0.14300000667572021 250 255 251
-0.011428393423557281 0.004458956886082888 0.14300000667572021 252 255 251
-0.011092144064605236 0.004458956886082888 0.14300000667572021 252 255 251
-0.01083111111074686 0.0044901384972035885 0.14399999380111694 252 255 251
-0.010492510162293911 0.0044901384972035885 0.14399999380111694 252 255 251
-0.010153909213840961 0.0044901384972035885 0.14399999380111694 252 255 251
-0.009815309196710587 0.0044901384972035885 0.14399999380111694 252 255 251
-0.009476708248257637 0.0044901384972035885 0.14399999380111694 250 255 245
-0.009138107299804688 0.0044901384972035885 0.14399999380111694 248 253 243
-0.008860614150762558 0.004521320108324289 0.14499999582767487 245 251 232
-0.008519662544131279 0.004521320108324289 0.14499999582767487 248 254 235
-0.008178710006177425 0.004521320108324289 0.14499999582767487 250 255 237
-0.007837758399546146 0.004521320108324289 0.14499999582767487 252 255 239
-0.007496805861592293 0.004521320108324289 0.14499999582767487 252 255 243
-0.007205204572528601 0.00455250171944499 0.1459999978542328 252 255 243
-0.00686190091073513 0.00455250171944499 0.1459999978542328 252 255 247
-0.00651859724894166 0.00455250171944499 0.1459999978542328 252 255 247
-0.0061752935871481895 0.00455250171944499 0.1459999978542328 252 255 247
-0.0058319903910160065 0.00455250171944499 0.1459999978542328 252 255 247
-0.005488686729222536 0.00455250171944499 0.1459999978542328 252 255 249
-0.005180625710636377 0.004583682864904404 0.1469999998807907 252 255 249
-0.004834970459342003 0.004583682864904404 0.1469999998807907 244 255 243
-0.004519855137914419 0.0046148644760251045 0.14800000190734863 236 251 235
-0.004171848762780428 0.0046148644760251045 0.14800000190734863 222 250 225
-0.0038238426204770803 0.0046148644760251045 0.14800000190734863 185 213 188
-0.021393688395619392 0.004694607574492693 0.14000000059604645 199 216 219
-0.02106449194252491 0.004694607574492693 0.14000000059604645 220 233 232
-0.020735297352075577 0.004694607574492693 0.14000000059604645 234 247 246
-0.020406102761626244 0.004694607574492693 0.14000000059604645 248 254 254
-0.02007690630853176 0.004694607574492693 0.14000000059604645 249 255 255
-0.019747711718082428 0.004694607574492693 0.14000000059604645 251 255 250
-0.019418517127633095 0.004694607574492693 0.14000000059604645 252 255 251
-0.019089320674538612 0.004694607574492693 0.14000000059604645 247 255 255
-0.01876012608408928 0.004694607574492693 0.14000000059604645 242 253 251
-0.018430931493639946 0.004694607574492693 0.14000000059604645 161 183 184
-0.018101735040545464 0.004694607574492693 0.14000000059604645 167 189 190
-0.01777254045009613 0.004694607574492693 0.14000000059604645 237 255 254
-0.017443345859646797 0.004694607574492693 0.14000000059604645 241 255 255
-0.017114149406552315 0.004694607574492693 0.14000000059604645 248 255 253
-0.01690484769642353 0.0047281403094530106 0.14100000262260437 249 255 254
-0.01657330058515072 0.0047281403094530106 0.14100000262260437 250 255 254
-0.016241755336523056 0.0047281403094530106 0.14100000262260437 250 255 254
-0.016023047268390656 0.0047616735100746155 0.1420000046491623 250 255 254
-0.015689147636294365 0.0047616735100746155 0.1420000046491623 250 255 254
-0.015355250798165798 0.0047616735100746155 0.1420000046491623 250 255 251
-0.015021352097392082 0.0047616735100746155 0.1420000046491623 250 255 251
-0.01468745432794094 0.0047616735100746155 0.1420000046491623 250 255 251
-0.0143535565584898 0.0047616735100746155 0.1420000046491623 250 255 251
-0.014019658789038658 0.0047616735100746155 0.1420000046491623 250 255 251
-0.0137821389362216 0.004795206245034933 0.14300000667572021 250 255 251
-0.013445889577269554 0.004795206245034933 0.14300000667572021 250 255 251
-0.013109640218317509 0.004795206245034933 0.14300000667572021 250 255 251
-0.012773390859365463 0.004795206245034933 0.14300000667572021 250 255 251
-0.012437141500413418 0.004795206245034933 0.14300000667572021 250 255 251
-0.012100892141461372 0.004795206245034933 0.14300000667572021 250 255 251
-0.011764642782509327 0.004795206245034933 0.14300000667572021 250 255 251
-0.011428393423557281 0.004795206245034933 0.14300000667572021 250 255 251
-0.011092144064605236 0.004795206245034933 0.14300000667572021 250 255 251
-0.01075589470565319 0.004795206245034933 0.14300000667572021 250 255 251
-0.010492510162293911 0.004828739445656538 0.14399999380111694 250 255 251
-0.010153909213840961 0.004828739445656538 0.14399999380111694 250 255 251
-0.009815309196710587 0.004828739445656538 0.14399999380111694 250 255 251
-0.009476708248257637 0.004828739445656538 0.14399999380111694 249 255 248
-0.009138107299804688 0.004828739445656538 0.14399999380111694 248 255 247
-0.008860614150762558 0.004862272180616856 0.14499999582767487 248 255 241
-0.008519662544131279 0.004862272180616856 0.14499999582767487 248 255 241
-0.008178710006177425 0.004862272180616856 0.14499999582767487 251 255 238
-0.007837758399546146 0.004862272180616856 0.14499999582767487 252 255 239
-0.007496805861592293 0.004862272180616856 0.14499999582767487 252 255 243
-0.007205204572528601 0.004895804915577173 0.1459999978542328 252 255 243
-0.00686190091073513 0.004895804915577173 0.1459999978542328 252 255 245
-0.00651859724894166 0.004895804915577173 0.1459999978542328 252 255 245
-0.0061752935871481895 0.004895804915577173 0.1459999978542328 252 255 247
-0.0058319903910160065 0.004895804915577173 0.1459999978542328 252 255 247
-0.0055262804962694645 0.004929338116198778 0.1469999998807907 252 255 247
-0.005180625710636377 0.004929338116198778 0.1469999998807907 252 255 247
-0.004834970459342003 0.004929338116198778 0.1469999998807907 247 255 245
-0.004519855137914419 0.004962870851159096 0.14800000190734863 240 250 238
-0.004171848762780428 0.004962870851159096 0.14800000190734863 215 244 222
-0.0038238426204770803 0.004962870851159096 0.14800000190734863 192 221 199
-0.022381272166967392 0.0050238026306033134 0.14000000059604645 216 229 226
-0.02205207757651806 0.0050238026306033134 0.14000000059604645 241 254 251
-0.021722882986068726 0.0050238026306033134 0.14000000059604645 246 255 255
-0.021393688395619392 0.0050238026306033134 0.14000000059604645 246 255 255
-0.02106449194252491 0.0050238026306033134 0.14000000059604645 248 255 255
-0.020735297352075577 0.0050238026306033134 0.14000000059604645 249 255 255
-0.020406102761626244 0.0050238026306033134 0.14000000059604645 250 255 254
-0.02007690630853176 0.0050238026306033134 0.14000000059604645 249 255 253
-0.019747711718082428 0.0050238026306033134 0.14000000059604645 251 254 253
-0.019418517127633095 0.0050238026306033134 0.14000000059604645 252 255 254
-0.019089320674538612 0.0050238026306033134 0.14000000059604645 248 255 255
-0.01876012608408928 0.0050238026306033134 0.14000000059604645 249 255 255
-0.018430931493639946 0.0050238026306033134 0.14000000059604645 230 245 242
-0.018101735040545464 0.0050238026306033134 0.14000000059604645 215 230 227
-0.01777254045009613 0.0050238026306033134 0.14000000059604645 246 255 254
-0.017443345859646797 0.0050238026306033134 0.14000000059604645 246 255 254
-0.017114149406552315 0.0050238026306033134 0.14000000059604645 250 255 254
-0.01690484769642353 0.005059686955064535 0.14100000262260437 250 255 254
-0.01657330058515072 0.005059686955064535 0.14100000262260437 250 255 254
-0.016356945037841797 0.005095571279525757 0.1420000046491623 250 255 254
-0.016023047268390656 0.005095571279525757 0.1420000046491623 250 255 254
-0.015689147636294365 0.005095571279525757 0.1420000046491623 250 255 254
-0.015463385730981827 0.0051314556039869785 0.14300000667572021 250 255 254
-0.015127136372029781 0.0051314556039869785 0.14300000667572021 250 255 254
-0.014790887013077736 0.0051314556039869785 0.14300000667572021 250 255 251
-0.01445463765412569 0.0051314556039869785 0.14300000667572021 250 255 251
-0.014118388295173645 0.0051314556039869785 0.14300000667572021 250 255 251
-0.0137821389362216 0.0051314556039869785 0.14300000667572021 250 255 251
-0.013445889577269554 0.0051314556039869785 0.14300000667572021 250 255 251
-0.013109640218317509 0.0051314556039869785 0.14300000667572021 250 255 251
-0.012773390859365463 0.0051314556039869785 0.14300000667572021 250 255 251
-0.012437141500413418 0.0051314556039869785 0.14300000667572021 250 255 251
-0.012100892141461372 0.0051314556039869785 0.14300000667572021 250 255 251
-0.011764642782509327 0.0051314556039869785 0.14300000667572021 250 255 251
-0.011428393423557281 0.0051314556039869785 0.14300000667572021 250 255 251
-0.011092144064605236 0.0051314556039869785 0.14300000667572021 250 255 251
-0.01075589470565319 0.0051314556039869785 0.14300000667572021 250 255 251
-0.010492510162293911 0.0051673399284482 0.14399999380111694 250 255 251
-0.010153909213840961 0.0051673399284482 0.14399999380111694 250 255 251
-0.009815309196710587 0.0051673399284482 0.14399999380111694 250 255 251
-0.009476708248257637 0.0051673399284482 0.14399999380111694 249 255 248
-0.009138107299804688 0.0051673399284482 0.14399999380111694 248 255 247
-0.008860614150762558 0.005203224252909422 0.14499999582767487 248 255 245
-0.008519662544131279 0.005203224252909422 0.14499999582767487 247 255 244
-0.008178710006177425 0.005203224252909422 0.14499999582767487 249 255 242
-0.007837758399546146 0.005203224252909422 0.14499999582767487 250 255 243
-0.007496805861592293 0.005203224252909422 0.14499999582767487 250 255 243
-0.007205204572528601 0.005239108577370644 0.1459999978542328 250 255 243
-0.00686190091073513 0.005239108577370644 0.1459999978542328 250 255 245
-0.00651859724894166 0.005239108577370644 0.1459999978542328 250 255 245
-0.0061752935871481895 0.005239108577370644 0.1459999978542328 250 255 247
-0.0058319903910160065 0.005239108577370644 0.1459999978542328 250 255 247
-0.0055262804962694645 0.005274992901831865 0.1469999998807907 250 255 247
-0.005180625710636377 0.005274992901831865 0.1469999998807907 250 255 247
-0.004834970459342003 0.005274992901831865 0.1469999998807907 249 255 247
-0.004519855137914419 0.005310877226293087 0.14800000190734863 247 255 245
-0.004171848762780428 0.005310877226293087 0.14800000190734863 231 255 235
-0.0038238426204770803 0.005310877226293087 0.14800000190734863 207 232 211
-0.026039985939860344 0.0054294695146381855 0.1420000046491623 224 223 225
-0.025706086307764053 0.0054294695146381855 0.1420000046491623 239 238 240
-0.025193512439727783 0.00539123360067606 0.14100000262260437 248 245 242
-0.02486196532845497 0.00539123360067606 0.14100000262260437 248 245 242
-0.02453041821718216 0.00539123360067606 0.14100000262260437 237 236 236
-0.024198872968554497 0.00539123360067606 0.14100000262260437 205 204 204
-0.023867325857281685 0.00539123360067606 0.14100000262260437 122 124 130
-0.02320423163473606 0.00539123360067606 0.14100000262260437 238 246 245
-0.0228726863861084 0.00539123360067606 0.14100000262260437 248 255 255
-0.022381272166967392 0.005352998152375221 0.14000000059604645 250 255 254
-0.02205207757651806 0.005352998152375221 0.14000000059604645 249 255 253
-0.021722882986068726 0.005352998152375221 0.14000000059604645 250 255 254
-0.021393688395619392 0.005352998152375221 0.14000000059604645 250 255 254
-0.02106449194252491 0.005352998152375221 0.14000000059604645 250 255 254
-0.020735297352075577 0.005352998152375221 0.14000000059604645 250 255 254
-0.020406102761626244 0.005352998152375221 0.14000000059604645 250 255 254
-0.02007690630853176 0.005352998152375221 0.14000000059604645 250 255 254
-0.019747711718082428 0.005352998152375221 0.14000000059604645 250 255 254
-0.019418517127633095 0.005352998152375221 0.14000000059604645 250 255 254
-0.019089320674538612 0.005352998152375221 0.14000000059604645 250 255 254
-0.01876012608408928 0.005352998152375221 0.14000000059604645 250 255 254
-0.018430931493639946 0.005352998152375221 0.14000000059604645 248 255 253
-0.018101735040545464 0.005352998152375221 0.14000000059604645 246 254 251
-0.01777254045009613 0.005352998152375221 0.14000000059604645 249 255 254
-0.017443345859646797 0.005352998152375221 0.14000000059604645 249 255 254
-0.017236394807696342 0.00539123360067606 0.14100000262260437 250 255 254
-0.01690484769642353 0.00539123360067606 0.14100000262260437 250 255 254
-0.016690842807292938 0.0054294695146381855 0.1420000046491623 250 255 254
-0.016356945037841797 0.0054294695146381855 0.1420000046491623 250 255 254
-0.016023047268390656 0.0054294695146381855 0.1420000046491623 250 255 254
-0.015799636021256447 0.005467704962939024 0.14300000667572021 250 255 254
-0.015463385730981827 0.005467704962939024 0.14300000667572021 250 255 254
-0.015127136372029781 0.005467704962939024 0.14300000667572021 250 255 254
-0.014790887013077736 0.005467704962939024 0.14300000667572021 250 255 251
-0.01445463765412569 0.005467704962939024 0.14300000667572021 250 255 251
-0.014118388295173645 0.005467704962939024 0.14300000667572021 250 255 251
-0.0137821389362216 0.005467704962939024 0.14300000667572021 250 255 251
-0.013445889577269554 0.005467704962939024 0.14300000667572021 250 255 251
-0.013109640218317509 0.005467704962939024 0.14300000667572021 250 255 251
-0.012773390859365463 0.005467704962939024 0.14300000667572021 250 255 251
-0.012437141500413418 0.005467704962939024 0.14300000667572021 250 255 251
-0.012100892141461372 0.005467704962939024 0.14300000667572021 250 255 251
-0.011764642782509327 0.005467704962939024 0.14300000667572021 250 255 251
-0.011428393423557281 0.005467704962939024 0.14300000667572021 250 255 251
-0.011092144064605236 0.005467704962939024 0.14300000667572021 250 255 251
-0.01075589470565319 0.005467704962939024 0.14300000667572021 250 255 251
-0.010419645346701145 0.005467704962939024 0.14300000667572021 250 255 251
-0.010153909213840961 0.00550594087690115 0.14399999380111694 250 255 251
-0.009815309196710587 0.00550594087690115 0.14399999380111694 250 255 251
-0.009476708248257637 0.00550594087690115 0.14399999380111694 250 255 251
-0.009138107299804688 0.00550594087690115 0.14399999380111694 249 255 250
-0.008799506351351738 0.00550594087690115 0.14399999380111694 249 255 246
-0.008519662544131279 0.005544176325201988 0.14499999582767487 248 255 245
-0.008178710006177425 0.005544176325201988 0.14499999582767487 249 255 244
-0.007837758399546146 0.005544176325201988 0.14499999582767487 250 255 245
-0.007496805861592293 0.005544176325201988 0.14499999582767487 250 255 243
-0.007205204572528601 0.005582412239164114 0.1459999978542328 250 255 243
-0.00686190091073513 0.005582412239164114 0.1459999978542328 250 255 245
-0.00651859724894166 0.005582412239164114 0.1459999978542328 250 255 245
-0.0061752935871481895 0.005582412239164114 0.1459999978542328 250 255 247
-0.0058319903910160065 0.005582412239164114 0.1459999978542328 250 255 247
-0.0055262804962694645 0.0056206476874649525 0.1469999998807907 250 255 247
-0.005180625710636377 0.0056206476874649525 0.1469999998807907 250 255 247
-0.004834970459342003 0.0056206476874649525 0.1469999998807907 250 255 245
-0.004489315673708916 0.0056206476874649525 0.1469999998807907 248 255 243
-0.004171848762780428 0.005658883601427078 0.14800000190734863 236 254 233
-0.0038238426204770803 0.005658883601427078 0.14800000190734863 220 238 217
-0.026707781478762627 0.005763367284089327 0.1420000046491623 247 255 255
-0.026373883709311485 0.005763367284089327 0.1420000046491623 246 255 255
-0.026039985939860344 0.005763367284089327 0.1420000046491623 250 253 252
-0.025706086307764053 0.005763367284089327 0.1420000046491623 251 254 253
-0.025193512439727783 0.005722780246287584 0.14100000262260437 252 255 254
-0.02486196532845497 0.005722780246287584 0.14100000262260437 252 255 254
-0.02453041821718216 0.005722780246287584 0.14100000262260437 251 254 255
-0.024198872968554497 0.005722780246287584 0.14100000262260437 250 253 254
-0.023867325857281685 0.005722780246287584 0.14100000262260437 216 221 226
-0.023535778746008873 0.005722780246287584 0.14100000262260437 214 219 224
-0.02320423163473606 0.005722780246287584 0.14100000262260437 249 255 255
-0.0228726863861084 0.005722780246287584 0.14100000262260437 249 255 255
-0.022381272166967392 0.005682193208485842 0.14000000059604645 250 255 254
-0.02205207757651806 0.005682193208485842 0.14000000059604645 250 255 254
-0.021722882986068726 0.005682193208485842 0.14000000059604645 250 255 254
-0.021393688395619392 0.005682193208485842 0.14000000059604645 250 255 254
-0.02106449194252491 0.005682193208485842 0.14000000059604645 250 255 254
-0.020735297352075577 0.005682193208485842 0.14000000059604645 250 255 254
-0.020406102761626244 0.005682193208485842 0.14000000059604645 252 255 254
-0.02007690630853176 0.005682193208485842 0.14000000059604645 252 255 254
-0.019747711718082428 0.005682193208485842 0.14000000059604645 252 255 254
-0.019418517127633095 0.005682193208485842 0.14000000059604645 252 255 254
-0.019089320674538612 0.005682193208485842 0.14000000059604645 252 255 254
-0.01876012608408928 0.005682193208485842 0.14000000059604645 252 255 254
-0.018430931493639946 0.005682193208485842 0.14000000059604645 252 255 254
-0.018101735040545464 0.005682193208485842 0.14000000059604645 252 255 254
-0.01777254045009613 0.005682193208485842 0.14000000059604645 252 255 254
-0.017443345859646797 0.005682193208485842 0.14000000059604645 252 255 254
-0.017236394807696342 0.005722780246287584 0.14100000262260437 252 255 254
-0.01690484769642353 0.005722780246287584 0.14100000262260437 252 255 254
-0.016690842807292938 0.005763367284089327 0.1420000046491623 252 255 254
-0.016356945037841797 0.005763367284089327 0.1420000046491623 252 255 254
-0.016135884448885918 0.005803954321891069 0.14300000667572021 252 255 254
-0.015799636021256447 0.005803954321891069 0.14300000667572021 252 255 254
-0.015463385730981827 0.005803954321891069 0.14300000667572021 252 255 254
-0.015127136372029781 0.005803954321891069 0.14300000667572021 252 255 254
-0.014790887013077736 0.005803954321891069 0.14300000667572021 252 255 251
-0.01445463765412569 0.005803954321891069 0.14300000667572021 252 255 251
-0.014118388295173645 0.005803954321891069 0.14300000667572021 252 255 251
-0.0137821389362216 0.005803954321891069 0.14300000667572021 252 255 251
-0.013445889577269554 0.005803954321891069 0.14300000667572021 252 255 251
-0.013109640218317509 0.005803954321891069 0.14300000667572021 252 255 251
-0.012773390859365463 0.005803954321891069 0.14300000667572021 252 255 251
-0.012437141500413418 0.005803954321891069 0.14300000667572021 252 255 251
-0.012100892141461372 0.005803954321891069 0.14300000667572021 252 255 251
-0.011764642782509327 0.005803954321891069 0.14300000667572021 252 255 251
-0.011428393423557281 0.005803954321891069 0.14300000667572021 252 255 251
-0.011092144064605236 0.005803954321891069 0.14300000667572021 252 255 251
-0.01075589470565319 0.005803954321891069 0.14300000667572021 252 255 251
-0.010419645346701145 0.005803954321891069 0.14300000667572021 252 255 251
-0.0100833959877491 0.005803954321891069 0.14300000667572021 252 255 251
-0.009815309196710587 0.005844541359692812 0.14399999380111694 252 255 251
-0.009476708248257637 0.005844541359692812 0.14399999380111694 252 255 249
-0.009138107299804688 0.005844541359692812 0.14399999380111694 251 255 248
-0.008799506351351738 0.005844541359692812 0.14399999380111694 250 254 247
-0.008519662544131279 0.0058851283974945545 0.14499999582767487 250 254 247
-0.008178710006177425 0.0058851283974945545 0.14499999582767487 251 255 240
-0.007837758399546146 0.0058851283974945545 0.14499999582767487 251 255 240
-0.007496805861592293 0.0058851283974945545 0.14499999582767487 252 255 241
-0.007205204572528601 0.005925715435296297 0.1459999978542328 252 255 241
-0.00686190091073513 0.005925715435296297 0.1459999978542328 252 255 245
-0.00651859724894166 0.005925715435296297 0.1459999978542328 252 255 245
-0.0061752935871481895 0.005925715435296297 0.1459999978542328 252 255 247
-0.0058319903910160065 0.005925715435296297 0.1459999978542328 252 255 247
-0.005488686729222536 0.005925715435296297 0.1459999978542328 252 255 247
-0.005180625710636377 0.005966302938759327 0.1469999998807907 252 255 247
-0.004834970459342003 0.005966302938759327 0.1469999998807907 252 255 247
-0.004489315673708916 0.005966302938759327 0.1469999998807907 252 255 247
-0.004171848762780428 0.0060068899765610695 0.14800000190734863 245 255 239
-0.0038238426204770803 0.0060068899765610695 0.14800000190734863 235 249 229
-0.02770947478711605 0.006097265053540468 0.1420000046491623 248 254 255
-0.02737557701766491 0.006097265053540468 0.1420000046491623 247 255 255
-0.027041679248213768 0.006097265053540468 0.1420000046491623 247 255 255
-0.026707781478762627 0.006097265053540468 0.1420000046491623 249 255 254
-0.026373883709311485 0.006097265053540468 0.1420000046491623 249 255 254
-0.025856604799628258 0.006054326891899109 0.14100000262260437 250 255 254
-0.025525057688355446 0.006054326891899109 0.14100000262260437 250 255 254
-0.025193512439727783 0.006054326891899109 0.14100000262260437 252 255 254
-0.02486196532845497 0.006054326891899109 0.14100000262260437 252 255 254
-0.02453041821718216 0.006054326891899109 0.14100000262260437 252 255 254
-0.024198872968554497 0.006054326891899109 0.14100000262260437 252 255 254
-0.023867325857281685 0.006054326891899109 0.14100000262260437 248 254 255
-0.023535778746008873 0.006054326891899109 0.14100000262260437 242 248 250
-0.02320423163473606 0.006054326891899109 0.14100000262260437 248 254 252
-0.0228726863861084 0.006054326891899109 0.14100000262260437 250 255 254
-0.022541139274835587 0.006054326891899109 0.14100000262260437 250 255 254
-0.022209592163562775 0.006054326891899109 0.14100000262260437 250 255 254
-0.021878046914935112 0.006054326891899109 0.14100000262260437 250 255 254
-0.0215464998036623 0.006054326891899109 0.14100000262260437 250 255 254
-0.02106449194252491 0.006011388264596462 0.14000000059604645 250 255 254
-0.020735297352075577 0.006011388264596462 0.14000000059604645 250 255 254
-0.020406102761626244 0.006011388264596462 0.14000000059604645 250 255 254
-0.02007690630853176 0.006011388264596462 0.14000000059604645 250 255 254
-0.019747711718082428 0.006011388264596462 0.14000000059604645 250 255 254
-0.019418517127633095 0.006011388264596462 0.14000000059604645 250 255 254
-0.019089320674538612 0.006011388264596462 0.14000000059604645 250 255 254
-0.01876012608408928 0.006011388264596462 0.14000000059604645 250 255 254
-0.018430931493639946 0.006011388264596462 0.14000000059604645 250 255 254
-0.018101735040545464 0.006011388264596462 0.14000000059604645 250 255 254
-0.01777254045009613 0.006011388264596462 0.14000000059604645 250 255 254
-0.017443345859646797 0.006011388264596462 0.14000000059604645 250 255 254
-0.017236394807696342 0.006054326891899109 0.14100000262260437 250 255 254
-0.01690484769642353 0.006054326891899109 0.14100000262260437 250 255 254
-0.016472134739160538 0.006140203680843115 0.14300000667572021 250 255 254
-0.016135884448885918 0.006140203680843115 0.14300000667572021 250 255 254
-0.015799636021256447 0.006140203680843115 0.14300000667572021 250 255 254
-0.015463385730981827 0.006140203680843115 0.14300000667572021 250 255 254
-0.015127136372029781 0.006140203680843115 0.14300000667572021 250 255 254
-0.014790887013077736 0.006140203680843115 0.14300000667572021 250 255 254
-0.01445463765412569 0.006140203680843115 0.14300000667572021 250 255 254
-0.014118388295173645 0.006140203680843115 0.14300000667572021 250 255 251
-0.0137821389362216 0.006140203680843115 0.14300000667572021 250 255 251
-0.013445889577269554 0.006140203680843115 0.14300000667572021 250 255 251
-0.013109640218317509 0.006140203680843115 0.14300000667572021 250 255 251
-0.012773390859365463 0.006140203680843115 0.14300000667572021 250 255 251
-0.012437141500413418 0.006140203680843115 0.14300000667572021 250 255 251
-0.012100892141461372 0.006140203680843115 0.14300000667572021 250 255 251
-0.011764642782509327 0.006140203680843115 0.14300000667572021 250 255 251
-0.011428393423557281 0.006140203680843115 0.14300000667572021 250 255 251
-0.011092144064605236 0.006140203680843115 0.14300000667572021 250 255 251
-0.01075589470565319 0.006140203680843115 0.14300000667572021 250 255 251
-0.010419645346701145 0.006140203680843115 0.14300000667572021 250 255 251
-0.0100833959877491 0.006140203680843115 0.14300000667572021 250 255 251
-0.009815309196710587 0.0061831423081457615 0.14399999380111694 250 255 251
-0.009476708248257637 0.0061831423081457615 0.14399999380111694 250 255 249
-0.009138107299804688 0.0061831423081457615 0.14399999380111694 249 255 248
-0.008799506351351738 0.0061831423081457615 0.14399999380111694 250 255 245
-0.008519662544131279 0.006226080935448408 0.14499999582767487 251 255 246
-0.008178710006177425 0.006226080935448408 0.14499999582767487 246 250 227
-0.007837758399546146 0.006226080935448408 0.14499999582767487 215 219 196
-0.007496805861592293 0.006226080935448408 0.14499999582767487 254 254 234
-0.007205204572528601 0.0062690190970897675 0.1459999978542328 255 255 237
-0.00686190091073513 0.0062690190970897675 0.1459999978542328 254 255 239
-0.00651859724894166 0.0062690190970897675 0.1459999978542328 254 255 239
-0.0061752935871481895 0.0062690190970897675 0.1459999978542328 252 255 247
-0.0058319903910160065 0.0062690190970897675 0.1459999978542328 252 255 247
-0.005488686729222536 0.0062690190970897675 0.1459999978542328 252 255 249
-0.005180625710636377 0.006311957724392414 0.1469999998807907 252 255 249
-0.004834970459342003 0.006311957724392414 0.1469999998807907 252 255 249
-0.004489315673708916 0.006311957724392414 0.1469999998807907 252 255 249
-0.0041436608880758286 0.006311957724392414 0.1469999998807907 249 255 240
-0.0038238426204770803 0.006354896351695061 0.14800000190734863 250 255 241
-0.028043372556567192 0.006431163288652897 0.1420000046491623 246 255 255
-0.02770947478711605 0.006431163288652897 0.1420000046491623 247 255 255
-0.02737557701766491 0.006431163288652897 0.1420000046491623 249 255 255
-0.027041679248213768 0.006431163288652897 0.1420000046491623 249 255 255
-0.026707781478762627 0.006431163288652897 0.1420000046491623 250 255 254
-0.026373883709311485 0.006431163288652897 0.1420000046491623 250 255 254
-0.025856604799628258 0.0063858735375106335 0.14100000262260437 250 255 254
-0.025525057688355446 0.0063858735375106335 0.14100000262260437 250 255 254
-0.025193512439727783 0.0063858735375106335 0.14100000262260437 250 255 254
-0.02486196532845497 0.0063858735375106335 0.14100000262260437 250 255 254
-0.02453041821718216 0.0063858735375106335 0.14100000262260437 250 255 254
-0.024198872968554497 0.0063858735375106335 0.14100000262260437 250 255 254
-0.023867325857281685 0.0063858735375106335 0.14100000262260437 249 255 253
-0.023535778746008873 0.0063858735375106335 0.14100000262260437 249 255 253
-0.02320423163473606 0.0063858735375106335 0.14100000262260437 250 255 254
-0.0228726863861084 0.0063858735375106335 0.14100000262260437 250 255 254
