-0.017847614362835884 0.008672144263982773 0.1459999978542328 249 255 251
-0.017504310235381126 0.008672144263982773 0.1459999978542328 249 255 251
-0.01716100610792637 0.008672144263982773 0.1459999978542328 250 255 251
-0.0169328935444355 0.008731542155146599 0.1469999998807907 250 255 251
-0.016587238758802414 0.008731542155146599 0.1469999998807907 250 255 245
-0.016241583973169327 0.008731542155146599 0.1469999998807907 242 250 237
-0.01589592918753624 0.008731542155146599 0.1469999998807907 233 238 226
-0.015550273470580578 0.008731542155146599 0.1469999998807907 250 255 243
-0.01520461868494749 0.008731542155146599 0.1469999998807907 252 255 247
-0.014858963899314404 0.008731542155146599 0.1469999998807907 252 255 247
-0.014612038619816303 0.008790940046310425 0.14800000190734863 252 255 249
-0.014264032244682312 0.008790940046310425 0.14800000190734863 252 255 249
-0.01391602586954832 0.008790940046310425 0.14800000190734863 252 255 249
-0.01356801949441433 0.008790940046310425 0.14800000190734863 252 255 249
-0.013220013119280338 0.008790940046310425 0.14800000190734863 252 255 249
-0.012958980165421963 0.008850338868796825 0.14900000393390656 252 255 249
-0.012608622200787067 0.008850338868796825 0.14900000393390656 252 255 249
-0.012258264236152172 0.008850338868796825 0.14900000393390656 252 255 249
-0.011907907202839851 0.008850338868796825 0.14900000393390656 251 255 244
-0.011557549238204956 0.008850338868796825 0.14900000393390656 250 255 243
-0.01128240767866373 0.008909736759960651 0.15000000596046448 250 255 235
-0.010929698124527931 0.008909736759960651 0.15000000596046448 250 255 235
-0.010576989501714706 0.008909736759960651 0.15000000596046448 253 255 240
-0.010224279947578907 0.008909736759960651 0.15000000596046448 254 255 241
-0.009871571324765682 0.008909736759960651 0.15000000596046448 254 255 245
-0.009582321159541607 0.008969135582447052 0.1509999930858612 254 255 245
-0.009227260947227478 0.008969135582447052 0.1509999930858612 254 255 247
-0.008872199803590775 0.008969135582447052 0.1509999930858612 254 255 247
-0.008517139591276646 0.008969135582447052 0.1509999930858612 254 255 247
-0.008162079378962517 0.008969135582447052 0.1509999930858612 254 255 247
-0.007858720608055592 0.009028533473610878 0.15199999511241913 252 255 247
-0.007501308806240559 0.009028533473610878 0.15199999511241913 252 255 247
-0.007143897004425526 0.009028533473610878 0.15199999511241913 246 255 238
-0.006786484736949205 0.009028533473610878 0.15199999511241913 244 255 236
-0.006471369415521622 0.009087931364774704 0.15299999713897705 208 225 197
-0.006111606024205685 0.009087931364774704 0.15299999713897705 174 191 163
-0.005789436865597963 0.009147330187261105 0.15399999916553497 165 185 152
-0.05283639580011368 0.014017168432474136 0.22699999809265137 52 53 47
-0.05253303796052933 0.014078917913138866 0.2280000001192093 55 56 43
-0.05199692025780678 0.014078917913138866 0.2280000001192093 62 63 50
-0.05168650671839714 0.014140667393803596 0.2290000021457672 66 68 52
-0.05114803835749626 0.014140667393803596 0.2290000021457672 73 75 59
-0.05060956999659538 0.014140667393803596 0.2290000021457672 74 77 52
-0.050071097910404205 0.014140667393803596 0.2290000021457672 74 77 52
-0.049532629549503326 0.014140667393803596 0.2290000021457672 67 77 54
-0.04899416118860245 0.014140667393803596 0.2290000021457672 64 74 51
-0.04845569282770157 0.014140667393803596 0.2290000021457672 52 66 55
-0.020112035796046257 0.008953697979450226 0.14499999582767487 167 169 175
-0.01977108232676983 0.008953697979450226 0.14499999582767487 224 231 225
-0.01943013072013855 0.008953697979450226 0.14499999582767487 245 252 246
-0.01908917911350727 0.008953697979450226 0.14499999582767487 248 255 246
-0.018748225644230843 0.008953697979450226 0.14499999582767487 249 255 247
-0.018407274037599564 0.008953697979450226 0.14499999582767487 252 255 247
-0.018066322430968285 0.008953697979450226 0.14499999582767487 252 255 247
-0.017847614362835884 0.009015447460114956 0.1459999978542328 252 255 249
-0.017504310235381126 0.009015447460114956 0.1459999978542328 252 255 249
-0.01716100610792637 0.009015447460114956 0.1459999978542328 252 255 249
-0.0169328935444355 0.009077196940779686 0.1469999998807907 252 255 249
-0.016587238758802414 0.009077196940779686 0.1469999998807907 251 255 246
-0.016241583973169327 0.009077196940779686 0.1469999998807907 250 255 245
-0.01589592918753624 0.009077196940779686 0.1469999998807907 251 255 246
-0.015550273470580578 0.009077196940779686 0.1469999998807907 251 255 246
-0.01520461868494749 0.009077196940779686 0.1469999998807907 252 255 247
-0.014960044994950294 0.009138946421444416 0.14800000190734863 252 255 247
-0.014612038619816303 0.009138946421444416 0.14800000190734863 252 255 249
-0.014264032244682312 0.009138946421444416 0.14800000190734863 252 255 249
-0.01391602586954832 0.009138946421444416 0.14800000190734863 252 255 249
-0.01356801949441433 0.009138946421444416 0.14800000190734863 252 255 249
-0.013220013119280338 0.009138946421444416 0.14800000190734863 252 255 249
-0.012958980165421963 0.00920069683343172 0.14900000393390656 252 255 249
-0.012608622200787067 0.00920069683343172 0.14900000393390656 252 255 249
-0.012258264236152172 0.00920069683343172 0.14900000393390656 252 255 249
-0.011907907202839851 0.00920069683343172 0.14900000393390656 251 255 246
-0.011557549238204956 0.00920069683343172 0.14900000393390656 251 255 246
-0.01128240767866373 0.00926244631409645 0.15000000596046448 251 255 244
-0.010929698124527931 0.00926244631409645 0.15000000596046448 251 255 244
-0.010576989501714706 0.00926244631409645 0.15000000596046448 252 255 245
-0.010224279947578907 0.00926244631409645 0.15000000596046448 252 255 245
-0.009871571324765682 0.00926244631409645 0.15000000596046448 252 255 247
-0.009582321159541607 0.009324195794761181 0.1509999930858612 252 255 247
-0.009227260947227478 0.009324195794761181 0.1509999930858612 252 255 247
-0.008872199803590775 0.009324195794761181 0.1509999930858612 252 255 247
-0.008517139591276646 0.009324195794761181 0.1509999930858612 252 255 247
-0.008216132409870625 0.009385945275425911 0.15199999511241913 252 255 247
-0.007858720608055592 0.009385945275425911 0.15199999511241913 252 255 249
-0.007501308806240559 0.009385945275425911 0.15199999511241913 252 255 249
-0.007143897004425526 0.009385945275425911 0.15199999511241913 251 255 242
-0.006786484736949205 0.009385945275425911 0.15199999511241913 251 255 242
-0.006471369415521622 0.009447694756090641 0.15299999713897705 239 254 225
-0.006111606024205685 0.009447694756090641 0.15299999713897705 197 212 183
-0.005789436865597963 0.009509444236755371 0.15399999916553497 176 192 158
-0.05253303796052933 0.014615035615861416 0.2280000001192093 53 55 42
-0.05199692025780678 0.014615035615861416 0.2280000001192093 62 64 51
-0.05168650671839714 0.01467913668602705 0.2290000021457672 67 69 53
-0.05114803835749626 0.01467913668602705 0.2290000021457672 61 63 47
-0.05060956999659538 0.01467913668602705 0.2290000021457672 76 79 58
-0.050071097910404205 0.01467913668602705 0.2290000021457672 76 79 58
-0.049532629549503326 0.01467913668602705 0.2290000021457672 66 73 51
-0.04899416118860245 0.01467913668602705 0.2290000021457672 57 64 42
-0.022839652374386787 0.009294649586081505 0.14499999582767487 228 241 236
-0.02249870076775551 0.009294649586081505 0.14499999582767487 244 243 243
-0.02215774729847908 0.009294649586081505 0.14499999582767487 246 245 245
-0.0218167956918478 0.009294649586081505 0.14499999582767487 251 251 247
-0.021475844085216522 0.009294649586081505 0.14499999582767487 253 253 249
-0.021134890615940094 0.009294649586081505 0.14499999582767487 222 221 223
-0.020793939009308815 0.009294649586081505 0.14499999582767487 151 150 152
-0.020452987402677536 0.009294649586081505 0.14499999582767487 195 198 199
-0.020112035796046257 0.009294649586081505 0.14499999582767487 248 251 252
-0.01977108232676983 0.009294649586081505 0.14499999582767487 252 255 251
-0.01943013072013855 0.009294649586081505 0.14499999582767487 252 255 251
-0.01908917911350727 0.009294649586081505 0.14499999582767487 249 255 250
-0.018748225644230843 0.009294649586081505 0.14499999582767487 250 255 251
-0.018407274037599564 0.009294649586081505 0.14499999582767487 250 255 251
-0.018190916627645493 0.009358750656247139 0.1459999978542328 250 255 251
-0.017847614362835884 0.009358750656247139 0.1459999978542328 252 255 251
-0.017504310235381126 0.009358750656247139 0.1459999978542328 252 255 251
-0.01716100610792637 0.009358750656247139 0.1459999978542328 252 255 251
-0.0169328935444355 0.009422851726412773 0.1469999998807907 252 255 251
-0.016587238758802414 0.009422851726412773 0.1469999998807907 252 255 251
-0.016241583973169327 0.009422851726412773 0.1469999998807907 252 255 251
-0.01589592918753624 0.009422851726412773 0.1469999998807907 252 255 249
-0.015550273470580578 0.009422851726412773 0.1469999998807907 251 255 248
-0.01520461868494749 0.009422851726412773 0.1469999998807907 252 255 249
-0.014960044994950294 0.009486952796578407 0.14800000190734863 252 255 249
-0.014612038619816303 0.009486952796578407 0.14800000190734863 252 255 249
-0.014264032244682312 0.009486952796578407 0.14800000190734863 252 255 249
-0.01391602586954832 0.009486952796578407 0.14800000190734863 252 255 249
-0.01356801949441433 0.009486952796578407 0.14800000190734863 252 255 249
-0.013309338130056858 0.009551053866744041 0.14900000393390656 252 255 249
-0.012958980165421963 0.009551053866744041 0.14900000393390656 252 255 249
-0.012608622200787067 0.009551053866744041 0.14900000393390656 252 255 249
-0.012258264236152172 0.009551053866744041 0.14900000393390656 252 255 249
-0.011907907202839851 0.009551053866744041 0.14900000393390656 252 255 249
-0.011557549238204956 0.009551053866744041 0.14900000393390656 252 255 249
-0.01128240767866373 0.009615154936909676 0.15000000596046448 252 255 249
-0.010929698124527931 0.009615154936909676 0.15000000596046448 252 255 249
-0.010576989501714706 0.009615154936909676 0.15000000596046448 252 255 249
-0.010224279947578907 0.009615154936909676 0.15000000596046448 252 255 249
-0.009937381371855736 0.00967925600707531 0.1509999930858612 252 255 249
-0.009582321159541607 0.00967925600707531 0.1509999930858612 252 255 249
-0.009227260947227478 0.00967925600707531 0.1509999930858612 252 255 249
-0.008872199803590775 0.00967925600707531 0.1509999930858612 252 255 249
-0.008573544211685658 0.009743357077240944 0.15199999511241913 252 255 249
-0.008216132409870625 0.009743357077240944 0.15199999511241913 252 255 249
-0.007858720608055592 0.009743357077240944 0.15199999511241913 252 255 249
-0.007501308806240559 0.009743357077240944 0.15199999511241913 252 255 249
-0.007143897004425526 0.009743357077240944 0.15199999511241913 252 255 247
-0.006786484736949205 0.009743357077240944 0.15199999511241913 252 255 247
-0.006471369415521622 0.009807458147406578 0.15299999713897705 243 253 226
-0.006111606024205685 0.009807458147406578 0.15299999713897705 200 210 183
-0.005789436865597963 0.009871559217572212 0.15399999916553497 176 189 156
-0.05253303796052933 0.015151153318583965 0.2280000001192093 57 60 44
-0.05199692025780678 0.015151153318583965 0.2280000001192093 62 65 49
-0.05168650671839714 0.015217605978250504 0.2290000021457672 69 71 55
-0.05114803835749626 0.015217605978250504 0.2290000021457672 81 83 67
-0.023521555587649345 0.009635602124035358 0.14499999582767487 248 255 248
-0.023180603981018066 0.009635602124035358 0.14499999582767487 246 255 253
-0.022839652374386787 0.009635602124035358 0.14499999582767487 245 255 252
-0.02249870076775551 0.009635602124035358 0.14499999582767487 250 255 254
-0.02215774729847908 0.009635602124035358 0.14499999582767487 248 254 252
-0.0218167956918478 0.009635602124035358 0.14499999582767487 250 253 252
-0.021475844085216522 0.009635602124035358 0.14499999582767487 252 255 254
-0.021134890615940094 0.009635602124035358 0.14499999582767487 251 254 253
-0.020793939009308815 0.009635602124035358 0.14499999582767487 245 248 247
-0.020452987402677536 0.009635602124035358 0.14499999582767487 250 253 252
-0.020112035796046257 0.009635602124035358 0.14499999582767487 252 255 254
-0.01977108232676983 0.009635602124035358 0.14499999582767487 252 255 251
-0.01943013072013855 0.009635602124035358 0.14499999582767487 252 255 251
-0.01908917911350727 0.009635602124035358 0.14499999582767487 252 255 251
-0.018748225644230843 0.009635602124035358 0.14499999582767487 252 255 251
-0.01853422075510025 0.009702054783701897 0.1459999978542328 252 255 251
-0.018190916627645493 0.009702054783701897 0.1459999978542328 252 255 251
-0.017847614362835884 0.009702054783701897 0.1459999978542328 252 255 251
-0.017504310235381126 0.009702054783701897 0.1459999978542328 252 255 251
-0.017278548330068588 0.00976850651204586 0.1469999998807907 252 255 251
-0.0169328935444355 0.00976850651204586 0.1469999998807907 252 255 251
-0.016587238758802414 0.00976850651204586 0.1469999998807907 252 255 251
-0.016241583973169327 0.00976850651204586 0.1469999998807907 252 255 251
-0.01589592918753624 0.00976850651204586 0.1469999998807907 252 255 251
-0.015550273470580578 0.00976850651204586 0.1469999998807907 252 255 251
-0.01520461868494749 0.00976850651204586 0.1469999998807907 252 255 251
-0.014960044994950294 0.009834959171712399 0.14800000190734863 252 255 251
-0.014612038619816303 0.009834959171712399 0.14800000190734863 252 255 251
-0.014264032244682312 0.009834959171712399 0.14800000190734863 252 255 251
-0.01391602586954832 0.009834959171712399 0.14800000190734863 252 255 251
-0.01356801949441433 0.009834959171712399 0.14800000190734863 252 255 251
-0.013309338130056858 0.009901411831378937 0.14900000393390656 252 255 251
-0.012958980165421963 0.009901411831378937 0.14900000393390656 252 255 251
-0.012608622200787067 0.009901411831378937 0.14900000393390656 252 255 251
-0.012258264236152172 0.009901411831378937 0.14900000393390656 252 255 251
-0.011907907202839851 0.009901411831378937 0.14900000393390656 252 255 251
-0.011635116301476955 0.009967864491045475 0.15000000596046448 252 255 251
-0.01128240767866373 0.009967864491045475 0.15000000596046448 252 255 251
-0.010929698124527931 0.009967864491045475 0.15000000596046448 252 255 251
-0.010576989501714706 0.009967864491045475 0.15000000596046448 252 255 251
-0.010224279947578907 0.009967864491045475 0.15000000596046448 252 255 251
-0.009937381371855736 0.010034316219389439 0.1509999930858612 252 255 251
-0.009582321159541607 0.010034316219389439 0.1509999930858612 252 255 251
-0.009227260947227478 0.010034316219389439 0.1509999930858612 252 255 251
-0.00893095601350069 0.010100768879055977 0.15199999511241913 252 255 251
-0.008573544211685658 0.010100768879055977 0.15199999511241913 252 255 251
-0.008216132409870625 0.010100768879055977 0.15199999511241913 252 255 251
-0.007858720608055592 0.010100768879055977 0.15199999511241913 252 255 251
-0.007501308806240559 0.010100768879055977 0.15199999511241913 252 255 251
-0.007143897004425526 0.010100768879055977 0.15199999511241913 252 255 247
-0.006786484736949205 0.010100768879055977 0.15199999511241913 252 255 247
-0.006471369415521622 0.010167221538722515 0.15299999713897705 249 255 232
-0.006111606024205685 0.010167221538722515 0.15299999713897705 212 219 195
-0.005751843098551035 0.010167221538722515 0.15299999713897705 196 209 176
-0.02488536573946476 0.009976554661989212 0.14499999582767487 254 253 253
-0.02454441227018833 0.009976554661989212 0.14499999582767487 250 255 254
-0.024203460663557053 0.009976554661989212 0.14499999582767487 250 255 254
-0.023862509056925774 0.009976554661989212 0.14499999582767487 250 255 254
-0.023521555587649345 0.009976554661989212 0.14499999582767487 250 255 254
-0.023180603981018066 0.009976554661989212 0.14499999582767487 250 255 254
-0.022839652374386787 0.009976554661989212 0.14499999582767487 250 255 254
-0.02249870076775551 0.009976554661989212 0.14499999582767487 252 255 254
-0.02215774729847908 0.009976554661989212 0.14499999582767487 252 255 254
-0.0218167956918478 0.009976554661989212 0.14499999582767487 252 255 254
-0.021475844085216522 0.009976554661989212 0.14499999582767487 252 255 254
-0.021134890615940094 0.009976554661989212 0.14499999582767487 252 255 254
-0.020793939009308815 0.009976554661989212 0.14499999582767487 244 247 246
-0.020452987402677536 0.009976554661989212 0.14499999582767487 250 253 252
-0.020112035796046257 0.009976554661989212 0.14499999582767487 252 255 254
-0.01977108232676983 0.009976554661989212 0.14499999582767487 252 255 254
-0.01943013072013855 0.009976554661989212 0.14499999582767487 252 255 254
-0.01908917911350727 0.009976554661989212 0.14499999582767487 252 255 251
-0.018877524882555008 0.01004535797983408 0.1459999978542328 252 255 251
-0.01853422075510025 0.01004535797983408 0.1459999978542328 252 255 251
-0.018190916627645493 0.01004535797983408 0.1459999978542328 252 255 251
-0.017847614362835884 0.01004535797983408 0.1459999978542328 252 255 251
-0.017504310235381126 0.01004535797983408 0.1459999978542328 252 255 251
-0.017278548330068588 0.010114162229001522 0.1469999998807907 252 255 251
-0.0169328935444355 0.010114162229001522 0.1469999998807907 252 255 251
-0.016587238758802414 0.010114162229001522 0.1469999998807907 252 255 251
-0.016241583973169327 0.010114162229001522 0.1469999998807907 252 255 251
-0.01589592918753624 0.010114162229001522 0.1469999998807907 252 255 251
-0.015550273470580578 0.010114162229001522 0.1469999998807907 252 255 251
-0.01520461868494749 0.010114162229001522 0.1469999998807907 252 255 251
-0.014960044994950294 0.01018296554684639 0.14800000190734863 252 255 251
-0.014612038619816303 0.01018296554684639 0.14800000190734863 252 255 251
-0.014264032244682312 0.01018296554684639 0.14800000190734863 252 255 251
-0.01391602586954832 0.01018296554684639 0.14800000190734863 252 255 251
-0.01356801949441433 0.01018296554684639 0.14800000190734863 252 255 251
-0.013309338130056858 0.010251769796013832 0.14900000393390656 252 255 251
-0.012958980165421963 0.010251769796013832 0.14900000393390656 252 255 251
-0.012608622200787067 0.010251769796013832 0.14900000393390656 252 255 251
-0.012258264236152172 0.010251769796013832 0.14900000393390656 252 255 251
-0.011907907202839851 0.010251769796013832 0.14900000393390656 252 255 251
-0.011557549238204956 0.010251769796013832 0.14900000393390656 252 255 251
-0.01128240767866373 0.0103205731138587 0.15000000596046448 252 255 251
-0.010929698124527931 0.0103205731138587 0.15000000596046448 252 255 251
-0.010576989501714706 0.0103205731138587 0.15000000596046448 252 255 251
-0.010292441584169865 0.010389377363026142 0.1509999930858612 252 255 251
-0.009937381371855736 0.010389377363026142 0.1509999930858612 252 255 251
-0.009582321159541607 0.010389377363026142 0.1509999930858612 252 255 251
-0.009227260947227478 0.010389377363026142 0.1509999930858612 252 255 251
-0.00893095601350069 0.01045818068087101 0.15199999511241913 252 255 251
-0.008573544211685658 0.01045818068087101 0.15199999511241913 252 255 251
-0.008216132409870625 0.01045818068087101 0.15199999511241913 252 255 251
-0.007858720608055592 0.01045818068087101 0.15199999511241913 252 255 251
-0.007501308806240559 0.01045818068087101 0.15199999511241913 252 255 251
-0.007143897004425526 0.01045818068087101 0.15199999511241913 252 255 249
-0.006786484736949205 0.01045818068087101 0.15199999511241913 252 255 249
-0.0064290729351341724 0.01045818068087101 0.15199999511241913 254 255 237
-0.006111606024205685 0.010526984930038452 0.15299999713897705 228 232 211
-0.005751843098551035 0.010526984930038452 0.15299999713897705 177 188 156
-0.027422547340393066 0.01024635136127472 0.14399999380111694 252 255 251
-0.027083946391940117 0.01024635136127472 0.14399999380111694 254 255 241
-0.026745345443487167 0.01024635136127472 0.14399999380111694 254 255 241
-0.026590125635266304 0.010317506268620491 0.14499999582767487 251 253 237
-0.026249174028635025 0.010317506268620491 0.14499999582767487 204 206 190
-0.025908220559358597 0.010317506268620491 0.14499999582767487 218 220 209
-0.025567268952727318 0.010317506268620491 0.14499999582767487 253 255 244
-0.02522631734609604 0.010317506268620491 0.14499999582767487 254 255 251
-0.02488536573946476 0.010317506268620491 0.14499999582767487 254 255 251
-0.02454441227018833 0.010317506268620491 0.14499999582767487 252 255 251
-0.024203460663557053 0.010317506268620491 0.14499999582767487 252 255 251
-0.023862509056925774 0.010317506268620491 0.14499999582767487 252 255 251
-0.023521555587649345 0.010317506268620491 0.14499999582767487 252 255 251
-0.023180603981018066 0.010317506268620491 0.14499999582767487 252 255 251
-0.022839652374386787 0.010317506268620491 0.14499999582767487 252 255 251
-0.02249870076775551 0.010317506268620491 0.14499999582767487 252 255 251
-0.02215774729847908 0.010317506268620491 0.14499999582767487 252 255 251
-0.0218167956918478 0.010317506268620491 0.14499999582767487 252 255 251
-0.021475844085216522 0.010317506268620491 0.14499999582767487 252 255 251
-0.021134890615940094 0.010317506268620491 0.14499999582767487 252 255 251
-0.020793939009308815 0.010317506268620491 0.14499999582767487 251 255 250
-0.020452987402677536 0.010317506268620491 0.14499999582767487 252 255 251
-0.020112035796046257 0.010317506268620491 0.14499999582767487 252 255 251
-0.01977108232676983 0.010317506268620491 0.14499999582767487 252 255 251
-0.01943013072013855 0.010317506268620491 0.14499999582767487 252 255 251
-0.019220827147364616 0.010388661175966263 0.1459999978542328 252 255 251
-0.018877524882555008 0.010388661175966263 0.1459999978542328 252 255 251
-0.01853422075510025 0.010388661175966263 0.1459999978542328 252 255 251
-0.018190916627645493 0.010388661175966263 0.1459999978542328 252 255 251
-0.017847614362835884 0.010388661175966263 0.1459999978542328 252 255 251
-0.017624203115701675 0.01045981701463461 0.1469999998807907 252 255 251
-0.017278548330068588 0.01045981701463461 0.1469999998807907 252 255 251
-0.0169328935444355 0.01045981701463461 0.1469999998807907 252 255 251
-0.016587238758802414 0.01045981701463461 0.1469999998807907 252 255 251
-0.016241583973169327 0.01045981701463461 0.1469999998807907 252 255 251
-0.01589592918753624 0.01045981701463461 0.1469999998807907 252 255 251
-0.015550273470580578 0.01045981701463461 0.1469999998807907 252 255 251
-0.01520461868494749 0.01045981701463461 0.1469999998807907 252 255 251
-0.014960044994950294 0.010530971921980381 0.14800000190734863 252 255 251
-0.014612038619816303 0.010530971921980381 0.14800000190734863 252 255 251
-0.014264032244682312 0.010530971921980381 0.14800000190734863 252 255 251
-0.01391602586954832 0.010530971921980381 0.14800000190734863 252 255 251
-0.01356801949441433 0.010530971921980381 0.14800000190734863 252 255 251
-0.013309338130056858 0.010602126829326153 0.14900000393390656 252 255 251
-0.012958980165421963 0.010602126829326153 0.14900000393390656 252 255 251
-0.012608622200787067 0.010602126829326153 0.14900000393390656 252 255 251
-0.012258264236152172 0.010602126829326153 0.14900000393390656 252 255 251
-0.011907907202839851 0.010602126829326153 0.14900000393390656 252 255 251
-0.011557549238204956 0.010602126829326153 0.14900000393390656 252 255 251
-0.01128240767866373 0.0106732826679945 0.15000000596046448 252 255 249
-0.010929698124527931 0.0106732826679945 0.15000000596046448 252 255 249
-0.010576989501714706 0.0106732826679945 0.15000000596046448 251 255 246
-0.010292441584169865 0.010744437575340271 0.1509999930858612 250 255 245
-0.009937381371855736 0.010744437575340271 0.1509999930858612 252 255 247
-0.009582321159541607 0.010744437575340271 0.1509999930858612 252 255 247
-0.009288367815315723 0.010815592482686043 0.15199999511241913 252 255 247
-0.00893095601350069 0.010815592482686043 0.15199999511241913 252 255 247
-0.008573544211685658 0.010815592482686043 0.15199999511241913 252 255 249
-0.008216132409870625 0.010815592482686043 0.15199999511241913 252 255 249
-0.007858720608055592 0.010815592482686043 0.15199999511241913 252 255 249
-0.007501308806240559 0.010815592482686043 0.15199999511241913 252 255 249
-0.007143897004425526 0.010815592482686043 0.15199999511241913 252 255 249
-0.006786484736949205 0.010815592482686043 0.15199999511241913 252 255 249
-0.0064290729351341724 0.010815592482686043 0.15199999511241913 254 255 239
-0.006111606024205685 0.01088674832135439 0.15299999713897705 240 243 225
-0.005751843098551035 0.01088674832135439 0.15299999713897705 204 209 181
-0.027422547340393066 0.010584952309727669 0.14399999380111694 250 255 254
-0.027083946391940117 0.010584952309727669 0.14399999380111694 252 255 251
-0.026745345443487167 0.010584952309727669 0.14399999380111694 251 255 250
-0.026590125635266304 0.010658458806574345 0.14499999582767487 252 255 247
-0.026249174028635025 0.010658458806574345 0.14499999582767487 252 255 247
-0.025908220559358597 0.010658458806574345 0.14499999582767487 254 255 247
-0.025567268952727318 0.010658458806574345 0.14499999582767487 253 255 246
-0.02522631734609604 0.010658458806574345 0.14499999582767487 254 255 251
-0.02488536573946476 0.010658458806574345 0.14499999582767487 254 255 251
-0.02454441227018833 0.010658458806574345 0.14499999582767487 254 255 251
-0.024203460663557053 0.010658458806574345 0.14499999582767487 254 255 251
-0.023862509056925774 0.010658458806574345 0.14499999582767487 252 255 251
-0.023521555587649345 0.010658458806574345 0.14499999582767487 252 255 251
-0.023180603981018066 0.010658458806574345 0.14499999582767487 252 255 251
-0.022839652374386787 0.010658458806574345 0.14499999582767487 252 255 251
-0.02249870076775551 0.010658458806574345 0.14499999582767487 252 255 251
-0.02215774729847908 0.010658458806574345 0.14499999582767487 252 255 251
-0.0218167956918478 0.010658458806574345 0.14499999582767487 252 255 251
-0.021475844085216522 0.010658458806574345 0.14499999582767487 252 255 251
-0.021134890615940094 0.010658458806574345 0.14499999582767487 252 255 251
-0.020793939009308815 0.010658458806574345 0.14499999582767487 252 255 251
-0.020452987402677536 0.010658458806574345 0.14499999582767487 252 255 251
-0.020112035796046257 0.010658458806574345 0.14499999582767487 252 255 251
-0.01977108232676983 0.010658458806574345 0.14499999582767487 252 255 251
-0.019564131274819374 0.01073196530342102 0.1459999978542328 252 255 251
-0.019220827147364616 0.01073196530342102 0.1459999978542328 252 255 251
-0.018877524882555008 0.01073196530342102 0.1459999978542328 252 255 251
-0.01853422075510025 0.01073196530342102 0.1459999978542328 252 255 251
-0.01831551268696785 0.010805471800267696 0.1469999998807907 252 255 251
-0.017969857901334763 0.010805471800267696 0.1469999998807907 252 255 251
-0.017624203115701675 0.010805471800267696 0.1469999998807907 252 255 251
-0.017278548330068588 0.010805471800267696 0.1469999998807907 252 255 251
-0.0169328935444355 0.010805471800267696 0.1469999998807907 252 255 251
-0.016587238758802414 0.010805471800267696 0.1469999998807907 252 255 251
-0.016241583973169327 0.010805471800267696 0.1469999998807907 252 255 251
-0.01589592918753624 0.010805471800267696 0.1469999998807907 252 255 251
-0.015550273470580578 0.010805471800267696 0.1469999998807907 252 255 251
-0.01520461868494749 0.010805471800267696 0.1469999998807907 252 255 251
-0.014960044994950294 0.010878978297114372 0.14800000190734863 252 255 251
-0.014612038619816303 0.010878978297114372 0.14800000190734863 252 255 251
-0.014264032244682312 0.010878978297114372 0.14800000190734863 252 255 251
-0.01391602586954832 0.010878978297114372 0.14800000190734863 252 255 251
-0.013659695163369179 0.010952484793961048 0.14900000393390656 252 255 251
-0.013309338130056858 0.010952484793961048 0.14900000393390656 252 255 251
-0.012958980165421963 0.010952484793961048 0.14900000393390656 252 255 251
-0.012608622200787067 0.010952484793961048 0.14900000393390656 252 255 251
-0.012258264236152172 0.010952484793961048 0.14900000393390656 252 255 251
-0.011907907202839851 0.010952484793961048 0.14900000393390656 252 255 251
-0.011557549238204956 0.010952484793961048 0.14900000393390656 252 255 251
-0.01128240767866373 0.011025991290807724 0.15000000596046448 252 255 249
-0.010929698124527931 0.011025991290807724 0.15000000596046448 250 254 247
-0.010576989501714706 0.011025991290807724 0.15000000596046448 245 245 223
-0.010292441584169865 0.0110994977876544 0.1509999930858612 228 228 206
-0.009937381371855736 0.0110994977876544 0.1509999930858612 255 251 232
-0.009582321159541607 0.0110994977876544 0.1509999930858612 255 254 235
-0.009227260947227478 0.0110994977876544 0.1509999930858612 254 255 243
-0.00893095601350069 0.01117300521582365 0.15199999511241913 254 255 243
-0.008573544211685658 0.01117300521582365 0.15199999511241913 252 255 247
-0.008216132409870625 0.01117300521582365 0.15199999511241913 252 255 247
-0.007858720608055592 0.01117300521582365 0.15199999511241913 252 255 249
-0.007501308806240559 0.01117300521582365 0.15199999511241913 252 255 249
-0.007143897004425526 0.01117300521582365 0.15199999511241913 252 255 249
-0.006786484736949205 0.01117300521582365 0.15199999511241913 252 255 249
-0.0064290729351341724 0.01117300521582365 0.15199999511241913 253 255 242
-0.0060716611333191395 0.01117300521582365 0.15199999511241913 253 255 242
-0.005751843098551035 0.011246511712670326 0.15299999713897705 223 228 198
-0.027422547340393066 0.010923552326858044 0.14399999380111694 250 255 251
-0.027083946391940117 0.010923552326858044 0.14399999380111694 250 255 251
-0.026931077241897583 0.010999410413205624 0.14499999582767487 250 255 251
-0.026590125635266304 0.010999410413205624 0.14499999582767487 252 255 251
-0.026249174028635025 0.010999410413205624 0.14499999582767487 252 255 251
-0.025908220559358597 0.010999410413205624 0.14499999582767487 252 255 251
-0.025567268952727318 0.010999410413205624 0.14499999582767487 252 255 251
-0.02522631734609604 0.010999410413205624 0.14499999582767487 252 255 251
-0.02488536573946476 0.010999410413205624 0.14499999582767487 252 255 251
-0.02454441227018833 0.010999410413205624 0.14499999582767487 252 255 251
-0.024203460663557053 0.010999410413205624 0.14499999582767487 252 255 251
-0.023862509056925774 0.010999410413205624 0.14499999582767487 252 255 251
-0.023521555587649345 0.010999410413205624 0.14499999582767487 252 255 251
-0.023180603981018066 0.010999410413205624 0.14499999582767487 252 255 251
-0.022839652374386787 0.010999410413205624 0.14499999582767487 252 255 251
-0.02249870076775551 0.010999410413205624 0.14499999582767487 252 255 251
-0.02215774729847908 0.010999410413205624 0.14499999582767487 252 255 251
-0.0218167956918478 0.010999410413205624 0.14499999582767487 252 255 251
-0.021475844085216522 0.010999410413205624 0.14499999582767487 252 255 251
-0.021280650049448013 0.011075268499553204 0.1459999978542328 252 255 251
-0.020937345921993256 0.011075268499553204 0.1459999978542328 252 255 251
-0.020452987402677536 0.010999410413205624 0.14499999582767487 252 255 251
-0.020112035796046257 0.010999410413205624 0.14499999582767487 252 255 251
-0.019907435402274132 0.011075268499553204 0.1459999978542328 252 255 251
-0.019564131274819374 0.011075268499553204 0.1459999978542328 252 255 251
-0.019220827147364616 0.011075268499553204 0.1459999978542328 252 255 251
-0.018877524882555008 0.011075268499553204 0.1459999978542328 252 255 251
-0.018661167472600937 0.011151126585900784 0.1469999998807907 252 255 251
-0.01831551268696785 0.011151126585900784 0.1469999998807907 252 255 251
-0.017969857901334763 0.011151126585900784 0.1469999998807907 252 255 251
-0.017624203115701675 0.011151126585900784 0.1469999998807907 252 255 251
-0.017278548330068588 0.011151126585900784 0.1469999998807907 252 255 251
-0.0169328935444355 0.011151126585900784 0.1469999998807907 252 255 251
-0.016587238758802414 0.011151126585900784 0.1469999998807907 252 255 251
-0.016241583973169327 0.011151126585900784 0.1469999998807907 252 255 251
-0.016004063189029694 0.011226984672248363 0.14800000190734863 252 255 251
-0.015656057745218277 0.011226984672248363 0.14800000190734863 252 255 251
-0.015308051370084286 0.011226984672248363 0.14800000190734863 252 255 251
-0.014960044994950294 0.011226984672248363 0.14800000190734863 252 255 251
-0.014612038619816303 0.011226984672248363 0.14800000190734863 252 255 251
-0.014264032244682312 0.011226984672248363 0.14800000190734863 252 255 251
-0.01391602586954832 0.011226984672248363 0.14800000190734863 252 255 251
-0.013659695163369179 0.011302842758595943 0.14900000393390656 252 255 251
-0.013309338130056858 0.011302842758595943 0.14900000393390656 252 255 251
-0.012958980165421963 0.011302842758595943 0.14900000393390656 252 255 251
-0.012608622200787067 0.011302842758595943 0.14900000393390656 252 255 251
-0.012258264236152172 0.011302842758595943 0.14900000393390656 252 255 251
-0.011907907202839851 0.011302842758595943 0.14900000393390656 252 255 251
-0.011557549238204956 0.011302842758595943 0.14900000393390656 252 255 251
-0.01128240767866373 0.011378700844943523 0.15000000596046448 251 255 246
-0.010929698124527931 0.011378700844943523 0.15000000596046448 251 255 246
-0.010576989501714706 0.011378700844943523 0.15000000596046448 244 244 209
-0.010224279947578907 0.011378700844943523 0.15000000596046448 212 212 177
-0.009937381371855736 0.011454558931291103 0.1509999930858612 251 236 195
-0.009582321159541607 0.011454558931291103 0.1509999930858612 255 250 209
-0.009227260947227478 0.011454558931291103 0.1509999930858612 255 255 229
-0.00893095601350069 0.011530417017638683 0.15199999511241913 255 255 229
-0.008573544211685658 0.011530417017638683 0.15199999511241913 254 255 241
-0.008216132409870625 0.011530417017638683 0.15199999511241913 254 255 241
-0.007858720608055592 0.011530417017638683 0.15199999511241913 252 255 245
-0.007501308806240559 0.011530417017638683 0.15199999511241913 252 255 245
-0.007143897004425526 0.011530417017638683 0.15199999511241913 252 255 249
-0.006786484736949205 0.011530417017638683 0.15199999511241913 252 255 249
-0.0064290729351341724 0.011530417017638683 0.15199999511241913 251 255 242
-0.0060716611333191395 0.011530417017638683 0.15199999511241913 250 255 241
-0.005751843098551035 0.011606275103986263 0.15299999713897705 226 230 205
-0.03034059889614582 0.011340362951159477 0.14499999582767487 244 247 246
-0.02999964728951454 0.011340362951159477 0.14499999582767487 250 255 254
-0.029658695682883263 0.011340362951159477 0.14499999582767487 250 255 254
-0.029317742213606834 0.011340362951159477 0.14499999582767487 250 255 254
-0.028976790606975555 0.011340362951159477 0.14499999582767487 250 255 254
-0.028635839000344276 0.011340362951159477 0.14499999582767487 252 255 254
-0.028294885531067848 0.011340362951159477 0.14499999582767487 252 255 254
-0.027761148288846016 0.011262153275310993 0.14399999380111694 252 255 254
-0.027422547340393066 0.011262153275310993 0.14399999380111694 252 255 254
-0.02727203071117401 0.011340362951159477 0.14499999582767487 252 255 251
-0.026931077241897583 0.011340362951159477 0.14499999582767487 252 255 251
-0.026590125635266304 0.011340362951159477 0.14499999582767487 252 255 251
-0.026249174028635025 0.011340362951159477 0.14499999582767487 252 255 251
-0.025908220559358597 0.011340362951159477 0.14499999582767487 252 255 251
-0.025567268952727318 0.011340362951159477 0.14499999582767487 252 255 251
-0.02522631734609604 0.011340362951159477 0.14499999582767487 252 255 251
-0.02488536573946476 0.011340362951159477 0.14499999582767487 252 255 251
-0.02454441227018833 0.011340362951159477 0.14499999582767487 252 255 251
-0.024203460663557053 0.011340362951159477 0.14499999582767487 252 255 251
-0.023862509056925774 0.011340362951159477 0.14499999582767487 252 255 251
-0.023521555587649345 0.011340362951159477 0.14499999582767487 252 255 251
-0.023180603981018066 0.011340362951159477 0.14499999582767487 252 255 251
-0.022997166961431503 0.011418572627007961 0.1459999978542328 252 255 251
-0.022653862833976746 0.011418572627007961 0.1459999978542328 252 255 251
-0.022310560569167137 0.011418572627007961 0.1459999978542328 252 255 251
-0.02196725644171238 0.011418572627007961 0.1459999978542328 252 255 251
-0.021623952314257622 0.011418572627007961 0.1459999978542328 252 255 251
-0.021280650049448013 0.011418572627007961 0.1459999978542328 252 255 251
-0.020937345921993256 0.011418572627007961 0.1459999978542328 252 255 251
-0.020594041794538498 0.011418572627007961 0.1459999978542328 252 255 251
-0.02025073952972889 0.011418572627007961 0.1459999978542328 252 255 251
-0.019907435402274132 0.011418572627007961 0.1459999978542328 252 255 251
-0.019564131274819374 0.011418572627007961 0.1459999978542328 252 255 251
-0.019220827147364616 0.011418572627007961 0.1459999978542328 252 255 251
-0.019006822258234024 0.01149678137153387 0.1469999998807907 252 255 251
-0.018661167472600937 0.01149678137153387 0.1469999998807907 252 255 251
-0.01831551268696785 0.01149678137153387 0.1469999998807907 252 255 251
-0.017969857901334763 0.01149678137153387 0.1469999998807907 252 255 251
-0.017624203115701675 0.01149678137153387 0.1469999998807907 252 255 251
-0.01739608868956566 0.011574991047382355 0.14800000190734863 252 255 251
-0.017048083245754242 0.011574991047382355 0.14800000190734863 252 255 251
-0.016700075939297676 0.011574991047382355 0.14800000190734863 252 255 251
-0.01635207049548626 0.011574991047382355 0.14800000190734863 252 255 251
-0.016004063189029694 0.011574991047382355 0.14800000190734863 252 255 251
-0.015656057745218277 0.011574991047382355 0.14800000190734863 252 255 251
-0.015308051370084286 0.011574991047382355 0.14800000190734863 251 255 250
-0.014960044994950294 0.011574991047382355 0.14800000190734863 251 255 250
-0.014612038619816303 0.011574991047382355 0.14800000190734863 252 255 251
-0.014264032244682312 0.011574991047382355 0.14800000190734863 252 255 251
-0.014010053128004074 0.011653200723230839 0.14900000393390656 252 255 251
-0.013659695163369179 0.011653200723230839 0.14900000393390656 252 255 251
-0.013309338130056858 0.011653200723230839 0.14900000393390656 252 255 251
-0.012958980165421963 0.011653200723230839 0.14900000393390656 252 255 251
-0.012608622200787067 0.011653200723230839 0.14900000393390656 252 255 251
-0.012258264236152172 0.011653200723230839 0.14900000393390656 252 255 251
-0.011907907202839851 0.011653200723230839 0.14900000393390656 252 255 251
-0.011557549238204956 0.011653200723230839 0.14900000393390656 252 255 251
-0.01128240767866373 0.011731409467756748 0.15000000596046448 251 255 244
-0.010929698124527931 0.011731409467756748 0.15000000596046448 251 255 244
-0.010576989501714706 0.011731409467756748 0.15000000596046448 239 231 189
-0.010224279947578907 0.011731409467756748 0.15000000596046448 210 202 160
-0.009937381371855736 0.011809619143605232 0.1509999930858612 223 189 138
-0.009582321159541607 0.011809619143605232 0.1509999930858612 231 197 146
-0.009227260947227478 0.011809619143605232 0.1509999930858612 255 237 195
-0.008872199803590775 0.011809619143605232 0.1509999930858612 255 253 211
-0.008573544211685658 0.011887828819453716 0.15199999511241913 255 255 229
-0.008216132409870625 0.011887828819453716 0.15199999511241913 255 255 229
-0.007858720608055592 0.011887828819453716 0.15199999511241913 254 255 241
-0.007501308806240559 0.011887828819453716 0.15199999511241913 254 255 241
-0.007143897004425526 0.011887828819453716 0.15199999511241913 252 255 245
-0.006786484736949205 0.011887828819453716 0.15199999511241913 252 255 245
-0.0064290729351341724 0.011887828819453716 0.15199999511241913 254 255 245
-0.0060716611333191395 0.011887828819453716 0.15199999511241913 253 255 244
-0.005751843098551035 0.011966037563979626 0.15299999713897705 232 235 212
-0.03386998549103737 0.011842436157166958 0.1469999998807907 255 254 238
-0.03352433070540428 0.011842436157166958 0.1469999998807907 255 254 238
-0.032952968031167984 0.011761875823140144 0.1459999978542328 255 255 234
-0.032609667629003525 0.011761875823140144 0.1459999978542328 254 252 231
-0.03226636350154877 0.011761875823140144 0.1459999978542328 239 239 219
-0.03192305937409401 0.011761875823140144 0.1459999978542328 219 219 199
-0.03136345371603966 0.011681314557790756 0.14499999582767487 195 193 181
-0.031022503972053528 0.011681314557790756 0.14499999582767487 168 166 154
-0.0306815505027771 0.011681314557790756 0.14499999582767487 181 185 180
-0.03034059889614582 0.011681314557790756 0.14499999582767487 252 255 251
-0.02999964728951454 0.011681314557790756 0.14499999582767487 249 255 254
-0.029658695682883263 0.011681314557790756 0.14499999582767487 249 255 254
-0.029317742213606834 0.011681314557790756 0.14499999582767487 250 255 254
-0.028976790606975555 0.011681314557790756 0.14499999582767487 250 255 254
-0.028635839000344276 0.011681314557790756 0.14499999582767487 250 255 254
-0.028294885531067848 0.011681314557790756 0.14499999582767487 250 255 254
-0.027761148288846016 0.011600754223763943 0.14399999380111694 250 255 254
-0.027422547340393066 0.011600754223763943 0.14399999380111694 250 255 254
-0.02727203071117401 0.011681314557790756 0.14499999582767487 250 255 254
-0.026931077241897583 0.011681314557790756 0.14499999582767487 250 255 254
-0.026590125635266304 0.011681314557790756 0.14499999582767487 250 255 251
-0.026249174028635025 0.011681314557790756 0.14499999582767487 250 255 251
-0.025908220559358597 0.011681314557790756 0.14499999582767487 250 255 251
-0.025567268952727318 0.011681314557790756 0.14499999582767487 250 255 251
-0.02522631734609604 0.011681314557790756 0.14499999582767487 250 255 251
-0.02488536573946476 0.011681314557790756 0.14499999582767487 250 255 251
-0.02454441227018833 0.011681314557790756 0.14499999582767487 250 255 251
-0.024203460663557053 0.011681314557790756 0.14499999582767487 250 255 251
-0.023862509056925774 0.011681314557790756 0.14499999582767487 250 255 251
-0.02368377335369587 0.011761875823140144 0.1459999978542328 250 255 251
-0.02334047108888626 0.011761875823140144 0.1459999978542328 250 255 251
-0.022997166961431503 0.011761875823140144 0.1459999978542328 250 255 251
-0.022653862833976746 0.011761875823140144 0.1459999978542328 250 255 251
-0.022310560569167137 0.011761875823140144 0.1459999978542328 250 255 251
-0.02196725644171238 0.011761875823140144 0.1459999978542328 250 255 251
-0.021623952314257622 0.011761875823140144 0.1459999978542328 250 255 251
-0.021280650049448013 0.011761875823140144 0.1459999978542328 250 255 251
-0.020937345921993256 0.011761875823140144 0.1459999978542328 250 255 251
-0.020594041794538498 0.011761875823140144 0.1459999978542328 250 255 251
-0.02025073952972889 0.011761875823140144 0.1459999978542328 250 255 251
-0.019907435402274132 0.011761875823140144 0.1459999978542328 250 255 251
-0.019564131274819374 0.011761875823140144 0.1459999978542328 250 255 251
-0.01935247704386711 0.011842436157166958 0.1469999998807907 250 255 251
-0.019006822258234024 0.011842436157166958 0.1469999998807907 250 255 251
-0.018661167472600937 0.011842436157166958 0.1469999998807907 250 255 251
-0.018440108746290207 0.011922997422516346 0.14800000190734863 250 255 251
-0.01809210143983364 0.011922997422516346 0.14800000190734863 250 255 251
-0.017744095996022224 0.011922997422516346 0.14800000190734863 250 255 251
-0.01739608868956566 0.011922997422516346 0.14800000190734863 250 255 251
-0.017048083245754242 0.011922997422516346 0.14800000190734863 250 255 251
-0.016700075939297676 0.011922997422516346 0.14800000190734863 250 255 251
-0.01635207049548626 0.011922997422516346 0.14800000190734863 250 255 251
-0.016004063189029694 0.011922997422516346 0.14800000190734863 250 255 251
-0.015656057745218277 0.011922997422516346 0.14800000190734863 250 255 251
-0.015308051370084286 0.011922997422516346 0.14800000190734863 221 228 222
-0.014960044994950294 0.011922997422516346 0.14800000190734863 227 234 228
-0.014612038619816303 0.011922997422516346 0.14800000190734863 248 255 249
-0.014264032244682312 0.011922997422516346 0.14800000190734863 250 255 251
-0.014010053128004074 0.01200355775654316 0.14900000393390656 250 255 251
-0.013659695163369179 0.01200355775654316 0.14900000393390656 250 255 251
-0.013309338130056858 0.01200355775654316 0.14900000393390656 252 255 251
-0.012958980165421963 0.01200355775654316 0.14900000393390656 252 255 251
-0.012608622200787067 0.01200355775654316 0.14900000393390656 252 255 251
-0.012258264236152172 0.01200355775654316 0.14900000393390656 252 255 251
-0.011907907202839851 0.01200355775654316 0.14900000393390656 252 255 249
-0.011557549238204956 0.01200355775654316 0.14900000393390656 252 255 249
-0.01128240767866373 0.012084119021892548 0.15000000596046448 254 255 243
-0.010929698124527931 0.012084119021892548 0.15000000596046448 253 255 242
-0.010576989501714706 0.012084119021892548 0.15000000596046448 248 229 184
-0.010224279947578907 0.012084119021892548 0.15000000596046448 206 187 142
-0.009937381371855736 0.012164679355919361 0.1509999930858612 229 175 124
-0.009582321159541607 0.012164679355919361 0.1509999930858612 233 179 128
-0.009227260947227478 0.012164679355919361 0.1509999930858612 239 191 145
-0.008872199803590775 0.012164679355919361 0.1509999930858612 255 209 163
-0.008517139591276646 0.012164679355919361 0.1509999930858612 255 244 207
-0.008162079378962517 0.012164679355919361 0.1509999930858612 255 252 215
-0.007858720608055592 0.01224524062126875 0.15199999511241913 255 255 231
-0.007501308806240559 0.01224524062126875 0.15199999511241913 255 255 233
-0.007143897004425526 0.01224524062126875 0.15199999511241913 252 255 243
-0.006786484736949205 0.01224524062126875 0.15199999511241913 252 255 243
-0.0064290729351341724 0.01224524062126875 0.15199999511241913 252 255 243
-0.0060716611333191395 0.01224524062126875 0.15199999511241913 252 255 243
-0.0057142493315041065 0.01224524062126875 0.15199999511241913 250 253 232
-0.03386998549103737 0.01218809187412262 0.1469999998807907 255 255 245
-0.03352433070540428 0.01218809187412262 0.1469999998807907 254 255 244
-0.032952968031167984 0.012105179019272327 0.1459999978542328 255 255 243
-0.032609667629003525 0.012105179019272327 0.1459999978542328 255 255 243
-0.03226636350154877 0.012105179019272327 0.1459999978542328 254 255 240
-0.03192305937409401 0.012105179019272327 0.1459999978542328 255 255 241
-0.03136345371603966 0.01202226709574461 0.14499999582767487 253 254 243
-0.031022503972053528 0.01202226709574461 0.14499999582767487 246 247 236
-0.0306815505027771 0.01202226709574461 0.14499999582767487 251 255 250
-0.03034059889614582 0.01202226709574461 0.14499999582767487 251 255 250
-0.02999964728951454 0.01202226709574461 0.14499999582767487 252 255 251
-0.029658695682883263 0.01202226709574461 0.14499999582767487 252 255 251
-0.029317742213606834 0.01202226709574461 0.14499999582767487 252 255 251
-0.028976790606975555 0.01202226709574461 0.14499999582767487 252 255 251
-0.028635839000344276 0.01202226709574461 0.14499999582767487 252 255 251
-0.028294885531067848 0.01202226709574461 0.14499999582767487 252 255 251
-0.02795393392443657 0.01202226709574461 0.14499999582767487 252 255 254
-0.02761298231780529 0.01202226709574461 0.14499999582767487 252 255 254
-0.02727203071117401 0.01202226709574461 0.14499999582767487 252 255 254
-0.026931077241897583 0.01202226709574461 0.14499999582767487 252 255 254
-0.026590125635266304 0.01202226709574461 0.14499999582767487 252 255 254
-0.026249174028635025 0.01202226709574461 0.14499999582767487 252 255 254
-0.025908220559358597 0.01202226709574461 0.14499999582767487 252 255 251
-0.025567268952727318 0.01202226709574461 0.14499999582767487 252 255 251
-0.02522631734609604 0.01202226709574461 0.14499999582767487 252 255 251
