-0.07498301 0.01528856 0.26800001 154 55 46 0.000000
-0.07463027 0.01534561 0.26900002 152 53 44 0.000000
-0.06618771 0.01745634 0.30600002 253 114 103 0.000000
-0.06611003 0.01762748 0.30900002 251 112 101 0.000000
-0.06580664 0.01774157 0.31100002 255 106 96 0.000000
-0.06549385 0.01785567 0.31300002 239 84 74 0.000000
-0.06517165 0.01796976 0.31500003 247 86 71 0.000000
-0.06484004 0.01808385 0.31700000 245 84 69 0.000000
-0.06429684 0.01814090 0.31800002 244 81 67 0.000000
-0.06374894 0.01819795 0.31900001 240 77 63 0.000000
-0.06319634 0.01825499 0.32000002 253 92 79 0.000000
-0.06244389 0.01825499 0.32000002 255 103 90 0.000000
-0.06188423 0.01831204 0.32100001 255 104 94 0.000000
-0.06093900 0.01825499 0.32000002 255 104 94 0.000000
-0.05999847 0.01819795 0.31900001 247 85 77 0.000000
-0.05906264 0.01814090 0.31800002 238 76 68 0.000000
-0.05794814 0.01802681 0.31600001 242 72 62 0.000000
-0.05684304 0.01791271 0.31400001 255 86 76 0.000000
-0.05592603 0.01785567 0.31300002 251 84 71 0.000000
-0.05466106 0.01768452 0.31000000 255 92 79 0.000000
-0.05358418 0.01757043 0.30800003 255 96 82 0.000000
-0.05251670 0.01745634 0.30600002 255 95 81 0.000000
-0.05145863 0.01734225 0.30400002 255 96 81 0.000000
-0.05057689 0.01728520 0.30300000 254 93 78 0.000000
-0.04953528 0.01717110 0.30100003 255 94 79 0.000000
-0.04866529 0.01711406 0.30000001 255 97 82 0.000000
-0.04795987 0.01711406 0.30000001 252 91 78 0.000000
-0.04725445 0.01711406 0.30000001 252 91 78 0.000000
-0.04639388 0.01705701 0.29900002 242 87 79 0.000000
-0.04553799 0.01699996 0.29800001 254 99 91 0.000000
-0.04468682 0.01694292 0.29700002 255 130 121 0.000000
-0.13547002 0.01645331 0.27700001 62 63 50 0.000000
-0.13481867 0.01645331 0.27700001 54 55 42 0.000000
-0.13416734 0.01645331 0.27700001 39 40 29 0.000000
-0.13351601 0.01645331 0.27700001 26 27 16 0.000000
-0.13286467 0.01645331 0.27700001 23 24 13 0.000000
-0.13221332 0.01645331 0.27700001 32 33 22 0.000000
-0.13108705 0.01639392 0.27600002 66 60 47 0.000000
-0.12949286 0.01627512 0.27400002 66 60 47 0.000000
-0.12837832 0.01621572 0.27300000 72 54 43 0.000000
-0.12680060 0.01609693 0.27100003 76 58 47 0.000000
-0.12569782 0.01603753 0.27000001 95 57 48 0.000000
-0.12413655 0.01591873 0.26800001 104 66 57 0.000000
-0.12304553 0.01585933 0.26700002 147 83 76 0.000000
-0.12195922 0.01579993 0.26600000 142 78 71 0.000000
-0.12042146 0.01568114 0.26400000 157 81 67 0.000000
-0.11980069 0.01568114 0.26400000 160 84 70 0.000000
-0.11872849 0.01562174 0.26300001 169 84 66 0.000000
-0.11855915 0.01568114 0.26400000 167 82 64 0.000000
-0.11838513 0.01574054 0.26500002 170 84 64 0.000000
-0.11865078 0.01585933 0.26700002 172 86 66 0.000000
-0.11934905 0.01603753 0.27000001 172 85 70 0.000000
-0.11959355 0.01615632 0.27200001 145 58 43 0.000000
-0.12026595 0.01633452 0.27500001 140 52 42 0.000000
-0.12219854 0.01686910 0.28400001 130 45 29 0.000000
-0.12195869 0.01692850 0.28500003 128 48 24 0.000000
-0.12171410 0.01698790 0.28600001 131 51 27 0.000000
-0.12104160 0.01698790 0.28600001 131 51 27 0.000000
-0.11994825 0.01692850 0.28500003 128 48 24 0.000000
-0.08380544 0.01591873 0.26800001 151 60 53 0.000000
-0.08317526 0.01591873 0.26800001 151 56 50 0.000000
-0.08254509 0.01591873 0.26800001 157 62 56 0.000000
-0.08160927 0.01585933 0.26700002 159 61 56 0.000000
-0.08098145 0.01585933 0.26700002 158 60 55 0.000000
-0.08035363 0.01585933 0.26700002 152 54 49 0.000000
-0.07972580 0.01585933 0.26700002 147 49 44 0.000000
-0.07880173 0.01579993 0.26600000 151 53 46 0.000000
-0.07817625 0.01579993 0.26600000 152 54 47 0.000000
-0.07784233 0.01585933 0.26700002 153 55 48 0.000000
-0.07721452 0.01585933 0.26700002 153 55 48 0.000000
-0.07658669 0.01585933 0.26700002 157 59 52 0.000000
-0.07595886 0.01585933 0.26700002 149 51 44 0.000000
-0.07561319 0.01591873 0.26800001 147 49 42 0.000000
-0.07498301 0.01591873 0.26800001 151 53 46 0.000000
-0.07490771 0.01603753 0.27000001 144 49 43 0.000000
-0.07427283 0.01603753 0.27000001 141 46 40 0.000000
-0.07418342 0.01615632 0.27200001 145 58 54 0.000000
-0.07381422 0.01621572 0.27300000 163 76 72 0.000000
-0.07317229 0.01621572 0.27300000 163 95 87 0.000000
-0.07253036 0.01621572 0.27300000 171 103 95 0.000000
-0.07241508 0.01633452 0.27500001 171 108 98 0.000000
-0.06618771 0.01817586 0.30600002 251 112 103 0.000000
-0.06589608 0.01829466 0.30800003 251 112 103 0.000000
-0.06559504 0.01841346 0.31000000 255 108 100 0.000000
-0.06528460 0.01853225 0.31200001 235 80 72 0.000000
-0.06496476 0.01865105 0.31400001 244 83 68 0.000000
-0.06463551 0.01876985 0.31600001 241 80 65 0.000000
-0.06409465 0.01882924 0.31700000 241 79 62 0.000000
-0.06354910 0.01888864 0.31800002 244 82 65 0.000000
-0.06299885 0.01894804 0.31900001 244 78 67 0.000000
-0.06244389 0.01900744 0.32000002 255 94 83 0.000000
-0.06169144 0.01900744 0.32000002 255 104 94 0.000000
-0.06093900 0.01900744 0.32000002 255 101 91 0.000000
-0.05999847 0.01894804 0.31900001 255 102 94 0.000000
-0.05906264 0.01888864 0.31800002 225 69 61 0.000000
-0.05794814 0.01876985 0.31600001 238 64 60 0.000000
-0.05684304 0.01865105 0.31400001 253 79 75 0.000000
-0.05574735 0.01853225 0.31200001 245 72 61 0.000000
-0.05466106 0.01841346 0.31000000 253 80 69 0.000000
-0.05358418 0.01829466 0.30800003 253 91 74 0.000000
-0.05251670 0.01817586 0.30600002 255 94 77 0.000000
-0.05145863 0.01805707 0.30400002 255 95 77 0.000000
-0.05040997 0.01793827 0.30200002 255 98 80 0.000000
-0.04937071 0.01781947 0.30000001 255 94 81 0.000000
-0.04866529 0.01781947 0.30000001 255 94 81 0.000000
-0.04780001 0.01776008 0.29900002 254 93 80 0.000000
-0.04693943 0.01770068 0.29800001 255 94 81 0.000000
-0.04608355 0.01764128 0.29700002 244 92 81 0.000000
-0.04538518 0.01764128 0.29700002 255 106 95 0.000000
-0.13562994 0.01704290 0.27600002 63 65 49 0.000000
-0.13498096 0.01704290 0.27600002 62 64 48 0.000000
-0.13433197 0.01704290 0.27600002 65 67 51 0.000000
-0.13368298 0.01704290 0.27600002 54 55 44 0.000000
-0.13303401 0.01704290 0.27600002 39 40 29 0.000000
-0.13238502 0.01704290 0.27600002 21 22 11 0.000000
-0.13173604 0.01704290 0.27600002 24 25 14 0.000000
-0.13061209 0.01698115 0.27500001 32 30 18 0.000000
-0.12949286 0.01691940 0.27400002 49 47 35 0.000000
-0.12837832 0.01685765 0.27300000 83 70 57 0.000000
-0.12726849 0.01679590 0.27200001 79 66 53 0.000000
-0.12616338 0.01673415 0.27100003 85 59 48 0.000000
-0.12459975 0.01661065 0.26900002 92 66 55 0.000000
-0.12304553 0.01648716 0.26700002 136 82 74 0.000000
-0.12195922 0.01642540 0.26600000 133 79 71 0.000000
-0.12087761 0.01636366 0.26500002 154 80 67 0.000000
-0.11980069 0.01630191 0.26400000 157 83 70 0.000000
-0.11917993 0.01630191 0.26400000 167 85 68 0.000000
-0.11855915 0.01630191 0.26400000 167 85 68 0.000000
-0.11838513 0.01636366 0.26500002 169 84 66 0.000000
-0.11865078 0.01648716 0.26700002 173 88 70 0.000000
-0.11890703 0.01661065 0.26900002 177 92 76 0.000000
-0.11959355 0.01679590 0.27200001 148 63 47 0.000000
-0.11982863 0.01691940 0.27400002 132 44 34 0.000000
-0.12048928 0.01710465 0.27700001 135 47 37 0.000000
-0.12113582 0.01728990 0.28000000 132 50 35 0.000000
-0.12133799 0.01741340 0.28200001 131 49 34 0.000000
-0.12110283 0.01747515 0.28300002 130 49 30 0.000000
-0.12043738 0.01747515 0.28300002 133 52 33 0.000000
-0.11977194 0.01747515 0.28300002 131 50 31 0.000000
-0.07721452 0.01648716 0.26700002 142 54 44 0.000000
-0.07658669 0.01648716 0.26700002 144 53 44 0.000000
-0.07595886 0.01648716 0.26700002 144 53 44 0.000000
-0.07561319 0.01654890 0.26800001 146 58 50 0.000000
-0.07526280 0.01661065 0.26900002 147 59 51 0.000000
-0.06603263 0.01864839 0.30200002 235 109 105 0.000000
-0.06575511 0.01877189 0.30400002 245 105 101 0.000000
-0.06568213 0.01895714 0.30700001 248 108 104 0.000000
-0.06538345 0.01908064 0.30900002 251 94 89 0.000000
-0.06507536 0.01920414 0.31100002 235 78 73 0.000000
-0.06475786 0.01932764 0.31300002 240 77 65 0.000000
-0.06443097 0.01945114 0.31500003 238 75 63 0.000000
-0.06409465 0.01957464 0.31700000 241 76 60 0.000000
-0.06334926 0.01957464 0.31700000 244 79 63 0.000000
-0.06280136 0.01963639 0.31800002 246 80 67 0.000000
-0.06224875 0.01969814 0.31900001 254 88 75 0.000000
-0.06149866 0.01969814 0.31900001 255 104 93 0.000000
-0.06074856 0.01969814 0.31900001 255 98 87 0.000000
-0.05999847 0.01969814 0.31900001 255 102 92 0.000000
-0.05906264 0.01963639 0.31800002 244 88 78 0.000000
-0.05794814 0.01951289 0.31600001 233 62 55 0.000000
-0.05684304 0.01938939 0.31400001 239 68 61 0.000000
-0.05574735 0.01926589 0.31200001 240 67 56 0.000000
-0.05448473 0.01908064 0.30900002 255 82 71 0.000000
-0.05341021 0.01895714 0.30700001 252 89 75 0.000000
-0.05234508 0.01883364 0.30500001 255 92 78 0.000000
-0.05128936 0.01871014 0.30300000 255 98 82 0.000000
-0.05024305 0.01858664 0.30100003 255 99 83 0.000000
-0.04920614 0.01846314 0.29900002 255 98 84 0.000000
-0.04834086 0.01840139 0.29800001 255 97 83 0.000000
-0.04764014 0.01840139 0.29800001 253 94 83 0.000000
-0.04678191 0.01833965 0.29700002 255 96 85 0.000000
-0.04592838 0.01827789 0.29600000 247 100 89 0.000000
-0.04523237 0.01827789 0.29600000 255 116 105 0.000000
-0.13513853 0.01762778 0.27500001 60 63 45 0.000000
-0.13449189 0.01762778 0.27500001 61 64 48 0.000000
-0.13384525 0.01762778 0.27500001 65 68 52 0.000000
-0.13319862 0.01762778 0.27500001 70 71 60 0.000000
-0.13255200 0.01762778 0.27500001 61 62 51 0.000000
-0.13238502 0.01769189 0.27600002 27 28 17 0.000000
-0.13125873 0.01762778 0.27500001 23 24 13 0.000000
-0.13061209 0.01762778 0.27500001 18 19 6 0.000000
-0.12949286 0.01756368 0.27400002 27 28 15 0.000000
-0.12837832 0.01749958 0.27300000 71 63 51 0.000000
-0.12726849 0.01743548 0.27200001 73 65 53 0.000000
-0.12616338 0.01737138 0.27100003 81 63 52 0.000000
-0.12459975 0.01724318 0.26900002 82 64 53 0.000000
-0.12350637 0.01717908 0.26800001 108 70 63 0.000000
-0.12241772 0.01711498 0.26700002 129 91 84 0.000000
-0.12133374 0.01705088 0.26600000 145 80 71 0.000000
-0.12025449 0.01698677 0.26500002 144 79 70 0.000000
-0.11917993 0.01692267 0.26400000 158 80 64 0.000000
-0.11855915 0.01692267 0.26400000 162 84 68 0.000000
-0.11838513 0.01698677 0.26500002 167 85 66 0.000000
-0.11865078 0.01711498 0.26700002 171 89 70 0.000000
-0.11846499 0.01717908 0.26800001 177 92 76 0.000000
-0.11915386 0.01737138 0.27100003 139 54 38 0.000000
-0.11939128 0.01749958 0.27300000 127 42 28 0.000000
-0.11961932 0.01762778 0.27500001 134 49 35 0.000000
-0.11983795 0.01775599 0.27700001 134 47 41 0.000000
-0.12047743 0.01794829 0.28000000 133 46 40 0.000000
-0.11981905 0.01794829 0.28000000 129 46 34 0.000000
-0.11958624 0.01801239 0.28100002 132 49 37 0.000000
-0.11892549 0.01801239 0.28100002 131 48 36 0.000000
-0.11826476 0.01801239 0.28100002 127 44 32 0.000000
-0.06559533 0.01923031 0.30000001 231 105 101 0.000000
-0.06553881 0.01942261 0.30300000 246 101 99 0.000000
-0.06525423 0.01955082 0.30500001 246 101 99 0.000000
-0.06517185 0.01974312 0.30800003 249 93 85 0.000000
-0.06486611 0.01987132 0.31000000 246 90 82 0.000000
-0.06455097 0.01999952 0.31200001 244 81 67 0.000000
-0.06422642 0.02012772 0.31400001 238 75 61 0.000000
-0.06369027 0.02019183 0.31500003 240 75 57 0.000000
-0.06334926 0.02032003 0.31700000 243 78 60 0.000000
-0.06260387 0.02032003 0.31700000 245 79 61 0.000000
-0.06205361 0.02038413 0.31800002 249 83 65 0.000000
-0.06149866 0.02044823 0.31900001 253 95 79 0.000000
-0.06074856 0.02044823 0.31900001 255 99 83 0.000000
-0.05981039 0.02038413 0.31800002 255 103 86 0.000000
-0.05887691 0.02032003 0.31700000 255 105 88 0.000000
-0.05776476 0.02019183 0.31500003 245 78 67 0.000000
-0.05666201 0.02006363 0.31300002 234 67 56 0.000000
-0.05556867 0.01993542 0.31100002 244 72 58 0.000000
-0.05430841 0.01974312 0.30800003 244 72 58 0.000000
-0.05323623 0.01961492 0.30600002 251 90 75 0.000000
-0.05200183 0.01942261 0.30300000 254 93 78 0.000000
-0.05095082 0.01929441 0.30100003 255 102 85 0.000000
-0.04990921 0.01916621 0.29900002 255 100 83 0.000000
-0.04887700 0.01903801 0.29700002 254 99 84 0.000000
-0.04817864 0.01903801 0.29700002 251 96 81 0.000000
-0.04732040 0.01897391 0.29600000 253 97 85 0.000000
-0.04646688 0.01890981 0.29500002 253 97 85 0.000000
-0.04577322 0.01890981 0.29500002 240 99 91 0.000000
-0.13464712 0.01820797 0.27400002 62 64 46 0.000000
-0.13400283 0.01820797 0.27400002 62 64 48 0.000000
-0.13335855 0.01820797 0.27400002 66 68 52 0.000000
-0.13271427 0.01820797 0.27400002 63 64 51 0.000000
-0.13206999 0.01820797 0.27400002 60 61 48 0.000000
-0.13142571 0.01820797 0.27400002 55 56 45 0.000000
-0.13078143 0.01820797 0.27400002 38 39 28 0.000000
-0.13013713 0.01820797 0.27400002 20 22 11 0.000000
-0.12949286 0.01820797 0.27400002 15 17 6 0.000000
-0.12837832 0.01814151 0.27300000 47 43 34 0.000000
-0.12726849 0.01807506 0.27200001 58 54 45 0.000000
-0.12616338 0.01800861 0.27100003 71 60 51 0.000000
-0.12506294 0.01794216 0.27000001 73 62 53 0.000000
-0.12350637 0.01780925 0.26800001 85 58 52 0.000000
-0.12241772 0.01774280 0.26700002 102 75 69 0.000000
-0.12133374 0.01767635 0.26600000 127 70 61 0.000000
-0.12025449 0.01760989 0.26500002 138 81 72 0.000000
-0.11963137 0.01760989 0.26500002 156 80 66 0.000000
-0.11900825 0.01760989 0.26500002 158 82 68 0.000000
-0.11838513 0.01760989 0.26500002 162 84 66 0.000000
-0.11820638 0.01767635 0.26600000 168 90 72 0.000000
-0.11846499 0.01780925 0.26800001 174 92 75 0.000000
-0.11827450 0.01787570 0.26900002 136 54 37 0.000000
-0.11851664 0.01800861 0.27100003 135 48 35 0.000000
-0.11874937 0.01814151 0.27300000 134 47 34 0.000000
-0.11897269 0.01827442 0.27500001 134 46 38 0.000000
-0.11918661 0.01840732 0.27700001 131 43 35 0.000000
-0.11896321 0.01847378 0.27800003 131 42 37 0.000000
-0.11830952 0.01847378 0.27800003 135 46 41 0.000000
-0.11765583 0.01847378 0.27800003 133 46 40 0.000000
-0.11700214 0.01847378 0.27800003 131 44 38 0.000000
-0.11634845 0.01847378 0.27800003 136 50 41 0.000000
-0.11527859 0.01840732 0.27700001 136 50 41 0.000000
-0.06510621 0.02000218 0.30100003 234 90 83 0.000000
-0.06482633 0.02013509 0.30300000 241 97 90 0.000000
-0.06474866 0.02033444 0.30600002 253 92 79 0.000000
-0.06423838 0.02040090 0.30700001 248 87 74 0.000000
-0.06393029 0.02053380 0.30900002 239 74 56 0.000000
-0.06381733 0.02073316 0.31200001 241 76 58 0.000000
-0.06348808 0.02086606 0.31400001 240 74 54 0.000000
-0.06294958 0.02093252 0.31500003 240 74 54 0.000000
-0.06240638 0.02099897 0.31600001 241 75 55 0.000000
-0.06185848 0.02106542 0.31700000 242 76 56 0.000000
-0.06111309 0.02106542 0.31700000 252 92 74 0.000000
-0.06036769 0.02106542 0.31700000 255 99 81 0.000000
-0.05962230 0.02106542 0.31700000 255 102 85 0.000000
-0.05869118 0.02099897 0.31600001 255 103 86 0.000000
-0.05758138 0.02086606 0.31400001 251 84 73 0.000000
-0.05648098 0.02073316 0.31200001 234 67 56 0.000000
-0.05521132 0.02053380 0.30900002 243 73 61 0.000000
-0.05413208 0.02040090 0.30700001 253 83 71 0.000000
-0.05288828 0.02020154 0.30400002 253 95 81 0.000000
-0.05165859 0.02000218 0.30100003 255 97 83 0.000000
-0.05061227 0.01986928 0.29900002 255 101 86 0.000000
-0.04957537 0.01973637 0.29700002 255 103 88 0.000000
-0.04871243 0.01966992 0.29600000 254 100 85 0.000000
-0.04785420 0.01960347 0.29500002 253 99 84 0.000000
-0.04700067 0.01953701 0.29400000 251 99 86 0.000000
-0.04630936 0.01953701 0.29400000 246 94 81 0.000000
-0.04546290 0.01947056 0.29300001 243 113 106 0.000000
-0.13529140 0.01885225 0.27400002 62 64 48 0.000000
-0.13464712 0.01885225 0.27400002 63 65 49 0.000000
-0.13400283 0.01885225 0.27400002 63 65 49 0.000000
-0.13335855 0.01885225 0.27400002 63 65 49 0.000000
-0.13271427 0.01885225 0.27400002 61 63 47 0.000000
-0.13206999 0.01885225 0.27400002 55 57 41 0.000000
-0.13142571 0.01885225 0.27400002 53 54 43 0.000000
-0.13030411 0.01878344 0.27300000 46 47 36 0.000000
-0.12966217 0.01878344 0.27300000 21 22 11 0.000000
-0.12902026 0.01878344 0.27300000 16 17 6 0.000000
-0.12837832 0.01878344 0.27300000 13 14 3 0.000000
-0.12726849 0.01871464 0.27200001 30 31 20 0.000000
-0.12616338 0.01864584 0.27100003 58 54 45 0.000000
-0.12506294 0.01857703 0.27000001 68 64 55 0.000000
-0.12396722 0.01850823 0.26900002 70 57 46 0.000000
-0.12287620 0.01843943 0.26800001 69 56 45 0.000000
-0.12178989 0.01837062 0.26700002 95 49 41 0.000000
-0.12070827 0.01830182 0.26600000 123 77 69 0.000000
-0.11963137 0.01823301 0.26500002 154 82 71 0.000000
-0.11900825 0.01823301 0.26500002 154 82 71 0.000000
-0.11883186 0.01830182 0.26600000 158 83 66 0.000000
-0.11820638 0.01830182 0.26600000 167 92 75 0.000000
-0.11802296 0.01837062 0.26700002 176 95 78 0.000000
-0.11783481 0.01843943 0.26800001 150 69 52 0.000000
-0.11807930 0.01857703 0.27000001 151 58 47 0.000000
-0.11787941 0.01864584 0.27100003 142 49 38 0.000000
-0.11810743 0.01878344 0.27300000 142 48 40 0.000000
-0.11789578 0.01885225 0.27400002 141 47 39 0.000000
-0.11767942 0.01892105 0.27500001 131 43 35 0.000000
-0.11703279 0.01892105 0.27500001 134 46 38 0.000000
-0.11680938 0.01898986 0.27600002 134 45 40 0.000000
-0.11616040 0.01898986 0.27600002 135 46 41 0.000000
-0.11509289 0.01892105 0.27500001 137 49 41 0.000000
-0.11444625 0.01892105 0.27500001 134 46 38 0.000000
-0.11379962 0.01892105 0.27500001 139 51 41 0.000000
-0.11315299 0.01892105 0.27500001 142 54 44 0.000000
-0.06445731 0.02050354 0.29800001 233 89 77 0.000000
-0.06418449 0.02064115 0.30000001 235 91 79 0.000000
-0.06411386 0.02084756 0.30300000 252 91 76 0.000000
-0.06361064 0.02091636 0.30400002 246 85 70 0.000000
-0.06351650 0.02112277 0.30700001 242 77 61 0.000000
-0.06320371 0.02126038 0.30900002 241 76 60 0.000000
-0.06288151 0.02139799 0.31100002 240 74 54 0.000000
-0.06254990 0.02153560 0.31300002 240 74 54 0.000000
-0.06220890 0.02167321 0.31500003 241 76 53 0.000000
-0.06146821 0.02167321 0.31500003 245 80 57 0.000000
-0.06092030 0.02174201 0.31600001 249 92 71 0.000000
-0.06017726 0.02174201 0.31600001 255 101 80 0.000000
-0.05924614 0.02167321 0.31500003 255 102 82 0.000000
-0.05850545 0.02167321 0.31500003 253 99 79 0.000000
-0.05739800 0.02153560 0.31300002 237 74 62 0.000000
-0.05611892 0.02132918 0.31000000 231 68 56 0.000000
-0.05485396 0.02112277 0.30700001 237 70 62 0.000000
-0.05377943 0.02098517 0.30500001 255 91 83 0.000000
-0.05254033 0.02077876 0.30200002 253 97 85 0.000000
-0.05148696 0.02064115 0.30000001 254 98 86 0.000000
-0.05027373 0.02043474 0.29700002 254 103 87 0.000000
-0.04924153 0.02029713 0.29500002 255 106 90 0.000000
-0.04838329 0.02022832 0.29400000 254 105 88 0.000000
-0.04752977 0.02015952 0.29300001 253 104 87 0.000000
-0.04668094 0.02009072 0.29200003 245 102 90 0.000000
-0.04599434 0.02009072 0.29200003 245 102 90 0.000000
-0.13415569 0.01942537 0.27300000 64 63 48 0.000000
-0.13351376 0.01942537 0.27300000 60 62 46 0.000000
-0.13287184 0.01942537 0.27300000 61 63 47 0.000000
-0.13222989 0.01942537 0.27300000 60 61 48 0.000000
-0.13158798 0.01942537 0.27300000 55 56 43 0.000000
-0.13094604 0.01942537 0.27300000 56 57 44 0.000000
-0.13030411 0.01942537 0.27300000 59 60 47 0.000000
-0.12966217 0.01942537 0.27300000 53 54 41 0.000000
-0.12854765 0.01935422 0.27200001 37 38 25 0.000000
-0.12790808 0.01935422 0.27200001 19 20 9 0.000000
-0.12726849 0.01935422 0.27200001 26 27 16 0.000000
-0.12616338 0.01928307 0.27100003 35 33 23 0.000000
-0.12552615 0.01928307 0.27100003 58 56 46 0.000000
-0.12396722 0.01914075 0.26900002 68 61 51 0.000000
-0.12287620 0.01906960 0.26800001 64 57 47 0.000000
-0.12224603 0.01906960 0.26800001 83 45 36 0.000000
-0.12116207 0.01899844 0.26700002 114 76 67 0.000000
-0.12008280 0.01892729 0.26600000 149 81 73 0.000000
-0.11945733 0.01892729 0.26600000 152 84 76 0.000000
-0.11883186 0.01892729 0.26600000 157 83 68 0.000000
-0.11865078 0.01899844 0.26700002 166 92 77 0.000000
-0.11846499 0.01906960 0.26800001 180 99 84 0.000000
-0.11783481 0.01906960 0.26800001 159 78 63 0.000000
-0.11764198 0.01914075 0.26900002 153 60 49 0.000000
-0.11744443 0.01921191 0.27000001 155 62 51 0.000000
-0.11724219 0.01928307 0.27100003 151 56 48 0.000000
-0.11703523 0.01935422 0.27200001 152 57 49 0.000000
-0.11682357 0.01942537 0.27300000 141 47 41 0.000000
-0.11618164 0.01942537 0.27300000 149 55 49 0.000000
-0.11553971 0.01942537 0.27300000 142 48 42 0.000000
-0.11489778 0.01942537 0.27300000 140 46 40 0.000000
-0.11425585 0.01942537 0.27300000 140 46 40 0.000000
-0.11403009 0.01949653 0.27400002 141 47 41 0.000000
-0.11338580 0.01949653 0.27400002 142 48 40 0.000000
-0.11274153 0.01949653 0.27400002 143 49 41 0.000000
-0.11209724 0.01949653 0.27400002 144 53 44 0.000000
-0.11145296 0.01949653 0.27400002 145 54 45 0.000000
-0.06402471 0.02106194 0.29600000 229 85 71 0.000000
-0.06354265 0.02113310 0.29700002 232 88 74 0.000000
-0.06326748 0.02127541 0.29900002 241 86 69 0.000000
-0.06298291 0.02141772 0.30100003 241 86 69 0.000000
-0.06268892 0.02156003 0.30300000 241 80 65 0.000000
-0.06238553 0.02170234 0.30500001 239 78 63 0.000000
-0.06207274 0.02184465 0.30700001 239 77 60 0.000000
-0.06175054 0.02198696 0.30900002 237 75 58 0.000000
-0.06122145 0.02205812 0.31000000 241 75 55 0.000000
-0.06068765 0.02212927 0.31100002 245 79 59 0.000000
-0.06014916 0.02220043 0.31200001 245 85 63 0.000000
-0.05941552 0.02220043 0.31200001 255 102 80 0.000000
-0.05868189 0.02220043 0.31200001 255 104 82 0.000000
-0.05776252 0.02212927 0.31100002 255 101 79 0.000000
-0.05684786 0.02205812 0.31000000 243 82 67 0.000000
-0.05449660 0.02170234 0.30500001 255 97 86 0.000000
-0.05342678 0.02156003 0.30300000 255 98 87 0.000000
-0.05219238 0.02134657 0.30000001 254 102 89 0.000000
-0.05114371 0.02120425 0.29800001 254 102 89 0.000000
-0.05010446 0.02106194 0.29600000 254 107 92 0.000000
-0.04907461 0.02091963 0.29400000 255 109 94 0.000000
-0.04805416 0.02077732 0.29200003 255 108 93 0.000000
-0.04736755 0.02077732 0.29200003 252 105 90 0.000000
-0.04652108 0.02070617 0.29100001 237 105 96 0.000000
-0.04583682 0.02070617 0.29100001 255 131 122 0.000000
-0.13415569 0.02006730 0.27300000 65 66 53 0.000000
-0.13351376 0.02006730 0.27300000 63 64 51 0.000000
-0.13287184 0.02006730 0.27300000 63 64 51 0.000000
-0.13222989 0.02006730 0.27300000 60 61 48 0.000000
-0.13158798 0.02006730 0.27300000 56 57 44 0.000000
-0.13094604 0.02006730 0.27300000 61 63 50 0.000000
-0.12982681 0.01999380 0.27200001 60 62 49 0.000000
-0.12918723 0.01999380 0.27200001 55 56 43 0.000000
-0.12854765 0.01999380 0.27200001 46 47 34 0.000000
-0.12790808 0.01999380 0.27200001 28 29 16 0.000000
-0.12726849 0.01999380 0.27200001 26 27 14 0.000000
-0.12662892 0.01999380 0.27200001 20 21 8 0.000000
-0.12552615 0.01992029 0.27100003 37 38 25 0.000000
-0.12442806 0.01984679 0.27000001 63 59 48 0.000000
-0.12333471 0.01977328 0.26900002 62 58 47 0.000000
-0.12224603 0.01969977 0.26800001 80 46 38 0.000000
-0.12161586 0.01969977 0.26800001 105 71 63 0.000000
-0.12053425 0.01962627 0.26700002 138 72 68 0.000000
-0.11990643 0.01962627 0.26700002 150 84 80 0.000000
-0.11927860 0.01962627 0.26700002 162 85 76 0.000000
-0.11865078 0.01962627 0.26700002 165 88 79 0.000000
-0.11846499 0.01969977 0.26800001 173 95 79 0.000000
-0.11783481 0.01969977 0.26800001 157 79 63 0.000000
-0.11764198 0.01977328 0.26900002 155 65 51 0.000000
-0.11700945 0.01977328 0.26900002 158 68 54 0.000000
-0.11680955 0.01984679 0.27000001 156 62 51 0.000000
-0.11617467 0.01984679 0.27000001 156 62 51 0.000000
-0.11596774 0.01992029 0.27100003 157 63 52 0.000000
-0.11533050 0.01992029 0.27100003 157 63 52 0.000000
-0.11469327 0.01992029 0.27100003 147 53 45 0.000000
-0.11405605 0.01992029 0.27100003 142 48 40 0.000000
-0.11383733 0.01999380 0.27200001 144 51 40 0.000000
-0.11319775 0.01999380 0.27200001 144 51 40 0.000000
-0.11255817 0.01999380 0.27200001 142 49 38 0.000000
-0.11233006 0.02006730 0.27300000 142 49 38 0.000000
-0.11168812 0.02006730 0.27300000 144 50 42 0.000000
-0.11104619 0.02006730 0.27300000 142 48 40 0.000000
-0.11040427 0.02006730 0.27300000 145 57 47 0.000000
-0.10976233 0.02006730 0.27300000 143 55 45 0.000000
-0.06337582 0.02153744 0.29300001 228 88 73 0.000000
-0.06290080 0.02161094 0.29400000 226 86 71 0.000000
-0.06263269 0.02175796 0.29600000 233 82 66 0.000000
-0.06214592 0.02183146 0.29700002 233 82 66 0.000000
-0.06186134 0.02197848 0.29900002 235 80 65 0.000000
-0.06156737 0.02212549 0.30100003 235 80 65 0.000000
-0.06106178 0.02219900 0.30200002 236 78 62 0.000000
-0.06055150 0.02227250 0.30300000 234 76 60 0.000000
-0.06023401 0.02241952 0.30500001 240 75 57 0.000000
-0.05971197 0.02249302 0.30600002 246 81 63 0.000000
-0.05918523 0.02256653 0.30700001 250 90 72 0.000000
-0.05865379 0.02264004 0.30800003 255 100 82 0.000000
-0.05811764 0.02271354 0.30900002 255 107 87 0.000000
-0.05739106 0.02271354 0.30900002 255 101 81 0.000000
-0.05431793 0.02234601 0.30400002 255 105 93 0.000000
-0.05325045 0.02219900 0.30200002 255 102 90 0.000000
-0.05201841 0.02197848 0.29900002 252 108 92 0.000000
-0.05097209 0.02183146 0.29700002 254 110 94 0.000000
-0.04993519 0.02168445 0.29500002 255 112 96 0.000000
-0.04890769 0.02153744 0.29300001 255 111 95 0.000000
-0.04805416 0.02146393 0.29200003 249 111 95 0.000000
-0.04720533 0.02139042 0.29100001 245 107 91 0.000000
-0.04636121 0.02131692 0.29000002 244 125 119 0.000000
-0.04567931 0.02131692 0.29000002 255 160 154 0.000000
-0.13302471 0.02063338 0.27200001 62 63 50 0.000000
-0.13238513 0.02063338 0.27200001 63 64 51 0.000000
-0.13174555 0.02063338 0.27200001 62 63 50 0.000000
-0.13158798 0.02070924 0.27300000 60 61 48 0.000000
-0.13094604 0.02070924 0.27300000 61 63 50 0.000000
-0.13030411 0.02070924 0.27300000 60 62 49 0.000000
-0.12966217 0.02070924 0.27300000 58 60 47 0.000000
-0.12902026 0.02070924 0.27300000 54 56 43 0.000000
-0.12790808 0.02063338 0.27200001 49 50 37 0.000000
-0.12726849 0.02063338 0.27200001 39 40 27 0.000000
-0.12662892 0.02063338 0.27200001 25 26 13 0.000000
-0.12598933 0.02063338 0.27200001 28 29 16 0.000000
-0.12488892 0.02055752 0.27100003 23 21 9 0.000000
-0.12425169 0.02055752 0.27100003 44 42 30 0.000000
-0.12315831 0.02048166 0.27000001 77 46 37 0.000000
-0.12206965 0.02040580 0.26900002 102 71 62 0.000000
-0.12098569 0.02032994 0.26800001 128 64 57 0.000000
-0.12035551 0.02032994 0.26800001 139 75 68 0.000000
-0.11972533 0.02032994 0.26800001 162 87 77 0.000000
-0.11909515 0.02032994 0.26800001 162 87 77 0.000000
-0.11846499 0.02032994 0.26800001 167 92 75 0.000000
-0.11783481 0.02032994 0.26800001 167 92 75 0.000000
-0.11720464 0.02032994 0.26800001 164 77 60 0.000000
-0.11657447 0.02032994 0.26800001 154 67 50 0.000000
-0.11594430 0.02032994 0.26800001 163 66 52 0.000000
-0.11574440 0.02040580 0.26900002 161 64 50 0.000000
-0.11511188 0.02040580 0.26900002 163 66 54 0.000000
-0.11490492 0.02048166 0.27000001 163 66 54 0.000000
-0.11427004 0.02048166 0.27000001 162 68 55 0.000000
-0.11363517 0.02048166 0.27000001 159 65 52 0.000000
-0.11300030 0.02048166 0.27000001 155 61 48 0.000000
-0.11278159 0.02055752 0.27100003 154 60 47 0.000000
-0.11214436 0.02055752 0.27100003 151 57 44 0.000000
-0.11150714 0.02055752 0.27100003 151 57 44 0.000000
-0.11127902 0.02063338 0.27200001 153 56 44 0.000000
-0.11063943 0.02063338 0.27200001 153 56 44 0.000000
-0.10999986 0.02063338 0.27200001 150 57 46 0.000000
-0.10936028 0.02063338 0.27200001 149 56 45 0.000000
-0.10872070 0.02063338 0.27200001 143 55 45 0.000000
-0.10808112 0.02063338 0.27200001 142 54 44 0.000000
-0.06272691 0.02199882 0.29000002 228 90 74 0.000000
-0.06225896 0.02207468 0.29100001 228 90 74 0.000000
-0.06178630 0.02215054 0.29200003 228 85 66 0.000000
-0.06130894 0.02222640 0.29300001 226 83 64 0.000000
-0.06082687 0.02230225 0.29400000 229 78 62 0.000000
-0.06054465 0.02245397 0.29600000 226 75 59 0.000000
-0.06005083 0.02252983 0.29700002 229 75 60 0.000000
-0.05975214 0.02268155 0.29900002 229 75 60 0.000000
-0.05924657 0.02275740 0.30000001 240 77 63 0.000000
-0.05873629 0.02283326 0.30100003 247 84 70 0.000000
-0.05841408 0.02298498 0.30300000 249 91 75 0.000000
-0.05789205 0.02306083 0.30400002 255 102 86 0.000000
-0.05736531 0.02313669 0.30500001 255 107 89 0.000000
-0.05683387 0.02321255 0.30600002 247 96 78 0.000000
-0.05593095 0.02313669 0.30500001 244 95 78 0.000000
-0.05503275 0.02306083 0.30400002 253 104 87 0.000000
-0.05201841 0.02268155 0.29900002 252 112 97 0.000000
-0.05080047 0.02245397 0.29600000 254 114 99 0.000000
-0.04976591 0.02230225 0.29400000 251 116 99 0.000000
-0.04857384 0.02207468 0.29100001 249 114 97 0.000000
-0.04772502 0.02199882 0.29000002 245 123 111 0.000000
-0.04704311 0.02199882 0.29000002 249 127 115 0.000000
-0.04620134 0.02192296 0.28900000 246 146 140 0.000000
-0.04552179 0.02192296 0.28900000 255 177 171 0.000000
-0.13238513 0.02127296 0.27200001 61 63 50 0.000000
-0.13222989 0.02135117 0.27300000 62 64 51 0.000000
-0.13110597 0.02127296 0.27200001 61 63 50 0.000000
-0.13094604 0.02135117 0.27300000 59 64 50 0.000000
-0.13030411 0.02135117 0.27300000 58 63 49 0.000000
-0.12966217 0.02135117 0.27300000 59 64 50 0.000000
-0.12902026 0.02135117 0.27300000 58 63 49 0.000000
-0.12790808 0.02127296 0.27200001 65 67 54 0.000000
-0.12773639 0.02135117 0.27300000 54 56 43 0.000000
-0.12709446 0.02135117 0.27300000 35 36 23 0.000000
-0.12645252 0.02135117 0.27300000 23 24 11 0.000000
-0.12534976 0.02127296 0.27200001 17 18 5 0.000000
-0.12425169 0.02119475 0.27100003 21 22 9 0.000000
-0.12361447 0.02119475 0.27100003 69 39 32 0.000000
-0.12252343 0.02111654 0.27000001 99 69 62 0.000000
-0.12188856 0.02111654 0.27000001 127 66 58 0.000000
-0.12080461 0.02103833 0.26900002 130 69 61 0.000000
-0.12017208 0.02103833 0.26900002 149 74 64 0.000000
-0.11909515 0.02096012 0.26800001 158 83 73 0.000000
-0.11846499 0.02096012 0.26800001 171 93 77 0.000000
-0.11783481 0.02096012 0.26800001 169 91 75 0.000000
-0.11676731 0.02088191 0.26700002 178 92 72 0.000000
-0.11657447 0.02096012 0.26800001 165 79 59 0.000000
-0.11594430 0.02096012 0.26800001 168 72 55 0.000000
-0.11531412 0.02096012 0.26800001 166 70 53 0.000000
-0.11468395 0.02096012 0.26800001 164 67 53 0.000000
-0.11405377 0.02096012 0.26800001 164 67 53 0.000000
-0.11342359 0.02096012 0.26800001 165 68 54 0.000000
-0.11279343 0.02096012 0.26800001 166 69 55 0.000000
-0.11258178 0.02103833 0.26900002 166 67 54 0.000000
-0.11194925 0.02103833 0.26900002 167 68 55 0.000000
-0.11173054 0.02111654 0.27000001 161 62 49 0.000000
-0.11109567 0.02111654 0.27000001 160 61 48 0.000000
-0.11086991 0.02119475 0.27100003 159 60 47 0.000000
-0.11023267 0.02119475 0.27100003 157 58 45 0.000000
-0.10959546 0.02119475 0.27100003 155 56 43 0.000000
-0.10895822 0.02119475 0.27100003 148 49 36 0.000000
-0.10872070 0.02127296 0.27200001 147 53 40 0.000000
-0.10808112 0.02127296 0.27200001 149 55 42 0.000000
-0.10744154 0.02127296 0.27200001 148 58 46 0.000000
-0.10680196 0.02127296 0.27200001 152 62 50 0.000000
-0.10616238 0.02127296 0.27200001 146 59 46 0.000000
-0.06275287 0.02244610 0.28700000 221 92 78 0.000000
-0.06229432 0.02252431 0.28800002 225 90 73 0.000000
-0.06161711 0.02252431 0.28800002 223 88 71 0.000000
-0.06115151 0.02260252 0.28900000 226 84 65 0.000000
-0.06068121 0.02268073 0.29000002 224 82 63 0.000000
-0.05999930 0.02268073 0.29000002 223 77 59 0.000000
-0.05972648 0.02283715 0.29200003 226 80 62 0.000000
-0.05875294 0.02299356 0.29400000 226 71 59 0.000000
-0.05825913 0.02307178 0.29500002 236 77 68 0.000000
-0.05795573 0.02322819 0.29700002 239 80 71 0.000000
-0.05764294 0.02338461 0.29900002 247 91 81 0.000000
-0.05713031 0.02346282 0.30000001 255 105 95 0.000000
-0.05661298 0.02354103 0.30100003 242 98 82 0.000000
-0.05627667 0.02369745 0.30300000 238 94 78 0.000000
-0.05538081 0.02361924 0.30200002 235 100 81 0.000000
-0.05467070 0.02361924 0.30200002 242 107 88 0.000000
-0.05378190 0.02354103 0.30100003 241 113 96 0.000000
-0.05289780 0.02346282 0.30000001 242 114 97 0.000000
-0.05184443 0.02330640 0.29800001 244 117 102 0.000000
-0.05062885 0.02307178 0.29500002 252 125 110 0.000000
-0.04942738 0.02283715 0.29200003 244 125 109 0.000000
-0.04840693 0.02268073 0.29000002 250 131 115 0.000000
-0.04756045 0.02260252 0.28900000 250 151 138 0.000000
-0.04688090 0.02260252 0.28900000 255 160 147 0.000000
-0.04604148 0.02252431 0.28800002 252 173 160 0.000000
-0.13238513 0.02191254 0.27200001 56 61 49 0.000000
-0.13222989 0.02199310 0.27300000 56 61 49 0.000000
-0.13158798 0.02199310 0.27300000 58 63 51 0.000000
-0.13094604 0.02199310 0.27300000 58 63 51 0.000000
-0.13030411 0.02199310 0.27300000 59 64 52 0.000000
-0.12966217 0.02199310 0.27300000 58 63 49 0.000000
-0.12902026 0.02199310 0.27300000 58 63 49 0.000000
-0.12837832 0.02199310 0.27300000 59 64 50 0.000000
-0.12773639 0.02199310 0.27300000 59 64 50 0.000000
-0.12756002 0.02207366 0.27400002 46 48 35 0.000000
-0.12691574 0.02207366 0.27400002 34 36 23 0.000000
-0.12581059 0.02199310 0.27300000 21 19 7 0.000000
-0.12516867 0.02199310 0.27300000 25 23 11 0.000000
-0.12297723 0.02183198 0.27100003 100 73 65 0.000000
-0.12188856 0.02175141 0.27000001 134 75 66 0.000000
-0.12080461 0.02167086 0.26900002 134 75 66 0.000000
-0.12017208 0.02167086 0.26900002 143 71 60 0.000000
-0.11909515 0.02159029 0.26800001 145 73 62 0.000000
-0.11846499 0.02159029 0.26800001 175 94 77 0.000000
-0.11739513 0.02150973 0.26700002 174 93 76 0.000000
-0.11676731 0.02150973 0.26700002 175 89 69 0.000000
-0.11613949 0.02150973 0.26700002 171 85 65 0.000000
-0.11551167 0.02150973 0.26700002 171 78 60 0.000000
-0.11488385 0.02150973 0.26700002 165 72 54 0.000000
-0.11425603 0.02150973 0.26700002 167 71 54 0.000000
-0.11362820 0.02150973 0.26700002 168 72 55 0.000000
-0.11300038 0.02150973 0.26700002 169 70 57 0.000000
-0.11237256 0.02150973 0.26700002 169 70 57 0.000000
-0.11216325 0.02159029 0.26800001 172 74 58 0.000000
-0.11153308 0.02159029 0.26800001 171 73 57 0.000000
-0.11131673 0.02167086 0.26900002 169 68 53 0.000000
-0.11068420 0.02167086 0.26900002 167 66 51 0.000000
-0.11046079 0.02175141 0.27000001 171 70 55 0.000000
-0.10982591 0.02175141 0.27000001 164 63 48 0.000000
-0.10959546 0.02183198 0.27100003 171 73 57 0.000000
-0.10895822 0.02183198 0.27100003 168 70 54 0.000000
-0.10832100 0.02183198 0.27100003 161 62 49 0.000000
-0.10768377 0.02183198 0.27100003 159 60 47 0.000000
-0.10704654 0.02183198 0.27100003 156 62 49 0.000000
-0.10640931 0.02183198 0.27100003 155 61 48 0.000000
-0.10577209 0.02183198 0.27100003 146 56 42 0.000000
-0.10513486 0.02183198 0.27100003 148 58 44 0.000000
-0.10449763 0.02183198 0.27100003 146 59 46 0.000000
-0.10386039 0.02183198 0.27100003 144 57 44 0.000000
-0.10322317 0.02183198 0.27100003 137 62 52 0.000000
-0.06520548 0.02279871 0.28300002 212 98 92 0.000000
-0.06476810 0.02287927 0.28400001 219 105 99 0.000000
-0.06410030 0.02287927 0.28400001 215 95 84 0.000000
-0.06343250 0.02287927 0.28400001 214 94 83 0.000000
-0.06298571 0.02295983 0.28500003 219 92 77 0.000000
-0.06231556 0.02295983 0.28500003 215 88 73 0.000000
-0.06164542 0.02295983 0.28500003 223 91 75 0.000000
-0.06097527 0.02295983 0.28500003 221 89 73 0.000000
-0.06030512 0.02295983 0.28500003 224 84 69 0.000000
-0.05984422 0.02304039 0.28600001 223 83 68 0.000000
-0.05917172 0.02304039 0.28600001 223 76 61 0.000000
-0.05870376 0.02312095 0.28700000 226 79 64 0.000000
-0.05823110 0.02320151 0.28800002 237 81 73 0.000000
-0.05775374 0.02328207 0.28900000 233 77 69 0.000000
-0.05727168 0.02336263 0.29000002 235 79 71 0.000000
-0.05698005 0.02352376 0.29200003 237 81 73 0.000000
-0.05687180 0.02376544 0.29500002 234 96 82 0.000000
-0.05655901 0.02392656 0.29700002 249 111 97 0.000000
-0.05604872 0.02400712 0.29800001 245 129 108 0.000000
-0.05553374 0.02408768 0.29900002 252 136 115 0.000000
-0.05501406 0.02416824 0.30000001 253 147 122 0.000000
-0.05430864 0.02416824 0.30000001 255 151 126 0.000000
-0.05360322 0.02416824 0.30000001 255 150 128 0.000000
-0.05272147 0.02408768 0.29900002 249 144 122 0.000000
-0.05167046 0.02392656 0.29700002 246 143 122 0.000000
-0.05045722 0.02368487 0.29400000 247 144 123 0.000000
-0.04925810 0.02344319 0.29100001 243 151 131 0.000000
-0.04824000 0.02328207 0.28900000 253 161 141 0.000000
-0.04739588 0.02320151 0.28800002 249 174 155 0.000000
-0.13287184 0.02263503 0.27300000 57 62 50 0.000000
-0.13222989 0.02263503 0.27300000 56 61 49 0.000000
-0.13158798 0.02263503 0.27300000 57 62 50 0.000000
-0.13142571 0.02271794 0.27400002 57 62 50 0.000000
-0.13078143 0.02271794 0.27400002 55 60 48 0.000000
-0.13013713 0.02271794 0.27400002 57 62 48 0.000000
-0.12949286 0.02271794 0.27400002 59 64 50 0.000000
-0.12884858 0.02271794 0.27400002 60 65 51 0.000000
-0.12820429 0.02271794 0.27400002 59 64 50 0.000000
-0.12802556 0.02280085 0.27500001 62 64 51 0.000000
-0.12737893 0.02280085 0.27500001 57 59 46 0.000000
-0.12627144 0.02271794 0.27400002 55 51 42 0.000000
-0.12562717 0.02271794 0.27400002 38 34 25 0.000000
-0.12452674 0.02263503 0.27300000 66 34 28 0.000000
-0.12343102 0.02255212 0.27200001 103 71 65 0.000000
-0.12234001 0.02246920 0.27100003 131 70 62 0.000000
-0.12125368 0.02238629 0.27000001 131 70 62 0.000000
-0.12017208 0.02230338 0.26900002 140 70 56 0.000000
-0.11909515 0.02222047 0.26800001 141 71 57 0.000000
-0.11802296 0.02213755 0.26700002 145 67 49 0.000000
-0.11739513 0.02213755 0.26700002 160 82 64 0.000000
-0.11632998 0.02205464 0.26600000 171 86 68 0.000000
-0.11570451 0.02205464 0.26600000 171 86 68 0.000000
-0.11507904 0.02205464 0.26600000 173 83 67 0.000000
-0.11445356 0.02205464 0.26600000 174 84 68 0.000000
-0.11382809 0.02205464 0.26600000 171 77 62 0.000000
-0.11320262 0.02205464 0.26600000 170 76 61 0.000000
-0.11257715 0.02205464 0.26600000 168 71 57 0.000000
-0.11195169 0.02205464 0.26600000 166 69 55 0.000000
-0.11174474 0.02213755 0.26700002 170 69 54 0.000000
-0.11111692 0.02213755 0.26700002 174 73 58 0.000000
-0.11090290 0.02222047 0.26800001 178 74 60 0.000000
-0.11027274 0.02222047 0.26800001 166 62 48 0.000000
-0.11005168 0.02230338 0.26900002 171 72 59 0.000000
-0.10941915 0.02230338 0.26900002 174 75 62 0.000000
-0.10878663 0.02230338 0.26900002 179 80 67 0.000000
-0.10815410 0.02230338 0.26900002 180 81 68 0.000000
-0.10792128 0.02238629 0.27000001 177 80 66 0.000000
-0.10728641 0.02238629 0.27000001 181 84 70 0.000000
-0.10704654 0.02246920 0.27100003 180 83 69 0.000000
-0.10640931 0.02246920 0.27100003 170 73 59 0.000000
-0.10577209 0.02246920 0.27100003 154 60 45 0.000000
-0.10513486 0.02246920 0.27100003 149 55 40 0.000000
-0.10449763 0.02246920 0.27100003 147 54 39 0.000000
-0.10347714 0.02238629 0.27000001 147 54 39 0.000000
-0.10284227 0.02238629 0.27000001 144 61 51 0.000000
-0.10220739 0.02238629 0.27000001 156 73 63 0.000000
-0.10157251 0.02238629 0.27000001 156 79 70 0.000000
-0.10056380 0.02230338 0.26900002 155 78 69 0.000000
-0.09993128 0.02230338 0.26900002 151 76 66 0.000000
-0.09929875 0.02230338 0.26900002 152 77 67 0.000000
-0.09829944 0.02222047 0.26800001 154 82 71 0.000000
-0.06953216 0.02313250 0.27900001 195 105 93 0.000000
-0.06887612 0.02313250 0.27900001 208 118 106 0.000000
-0.06822009 0.02313250 0.27900001 211 121 109 0.000000
-0.06780621 0.02321541 0.28000000 209 119 107 0.000000
-0.06714782 0.02321541 0.28000000 210 113 99 0.000000
-0.06672689 0.02329833 0.28100002 199 102 88 0.000000
-0.06606615 0.02329833 0.28100002 202 95 85 0.000000
-0.06540541 0.02329833 0.28100002 198 91 81 0.000000
-0.06497508 0.02338124 0.28200001 208 89 83 0.000000
-0.06431198 0.02338124 0.28200001 217 98 92 0.000000
-0.06364889 0.02338124 0.28200001 217 95 85 0.000000
-0.06298579 0.02338124 0.28200001 212 90 80 0.000000
-0.06254371 0.02346415 0.28300002 215 87 77 0.000000
-0.06187826 0.02346415 0.28300002 215 87 77 0.000000
-0.06099652 0.02338124 0.28200001 226 85 75 0.000000
-0.06054737 0.02346415 0.28300002 225 84 74 0.000000
-0.05988193 0.02346415 0.28300002 227 83 74 0.000000
-0.05921648 0.02346415 0.28300002 223 79 70 0.000000
-0.05855104 0.02346415 0.28300002 221 74 63 0.000000
-0.05809014 0.02354706 0.28400001 224 77 66 0.000000
-0.05762453 0.02362997 0.28500003 228 77 70 0.000000
-0.05695439 0.02362997 0.28500003 229 78 71 0.000000
-0.05648173 0.02371289 0.28600001 225 94 80 0.000000
-0.05619950 0.02387871 0.28800002 245 114 100 0.000000
-0.05610066 0.02412745 0.29100001 255 150 133 0.000000
-0.05598770 0.02437618 0.29400000 255 172 155 0.000000
-0.05534801 0.02470783 0.29800001 255 191 169 0.000000
-0.05483067 0.02479075 0.29900002 255 193 171 0.000000
-0.05430864 0.02487366 0.30000001 255 195 173 0.000000
-0.05360322 0.02487366 0.30000001 255 190 172 0.000000
-0.13271427 0.02336222 0.27400002 57 59 46 0.000000
-0.13206999 0.02336222 0.27400002 57 59 46 0.000000
-0.13142571 0.02336222 0.27400002 58 60 47 0.000000
-0.13078143 0.02336222 0.27400002 57 59 46 0.000000
-0.13061209 0.02344749 0.27500001 55 60 46 0.000000
-0.12996545 0.02344749 0.27500001 55 60 46 0.000000
-0.12931882 0.02344749 0.27500001 53 58 44 0.000000
-0.12914009 0.02353275 0.27600002 53 58 44 0.000000
-0.12849112 0.02353275 0.27600002 55 57 44 0.000000
-0.12830532 0.02361801 0.27700001 55 57 44 0.000000
-0.12719314 0.02353275 0.27600002 60 58 46 0.000000
-0.12608565 0.02344749 0.27500001 56 54 42 0.000000
-0.12498289 0.02336222 0.27400002 68 36 30 0.000000
-0.12388480 0.02327696 0.27300000 106 74 68 0.000000
-0.12279145 0.02319169 0.27200001 133 72 66 0.000000
-0.12170278 0.02310643 0.27100003 134 73 67 0.000000
-0.12061881 0.02302117 0.27000001 142 71 55 0.000000
-0.11909515 0.02285064 0.26800001 143 72 56 0.000000
-0.11802296 0.02276538 0.26700002 147 69 51 0.000000
-0.11695544 0.02268011 0.26600000 148 70 52 0.000000
-0.11632998 0.02268011 0.26600000 162 77 61 0.000000
-0.11570451 0.02268011 0.26600000 177 92 76 0.000000
-0.11507904 0.02268011 0.26600000 177 90 75 0.000000
-0.11445356 0.02268011 0.26600000 178 91 76 0.000000
-0.11382809 0.02268011 0.26600000 174 81 68 0.000000
-0.11320262 0.02268011 0.26600000 169 76 63 0.000000
-0.11257715 0.02268011 0.26600000 169 75 60 0.000000
-0.11195169 0.02268011 0.26600000 169 75 60 0.000000
-0.11132621 0.02268011 0.26600000 171 72 59 0.000000
-0.11070074 0.02268011 0.26600000 173 74 61 0.000000
-0.11007527 0.02268011 0.26600000 175 76 63 0.000000
-0.10986127 0.02276538 0.26700002 179 80 67 0.000000
-0.10964256 0.02285064 0.26800001 182 85 71 0.000000
-0.10901238 0.02285064 0.26800001 184 87 73 0.000000
-0.10838221 0.02285064 0.26800001 188 91 79 0.000000
-0.10775203 0.02285064 0.26800001 189 92 80 0.000000
-0.10752157 0.02293590 0.26900002 193 96 84 0.000000
-0.10728641 0.02302117 0.27000001 191 94 82 0.000000
-0.10665153 0.02302117 0.27000001 185 88 74 0.000000
-0.10601665 0.02302117 0.27000001 185 88 74 0.000000
-0.10538178 0.02302117 0.27000001 182 88 73 0.000000
-0.10474690 0.02302117 0.27000001 179 85 70 0.000000
-0.10411202 0.02302117 0.27000001 175 81 66 0.000000
-0.10347714 0.02302117 0.27000001 168 74 59 0.000000
-0.10284227 0.02302117 0.27000001 167 74 59 0.000000
-0.10220739 0.02302117 0.27000001 168 75 60 0.000000
-0.10157251 0.02302117 0.27000001 164 77 62 0.000000
-0.10056380 0.02293590 0.26900002 161 74 59 0.000000
-0.09993128 0.02293590 0.26900002 160 75 61 0.000000
-0.09929875 0.02293590 0.26900002 159 74 60 0.000000
-0.09829944 0.02285064 0.26800001 157 75 60 0.000000
-0.09766926 0.02285064 0.26800001 155 73 58 0.000000
-0.09703908 0.02285064 0.26800001 151 72 59 0.000000
-0.09640891 0.02285064 0.26800001 152 73 60 0.000000
-0.09542136 0.02276538 0.26700002 155 84 73 0.000000
-0.09479354 0.02276538 0.26700002 167 96 85 0.000000
-0.09416571 0.02276538 0.26700002 172 104 92 0.000000
-0.09353789 0.02276538 0.26700002 173 105 93 0.000000
-0.07176845 0.02344749 0.27500001 186 104 89 0.000000
-0.07112182 0.02344749 0.27500001 179 89 75 0.000000
-0.07073146 0.02353275 0.27600002 181 91 77 0.000000
-0.07008247 0.02353275 0.27600002 186 93 78 0.000000
-0.06968506 0.02361801 0.27700001 192 99 84 0.000000
-0.06928295 0.02370328 0.27800003 202 105 93 0.000000
-0.06862926 0.02370328 0.27800003 207 110 98 0.000000
-0.06797557 0.02370328 0.27800003 210 113 101 0.000000
-0.06732188 0.02370328 0.27800003 212 115 103 0.000000
-0.06666820 0.02370328 0.27800003 215 110 99 0.000000
-0.06601451 0.02370328 0.27800003 206 101 90 0.000000
-0.06536082 0.02370328 0.27800003 207 93 85 0.000000
-0.06470713 0.02370328 0.27800003 203 89 81 0.000000
-0.06405345 0.02370328 0.27800003 213 87 83 0.000000
-0.06339976 0.02370328 0.27800003 215 89 85 0.000000
-0.06297177 0.02378854 0.27900001 221 91 86 0.000000
-0.06231574 0.02378854 0.27900001 220 90 85 0.000000
-0.06165969 0.02378854 0.27900001 215 83 76 0.000000
-0.06100366 0.02378854 0.27900001 216 84 77 0.000000
-0.06034762 0.02378854 0.27900001 221 81 77 0.000000
-0.05990552 0.02387380 0.28000000 218 78 74 0.000000
-0.05924713 0.02387380 0.28000000 216 76 72 0.000000
-0.05858875 0.02387380 0.28000000 215 75 71 0.000000
-0.05793035 0.02387380 0.28000000 214 80 74 0.000000
-0.05747651 0.02395907 0.28100002 225 91 85 0.000000
-0.05681577 0.02395907 0.28100002 236 118 107 0.000000
-0.05635486 0.02404433 0.28200001 255 146 135 0.000000
-0.05588926 0.02412960 0.28300002 255 170 153 0.000000
-0.05541895 0.02421486 0.28400001 255 183 166 0.000000
-0.05552230 0.02455591 0.28800002 255 190 170 0.000000
-0.05541640 0.02481170 0.29100001 255 192 172 0.000000
-0.05548448 0.02515276 0.29500002 255 191 172 0.000000
-0.05464729 0.02540855 0.29800001 255 185 170 0.000000
-0.05412761 0.02549381 0.29900002 255 165 150 0.000000
-0.13368298 0.02418173 0.27600002 56 62 45 0.000000
-0.13303401 0.02418173 0.27600002 55 61 44 0.000000
-0.13238502 0.02418173 0.27600002 58 61 45 0.000000
-0.13173604 0.02418173 0.27600002 55 58 42 0.000000
-0.13156199 0.02426935 0.27700001 55 61 44 0.000000
-0.13091066 0.02426935 0.27700001 55 61 44 0.000000
-0.13025932 0.02426935 0.27700001 53 59 42 0.000000
-0.12960799 0.02426935 0.27700001 55 61 44 0.000000
-0.12942220 0.02435696 0.27800003 55 61 44 0.000000
-0.12876852 0.02435696 0.27800003 56 62 45 0.000000
-0.12765397 0.02426935 0.27700001 59 61 45 0.000000
-0.12654416 0.02418173 0.27600002 59 61 45 0.000000
-0.12543902 0.02409412 0.27500001 73 41 35 0.000000
-0.12433860 0.02400650 0.27400002 107 75 69 0.000000
-0.12279145 0.02383127 0.27200001 127 66 60 0.000000
-0.12170278 0.02374366 0.27100003 132 71 65 0.000000
-0.12061881 0.02365604 0.27000001 142 68 53 0.000000
-0.11909515 0.02348081 0.26800001 144 70 55 0.000000
-0.11802296 0.02339320 0.26700002 147 69 51 0.000000
-0.11695544 0.02330558 0.26600000 151 73 55 0.000000
-0.11632998 0.02330558 0.26600000 151 69 54 0.000000
-0.11570451 0.02330558 0.26600000 162 80 65 0.000000
-0.11507904 0.02330558 0.26600000 176 90 79 0.000000
-0.11445356 0.02330558 0.26600000 180 94 83 0.000000
-0.11340018 0.02321797 0.26500002 172 87 73 0.000000
-0.11277705 0.02321797 0.26500002 174 89 75 0.000000
-0.11215393 0.02321797 0.26500002 181 91 75 0.000000
-0.11153082 0.02321797 0.26500002 174 84 68 0.000000
-0.11090770 0.02321797 0.26500002 170 78 60 0.000000
-0.11070074 0.02330558 0.26600000 168 76 58 0.000000
-0.11007527 0.02330558 0.26600000 177 84 66 0.000000
-0.10944980 0.02330558 0.26600000 182 89 71 0.000000
-0.10882433 0.02330558 0.26600000 183 89 74 0.000000
-0.10860562 0.02339320 0.26700002 185 91 76 0.000000
-0.10797781 0.02339320 0.26700002 179 85 70 0.000000
-0.10775203 0.02348081 0.26800001 176 82 67 0.000000
-0.10712186 0.02348081 0.26800001 171 77 64 0.000000
-0.10688905 0.02356843 0.26900002 173 79 66 0.000000
-0.10625653 0.02356843 0.26900002 180 86 73 0.000000
-0.10601665 0.02365604 0.27000001 180 86 73 0.000000
-0.10538178 0.02365604 0.27000001 180 86 71 0.000000
-0.10474690 0.02365604 0.27000001 180 86 71 0.000000
-0.10411202 0.02365604 0.27000001 184 87 73 0.000000
-0.10347714 0.02365604 0.27000001 179 82 68 0.000000
-0.10284227 0.02365604 0.27000001 179 82 68 0.000000
-0.10220739 0.02365604 0.27000001 179 82 68 0.000000
-0.10157251 0.02365604 0.27000001 173 76 62 0.000000
