-0.02511137 0.04062943 0.21800001 159 72 59 0.000000
-0.02448593 0.04044306 0.21700001 160 73 60 0.000000
-0.02386518 0.04025668 0.21600001 161 74 59 0.000000
-0.02335728 0.04025668 0.21600001 163 76 61 0.000000
-0.02274360 0.04007031 0.21500000 161 74 57 0.000000
-0.02213462 0.03988394 0.21400002 161 74 57 0.000000
-0.02163142 0.03988394 0.21400002 166 76 60 0.000000
-0.02102949 0.03969757 0.21300001 163 73 57 0.000000
-0.02043226 0.03951119 0.21200001 165 75 59 0.000000
-0.01983974 0.03932482 0.21100001 169 79 63 0.000000
-0.01925192 0.03913844 0.21000001 169 79 63 0.000000
-0.01866880 0.03895207 0.20900001 168 78 62 0.000000
-0.01817736 0.03895207 0.20900001 170 77 62 0.000000
-0.01768592 0.03895207 0.20900001 174 81 66 0.000000
-0.01711221 0.03876569 0.20800000 174 81 66 0.000000
-0.01662312 0.03876569 0.20800000 172 79 64 0.000000
-0.01605646 0.03857933 0.20700002 173 79 66 0.000000
-0.01556972 0.03857933 0.20700002 173 79 66 0.000000
-0.01508299 0.03857933 0.20700002 175 81 68 0.000000
-0.01459625 0.03857933 0.20700002 176 82 69 0.000000
-0.01410951 0.03857933 0.20700002 173 79 66 0.000000
-0.01362277 0.03857933 0.20700002 175 81 68 0.000000
-0.01313603 0.03857933 0.20700002 177 83 70 0.000000
-0.01258818 0.03839295 0.20600002 175 81 68 0.000000
-0.01210380 0.03839295 0.20600002 173 79 64 0.000000
-0.01161941 0.03839295 0.20600002 175 81 66 0.000000
-0.01113502 0.03839295 0.20600002 175 81 66 0.000000
-0.01065063 0.03839295 0.20600002 178 84 69 0.000000
-0.01016625 0.03839295 0.20600002 177 83 68 0.000000
-0.00968186 0.03839295 0.20600002 178 84 69 0.000000
-0.00919747 0.03839295 0.20600002 183 89 74 0.000000
-0.00867079 0.03820658 0.20500001 182 88 73 0.000000
-0.00818875 0.03820658 0.20500001 178 84 69 0.000000
-0.00770672 0.03820658 0.20500001 182 83 70 0.000000
-0.00718944 0.03802020 0.20400001 185 86 73 0.000000
-0.00670976 0.03802020 0.20400001 187 85 73 0.000000
-0.00619953 0.03783383 0.20300001 185 83 71 0.000000
-0.00572220 0.03783383 0.20300001 188 86 74 0.000000
-0.00521903 0.03764746 0.20200001 187 85 73 0.000000
-0.00472056 0.03746108 0.20100001 185 84 69 0.000000
-0.00422680 0.03727471 0.20000000 187 86 71 0.000000
-0.00375652 0.03727471 0.20000000 190 86 72 0.000000
-0.00326981 0.03708833 0.19900002 191 87 73 0.000000
-0.00278780 0.03690196 0.19800001 195 87 72 0.000000
-0.00232223 0.03690196 0.19800001 194 86 71 0.000000
-0.00184727 0.03671559 0.19700001 198 85 72 0.000000
-0.00138405 0.03671559 0.19700001 203 90 77 0.000000
-0.00092082 0.03671559 0.19700001 212 95 79 0.000000
-0.00045528 0.03652921 0.19600001 215 98 82 0.000000
0.00000563 0.03671559 0.19700001 218 99 81 0.000000
0.00046885 0.03671559 0.19700001 211 92 74 0.000000
0.00093681 0.03690196 0.19800001 216 96 76 0.000000
0.00140947 0.03708833 0.19900002 217 97 77 0.000000
0.00187739 0.03708833 0.19900002 215 95 75 0.000000
0.00234532 0.03708833 0.19900002 218 98 78 0.000000
0.00282738 0.03727471 0.20000000 220 97 78 0.000000
0.00329766 0.03727471 0.20000000 219 96 77 0.000000
0.00376794 0.03727471 0.20000000 221 95 77 0.000000
0.00421703 0.03708833 0.19900002 221 95 77 0.000000
0.00468496 0.03708833 0.19900002 222 94 75 0.000000
0.00515289 0.03708833 0.19900002 222 94 75 0.000000
0.00562081 0.03708833 0.19900002 223 95 76 0.000000
0.00608874 0.03708833 0.19900002 222 94 75 0.000000
0.00655667 0.03708833 0.19900002 226 96 77 0.000000
0.00702460 0.03708833 0.19900002 226 96 77 0.000000
0.00745487 0.03690196 0.19800001 230 100 81 0.000000
0.00792045 0.03690196 0.19800001 229 99 80 0.000000
0.00838602 0.03690196 0.19800001 231 101 82 0.000000
0.00973334 0.03671559 0.19700001 236 106 87 0.000000
0.01213160 0.03559735 0.19100001 244 104 87 0.000000
0.01608896 0.03541097 0.19000001 244 104 87 0.000000
0.01653573 0.03541097 0.19000001 243 103 88 0.000000
0.01698249 0.03541097 0.19000001 244 104 89 0.000000
0.01742926 0.03541097 0.19000001 245 105 92 0.000000
0.01787602 0.03541097 0.19000001 244 104 91 0.000000
0.01841922 0.03559735 0.19100001 240 100 87 0.000000
0.01886834 0.03559735 0.19100001 242 102 89 0.000000
0.01931746 0.03559735 0.19100001 243 103 88 0.000000
0.01987006 0.03578372 0.19200000 250 110 95 0.000000
0.02042737 0.03597009 0.19300000 255 115 100 0.000000
0.02098938 0.03615647 0.19400001 255 126 111 0.000000
0.02144555 0.03615647 0.19400001 247 112 97 0.000000
0.02201462 0.03634284 0.19500001 226 91 76 0.000000
0.02258839 0.03652921 0.19600001 228 93 78 0.000000
0.02316686 0.03671559 0.19700001 226 91 76 0.000000
0.02375003 0.03690196 0.19800001 223 93 76 0.000000
0.02433791 0.03708833 0.19900002 219 89 72 0.000000
0.02493049 0.03727471 0.20000000 219 89 72 0.000000
0.02552777 0.03746108 0.20100001 217 87 70 0.000000
0.02600040 0.03746108 0.20100001 214 86 69 0.000000
0.02660474 0.03764746 0.20200001 214 86 69 0.000000
0.02721378 0.03783383 0.20300001 215 87 70 0.000000
0.02782752 0.03802020 0.20400001 214 86 69 0.000000
0.02844597 0.03820658 0.20500001 214 86 69 0.000000
0.02906912 0.03839295 0.20600002 213 85 68 0.000000
0.02969697 0.03857933 0.20700002 215 87 70 0.000000
0.03032952 0.03876569 0.20800000 215 87 70 0.000000
0.03096678 0.03895207 0.20900001 214 85 71 0.000000
0.03175925 0.03932482 0.21100001 215 86 72 0.000000
0.03240827 0.03951119 0.21200001 214 85 73 0.000000
0.03306198 0.03969757 0.21300001 216 87 75 0.000000
0.03387797 0.04007031 0.21500000 212 90 78 0.000000
0.03454345 0.04025668 0.21600001 212 90 78 0.000000
0.03521362 0.04044306 0.21700001 205 94 85 0.000000
-0.04720883 0.04736996 0.25100002 146 135 130 0.000000
-0.04661863 0.04736996 0.25100002 147 136 127 0.000000
-0.04584504 0.04718123 0.25000000 147 136 127 0.000000
-0.04507617 0.04699251 0.24900001 147 136 127 0.000000
-0.04431200 0.04680378 0.24800001 147 136 127 0.000000
-0.04355252 0.04661506 0.24700001 147 136 127 0.000000
-0.04279776 0.04642633 0.24600001 146 135 126 0.000000
-0.04187606 0.04604888 0.24400002 146 132 124 0.000000
-0.04096378 0.04567143 0.24200001 148 134 126 0.000000
-0.04006090 0.04529398 0.24000001 152 134 125 0.000000
-0.03916743 0.04491653 0.23800001 157 139 130 0.000000
-0.03828336 0.04453908 0.23600002 158 128 123 0.000000
-0.03756857 0.04435036 0.23500001 125 95 90 0.000000
-0.03670096 0.04397291 0.23300001 135 92 83 0.000000
-0.03599792 0.04378418 0.23200001 134 91 82 0.000000
-0.03529958 0.04359546 0.23100001 141 87 77 0.000000
-0.03460595 0.04340673 0.23000000 140 86 76 0.000000
-0.03406513 0.04340673 0.23000000 148 89 80 0.000000
-0.03352431 0.04340673 0.23000000 148 89 80 0.000000
-0.03284009 0.04321801 0.22900002 146 88 76 0.000000
-0.03230162 0.04321801 0.22900002 143 85 73 0.000000
-0.03176315 0.04321801 0.22900002 141 76 65 0.000000
-0.03122468 0.04321801 0.22900002 140 75 64 0.000000
-0.03055221 0.04302929 0.22800002 144 73 62 0.000000
-0.02988444 0.04284056 0.22700001 145 74 63 0.000000
-0.02922137 0.04265184 0.22600001 150 74 62 0.000000
-0.02856301 0.04246311 0.22500001 149 73 61 0.000000
-0.02790935 0.04227438 0.22400001 154 71 61 0.000000
-0.02713815 0.04189694 0.22200002 154 71 61 0.000000
-0.02649625 0.04170821 0.22100002 157 71 60 0.000000
-0.02574151 0.04133076 0.21900001 158 72 61 0.000000
-0.02511137 0.04114204 0.21800001 161 73 63 0.000000
-0.02448593 0.04095331 0.21700001 165 77 67 0.000000
-0.02386518 0.04076459 0.21600001 168 78 62 0.000000
-0.02335728 0.04076459 0.21600001 167 77 61 0.000000
-0.02274360 0.04057586 0.21500000 167 78 59 0.000000
-0.02213462 0.04038713 0.21400002 167 78 59 0.000000
-0.02163142 0.04038713 0.21400002 167 78 57 0.000000
-0.02102949 0.04019841 0.21300001 165 76 55 0.000000
-0.02043226 0.04000968 0.21200001 169 77 57 0.000000
-0.01983974 0.03982096 0.21100001 172 80 60 0.000000
-0.01934360 0.03982096 0.21100001 170 78 60 0.000000
-0.01875813 0.03963223 0.21000001 170 78 60 0.000000
-0.01817736 0.03944351 0.20900001 171 79 61 0.000000
-0.01768592 0.03944351 0.20900001 174 82 64 0.000000
-0.01711221 0.03925478 0.20800000 171 78 60 0.000000
-0.01662312 0.03925478 0.20800000 172 79 61 0.000000
-0.01613403 0.03925478 0.20800000 171 77 62 0.000000
-0.01556972 0.03906606 0.20700002 172 78 63 0.000000
-0.01508299 0.03906606 0.20700002 172 78 65 0.000000
-0.01459625 0.03906606 0.20700002 173 79 66 0.000000
-0.01410951 0.03906606 0.20700002 173 79 66 0.000000
-0.01362277 0.03906606 0.20700002 178 84 71 0.000000
-0.01307257 0.03887734 0.20600002 178 85 70 0.000000
-0.01258818 0.03887734 0.20600002 175 82 67 0.000000
-0.01210380 0.03887734 0.20600002 175 82 67 0.000000
-0.01161941 0.03887734 0.20600002 176 83 68 0.000000
-0.01113502 0.03887734 0.20600002 179 82 68 0.000000
-0.01065063 0.03887734 0.20600002 181 84 70 0.000000
-0.01016625 0.03887734 0.20600002 179 82 68 0.000000
-0.00968186 0.03887734 0.20600002 180 83 69 0.000000
-0.00915283 0.03868861 0.20500001 184 90 75 0.000000
-0.00867079 0.03868861 0.20500001 180 86 73 0.000000
-0.00818875 0.03868861 0.20500001 178 84 71 0.000000
-0.00770672 0.03868861 0.20500001 181 84 72 0.000000
-0.00718944 0.03849988 0.20400001 180 83 71 0.000000
-0.00670976 0.03849988 0.20400001 183 81 69 0.000000
-0.00623007 0.03849988 0.20400001 184 82 70 0.000000
-0.00572220 0.03831116 0.20300001 185 83 71 0.000000
-0.00521903 0.03812243 0.20200001 187 85 73 0.000000
-0.00474405 0.03812243 0.20200001 185 84 69 0.000000
-0.00424793 0.03793371 0.20100001 189 88 73 0.000000
-0.00375652 0.03774498 0.20000000 189 88 73 0.000000
-0.00326981 0.03755626 0.19900002 190 89 74 0.000000
-0.00278780 0.03736754 0.19800001 192 86 71 0.000000
-0.00231050 0.03717881 0.19700001 193 87 72 0.000000
-0.00184727 0.03717881 0.19700001 196 86 70 0.000000
-0.00137702 0.03699009 0.19600001 198 88 72 0.000000
-0.00091615 0.03699009 0.19600001 204 92 74 0.000000
-0.00045528 0.03699009 0.19600001 211 99 81 0.000000
0.00000560 0.03699009 0.19600001 215 98 80 0.000000
0.00046647 0.03699009 0.19600001 214 97 79 0.000000
0.00092734 0.03699009 0.19600001 214 97 79 0.000000
0.00139530 0.03717881 0.19700001 215 98 80 0.000000
0.00185852 0.03717881 0.19700001 218 100 79 0.000000
0.00233354 0.03736754 0.19800001 216 98 77 0.000000
0.00279911 0.03736754 0.19800001 213 93 73 0.000000
0.00326469 0.03736754 0.19800001 218 98 78 0.000000
0.00373026 0.03736754 0.19800001 220 97 78 0.000000
0.00419584 0.03736754 0.19800001 221 98 79 0.000000
0.00512699 0.03736754 0.19800001 222 94 75 0.000000
0.00556432 0.03717881 0.19700001 227 97 78 0.000000
0.00605814 0.03736754 0.19800001 227 97 78 0.000000
0.00652372 0.03736754 0.19800001 227 97 78 0.000000
0.00698930 0.03736754 0.19800001 230 100 81 0.000000
0.00749252 0.03755626 0.19900002 231 101 82 0.000000
0.00796045 0.03755626 0.19900002 229 99 80 0.000000
0.00842838 0.03755626 0.19900002 227 97 78 0.000000
0.00889631 0.03755626 0.19900002 231 101 82 0.000000
0.00983216 0.03755626 0.19900002 234 104 85 0.000000
0.01030009 0.03755626 0.19900002 234 104 85 0.000000
0.01653573 0.03585774 0.19000001 243 103 88 0.000000
0.01707187 0.03604646 0.19100001 246 106 91 0.000000
0.01752099 0.03604646 0.19100001 247 107 94 0.000000
0.01797011 0.03604646 0.19100001 249 109 96 0.000000
0.01841922 0.03604646 0.19100001 247 107 92 0.000000
0.01886834 0.03604646 0.19100001 244 104 89 0.000000
0.01941859 0.03623518 0.19200000 245 105 90 0.000000
0.01997355 0.03642391 0.19300000 251 111 96 0.000000
0.02042737 0.03642391 0.19300000 255 120 104 0.000000
0.02098938 0.03661264 0.19400001 242 104 88 0.000000
0.02155610 0.03680136 0.19500001 228 93 78 0.000000
0.02212751 0.03699009 0.19600001 233 98 83 0.000000
0.02270363 0.03717881 0.19700001 229 94 79 0.000000
0.02316686 0.03717881 0.19700001 228 93 78 0.000000
0.02375003 0.03736754 0.19800001 225 93 77 0.000000
0.02433791 0.03755626 0.19900002 223 91 75 0.000000
0.02493049 0.03774498 0.20000000 220 90 73 0.000000
0.02552777 0.03793371 0.20100001 217 87 70 0.000000
0.02612976 0.03812243 0.20200001 215 87 70 0.000000
0.02673645 0.03831116 0.20300001 215 87 70 0.000000
0.02721378 0.03831116 0.20300001 215 87 70 0.000000
0.02969697 0.03906606 0.20700002 216 88 71 0.000000
0.03096678 0.03944351 0.20900001 217 89 72 0.000000
0.03175925 0.03982096 0.21100001 217 89 72 0.000000
0.03240827 0.04000968 0.21200001 215 88 73 0.000000
0.03306198 0.04019841 0.21300001 219 92 77 0.000000
0.03387797 0.04057586 0.21500000 211 90 75 0.000000
0.03454345 0.04076459 0.21600001 212 91 76 0.000000
0.03505135 0.04076459 0.21600001 207 97 85 0.000000
-0.04683266 0.04757800 0.24900001 143 134 129 0.000000
-0.04624717 0.04757800 0.24900001 147 136 129 0.000000
-0.04566167 0.04757800 0.24900001 147 136 129 0.000000
-0.04489514 0.04738693 0.24800001 146 135 128 0.000000
-0.04413332 0.04719585 0.24700001 145 134 127 0.000000
-0.04355252 0.04719585 0.24700001 146 135 130 0.000000
-0.04262378 0.04681370 0.24500000 147 136 131 0.000000
-0.04187606 0.04662262 0.24400002 148 134 128 0.000000
-0.04096378 0.04624047 0.24200001 149 135 129 0.000000
-0.04006090 0.04585832 0.24000001 151 135 130 0.000000
-0.03916743 0.04547616 0.23800001 150 134 129 0.000000
-0.03828336 0.04509401 0.23600002 162 132 127 0.000000
-0.03756857 0.04490294 0.23500001 124 94 89 0.000000
-0.03670096 0.04452078 0.23300001 133 87 81 0.000000
-0.03599792 0.04432971 0.23200001 133 87 81 0.000000
-0.03529958 0.04413863 0.23100001 142 85 78 0.000000
-0.03460595 0.04394755 0.23000000 141 84 77 0.000000
-0.03406513 0.04394755 0.23000000 146 87 80 0.000000
-0.03352431 0.04394755 0.23000000 145 86 79 0.000000
-0.03298349 0.04394755 0.23000000 146 85 77 0.000000
-0.03244267 0.04394755 0.23000000 145 84 76 0.000000
-0.03176315 0.04375648 0.22900002 142 71 64 0.000000
-0.03122468 0.04375648 0.22900002 144 73 66 0.000000
-0.03068621 0.04375648 0.22900002 149 74 64 0.000000
-0.03001609 0.04356540 0.22800002 149 74 64 0.000000
-0.02935067 0.04337433 0.22700001 148 69 58 0.000000
-0.02868996 0.04318325 0.22600001 150 71 60 0.000000
-0.02803395 0.04299217 0.22500001 154 71 61 0.000000
-0.02726040 0.04261002 0.22300000 155 72 62 0.000000
-0.02661614 0.04241895 0.22200002 157 71 60 0.000000
-0.02585905 0.04203679 0.22000001 159 73 62 0.000000
-0.02511137 0.04165464 0.21800001 158 73 59 0.000000
-0.02448593 0.04146356 0.21700001 160 75 61 0.000000
-0.02386518 0.04127248 0.21600001 163 76 63 0.000000
-0.02335728 0.04127248 0.21600001 165 78 65 0.000000
-0.02274360 0.04108141 0.21500000 167 77 61 0.000000
-0.02223805 0.04108141 0.21500000 166 76 60 0.000000
-0.02163142 0.04089033 0.21400002 168 75 60 0.000000
-0.02102949 0.04069925 0.21300001 169 76 61 0.000000
-0.02043226 0.04050818 0.21200001 170 77 62 0.000000
-0.01993377 0.04050818 0.21200001 169 76 61 0.000000
-0.01934360 0.04031710 0.21100001 170 77 62 0.000000
-0.01875813 0.04012603 0.21000001 174 81 66 0.000000
-0.01817736 0.03993495 0.20900001 175 82 67 0.000000
-0.01768592 0.03993495 0.20900001 174 81 66 0.000000
-0.01711221 0.03974387 0.20800000 171 77 62 0.000000
-0.01662312 0.03974387 0.20800000 173 79 64 0.000000
-0.01613403 0.03974387 0.20800000 176 82 67 0.000000
-0.01556972 0.03955280 0.20700002 171 77 62 0.000000
-0.01508299 0.03955280 0.20700002 173 79 66 0.000000
-0.01459625 0.03955280 0.20700002 173 79 66 0.000000
-0.01410951 0.03955280 0.20700002 176 82 69 0.000000
-0.01355696 0.03936172 0.20600002 178 84 71 0.000000
-0.01307257 0.03936172 0.20600002 179 85 72 0.000000
-0.01258818 0.03936172 0.20600002 177 83 70 0.000000
-0.01210380 0.03936172 0.20600002 176 82 67 0.000000
-0.01161941 0.03936172 0.20600002 176 82 67 0.000000
-0.01113502 0.03936172 0.20600002 180 83 69 0.000000
-0.01065063 0.03936172 0.20600002 181 84 70 0.000000
-0.01011690 0.03917065 0.20500001 179 82 68 0.000000
-0.00963486 0.03917065 0.20500001 180 83 69 0.000000
-0.00915283 0.03917065 0.20500001 184 87 73 0.000000
-0.00867079 0.03917065 0.20500001 181 84 70 0.000000
-0.00818875 0.03917065 0.20500001 181 84 70 0.000000
-0.00766912 0.03897957 0.20400001 180 83 69 0.000000
-0.00718944 0.03897957 0.20400001 179 82 68 0.000000
-0.00670976 0.03897957 0.20400001 181 82 69 0.000000
-0.00623007 0.03897957 0.20400001 181 82 69 0.000000
-0.00572220 0.03878849 0.20300001 187 85 73 0.000000
-0.00524487 0.03878849 0.20300001 188 86 74 0.000000
-0.00474405 0.03859742 0.20200001 187 86 71 0.000000
-0.00424793 0.03840634 0.20100001 188 87 72 0.000000
-0.00377530 0.03840634 0.20100001 191 90 75 0.000000
-0.00326981 0.03802419 0.19900002 190 89 74 0.000000
-0.00278780 0.03783311 0.19800001 191 87 71 0.000000
-0.00231050 0.03764204 0.19700001 191 87 71 0.000000
-0.00184727 0.03764204 0.19700001 192 86 69 0.000000
-0.00137702 0.03745096 0.19600001 195 89 72 0.000000
-0.00091147 0.03725988 0.19500001 200 91 72 0.000000
-0.00045295 0.03725988 0.19500001 198 89 70 0.000000
0.00000557 0.03725988 0.19500001 207 95 77 0.000000
0.00046409 0.03725988 0.19500001 214 102 84 0.000000
0.00092261 0.03725988 0.19500001 216 101 82 0.000000
0.00138822 0.03745096 0.19600001 215 100 81 0.000000
0.00184909 0.03745096 0.19600001 219 103 82 0.000000
0.00230996 0.03745096 0.19600001 219 103 82 0.000000
0.00277084 0.03745096 0.19600001 216 98 77 0.000000
0.00323171 0.03745096 0.19600001 219 101 80 0.000000
0.00369258 0.03745096 0.19600001 219 99 79 0.000000
0.00415346 0.03745096 0.19600001 218 98 78 0.000000
0.00461433 0.03745096 0.19600001 222 96 78 0.000000
0.00510110 0.03764204 0.19700001 222 96 78 0.000000
0.00556432 0.03764204 0.19700001 225 97 78 0.000000
0.00599695 0.03745096 0.19600001 225 97 78 0.000000
0.00649077 0.03764204 0.19700001 227 97 78 0.000000
0.00698930 0.03783311 0.19800001 231 101 82 0.000000
0.00745487 0.03783311 0.19800001 232 102 83 0.000000
0.00792045 0.03783311 0.19800001 230 100 81 0.000000
0.00842838 0.03802419 0.19900002 226 96 77 0.000000
0.00889631 0.03802419 0.19900002 229 99 80 0.000000
0.00936423 0.03802419 0.19900002 231 101 84 0.000000
0.00983216 0.03802419 0.19900002 233 103 86 0.000000
0.01024833 0.03783311 0.19800001 237 107 90 0.000000
0.01065979 0.03764204 0.19700001 237 107 90 0.000000
0.01106656 0.03745096 0.19600001 229 99 82 0.000000
0.01225863 0.03687773 0.19300000 232 100 82 0.000000
0.01258071 0.03649558 0.19100001 237 105 87 0.000000
0.01296161 0.03630450 0.19000001 234 102 84 0.000000
0.01385514 0.03630450 0.19000001 233 101 83 0.000000
0.01430190 0.03630450 0.19000001 233 101 81 0.000000
0.01572452 0.03649558 0.19100001 242 104 88 0.000000
0.01617364 0.03649558 0.19100001 241 103 87 0.000000
0.01662276 0.03649558 0.19100001 238 98 83 0.000000
0.01707187 0.03649558 0.19100001 242 102 87 0.000000
0.01761272 0.03668665 0.19200000 247 107 94 0.000000
0.01806419 0.03668665 0.19200000 246 106 93 0.000000
0.01851566 0.03668665 0.19200000 245 107 93 0.000000
0.01896713 0.03668665 0.19200000 246 108 94 0.000000
0.01951973 0.03687773 0.19300000 250 112 96 0.000000
0.01997355 0.03687773 0.19300000 248 110 94 0.000000
0.02053321 0.03706881 0.19400001 229 91 75 0.000000
0.02109758 0.03725988 0.19500001 228 90 74 0.000000
0.02155610 0.03725988 0.19500001 230 95 80 0.000000
0.02212751 0.03745096 0.19600001 235 100 85 0.000000
0.02270363 0.03764204 0.19700001 231 99 83 0.000000
0.02328446 0.03783311 0.19800001 227 95 79 0.000000
0.02386998 0.03802419 0.19900002 222 92 75 0.000000
0.02446021 0.03821526 0.20000000 219 89 72 0.000000
0.02505514 0.03840634 0.20100001 220 90 73 0.000000
0.02552777 0.03840634 0.20100001 219 89 72 0.000000
0.02612976 0.03859742 0.20200001 215 87 70 0.000000
0.02673645 0.03878849 0.20300001 216 88 71 0.000000
0.02734784 0.03897957 0.20400001 215 87 70 0.000000
0.02858473 0.03936172 0.20600002 214 88 70 0.000000
0.03032952 0.03974387 0.20800000 216 90 72 0.000000
0.03096678 0.03993495 0.20900001 214 88 70 0.000000
0.03240827 0.04050818 0.21200001 220 93 78 0.000000
0.03306198 0.04069925 0.21300001 219 92 77 0.000000
0.03372040 0.04089033 0.21400002 212 91 76 0.000000
0.03438352 0.04108141 0.21500000 212 91 76 0.000000
0.03572388 0.04146356 0.21700001 202 93 83 0.000000
0.03656808 0.04184571 0.21900001 203 120 110 0.000000
-0.04703728 0.04777665 0.24700001 146 137 132 0.000000
-0.04645649 0.04777665 0.24700001 144 135 130 0.000000
-0.04587570 0.04777665 0.24700001 144 135 128 0.000000
-0.04529490 0.04777665 0.24700001 144 135 128 0.000000
-0.04453308 0.04758322 0.24600001 144 135 128 0.000000
-0.04395464 0.04758322 0.24600001 143 134 127 0.000000
-0.04319987 0.04738979 0.24500000 143 134 129 0.000000
-0.04244981 0.04719637 0.24400002 146 137 132 0.000000
-0.04170444 0.04700294 0.24300002 145 136 129 0.000000
-0.04079451 0.04661608 0.24100001 145 136 129 0.000000
-0.04006090 0.04642265 0.24000001 150 136 130 0.000000
-0.03916743 0.04603580 0.23800001 148 134 128 0.000000
-0.03828336 0.04564894 0.23600002 159 133 129 0.000000
-0.03740870 0.04526209 0.23400001 121 95 91 0.000000
-0.03670096 0.04506866 0.23300001 125 82 77 0.000000
-0.03599792 0.04487523 0.23200001 127 84 79 0.000000
-0.03529958 0.04468180 0.23100001 136 82 74 0.000000
-0.03460595 0.04448837 0.23000000 137 83 75 0.000000
-0.03406513 0.04448837 0.23000000 144 85 78 0.000000
-0.03352431 0.04448837 0.23000000 144 85 78 0.000000
-0.03298349 0.04448837 0.23000000 146 85 79 0.000000
-0.03244267 0.04448837 0.23000000 142 81 75 0.000000
-0.03190185 0.04448837 0.23000000 144 73 64 0.000000
-0.03136103 0.04448837 0.23000000 145 74 65 0.000000
-0.03082021 0.04448837 0.23000000 148 73 63 0.000000
-0.03014774 0.04429495 0.22900002 151 76 66 0.000000
-0.02947997 0.04410152 0.22800002 152 72 64 0.000000
-0.02894385 0.04410152 0.22800002 152 72 64 0.000000
-0.02815854 0.04371466 0.22600001 154 71 64 0.000000
-0.02738264 0.04332781 0.22400001 156 73 66 0.000000
-0.02661614 0.04294096 0.22200002 155 73 61 0.000000
-0.02511137 0.04216724 0.21800001 160 77 65 0.000000
-0.02437309 0.04178039 0.21600001 160 77 65 0.000000
-0.02386518 0.04178039 0.21600001 163 76 63 0.000000
-0.02335728 0.04178039 0.21600001 161 74 61 0.000000
-0.02274360 0.04158696 0.21500000 167 77 63 0.000000
-0.02223805 0.04158696 0.21500000 166 76 62 0.000000
-0.02163142 0.04139353 0.21400002 167 74 59 0.000000
-0.02102949 0.04120011 0.21300001 167 74 59 0.000000
-0.02052864 0.04120011 0.21300001 169 76 61 0.000000
-0.01993377 0.04100668 0.21200001 171 78 63 0.000000
-0.01934360 0.04081325 0.21100001 171 78 63 0.000000
-0.01875813 0.04061982 0.21000001 176 83 68 0.000000
-0.01817736 0.04042639 0.20900001 176 83 68 0.000000
-0.01768592 0.04042639 0.20900001 177 84 69 0.000000
-0.01719448 0.04042639 0.20900001 178 84 69 0.000000
-0.01662312 0.04023296 0.20800000 176 82 67 0.000000
-0.01613403 0.04023296 0.20800000 175 81 68 0.000000
-0.01564494 0.04023296 0.20800000 173 79 66 0.000000
-0.01508299 0.04003954 0.20700002 175 81 68 0.000000
-0.01459625 0.04003954 0.20700002 176 82 69 0.000000
-0.01410951 0.04003954 0.20700002 178 84 69 0.000000
-0.01355696 0.03984611 0.20600002 178 84 69 0.000000
-0.01307257 0.03984611 0.20600002 180 86 71 0.000000
-0.01258818 0.03984611 0.20600002 178 84 69 0.000000
-0.01210380 0.03984611 0.20600002 177 83 68 0.000000
-0.01161941 0.03984611 0.20600002 177 83 68 0.000000
-0.01113502 0.03984611 0.20600002 179 82 68 0.000000
-0.01059893 0.03965268 0.20500001 182 85 71 0.000000
-0.01011690 0.03965268 0.20500001 182 85 71 0.000000
-0.00963486 0.03965268 0.20500001 184 87 73 0.000000
-0.00915283 0.03965268 0.20500001 182 85 71 0.000000
-0.00867079 0.03965268 0.20500001 185 88 74 0.000000
-0.00814881 0.03945925 0.20400001 186 89 75 0.000000
-0.00766912 0.03945925 0.20400001 182 85 71 0.000000
-0.00718944 0.03945925 0.20400001 184 87 73 0.000000
-0.00670976 0.03945925 0.20400001 185 86 73 0.000000
-0.00623007 0.03945925 0.20400001 183 84 71 0.000000
-0.00572220 0.03926583 0.20300001 185 86 73 0.000000
-0.00524487 0.03926583 0.20300001 188 89 76 0.000000
-0.00474405 0.03907240 0.20200001 188 90 74 0.000000
-0.00426907 0.03907240 0.20200001 187 89 73 0.000000
-0.00377530 0.03887897 0.20100001 191 90 75 0.000000
-0.00328624 0.03868554 0.20000000 191 90 75 0.000000
-0.00278780 0.03829869 0.19800001 192 88 72 0.000000
-0.00231050 0.03810526 0.19700001 194 90 74 0.000000
-0.00183790 0.03791183 0.19600001 194 88 71 0.000000
-0.00137000 0.03771840 0.19500001 197 91 74 0.000000
-0.00091147 0.03771840 0.19500001 200 92 75 0.000000
-0.00045063 0.03752498 0.19400001 197 89 72 0.000000
0.00000554 0.03752498 0.19400001 204 92 74 0.000000
0.00046171 0.03752498 0.19400001 209 97 79 0.000000
0.00091788 0.03752498 0.19400001 220 105 88 0.000000
0.00138113 0.03771840 0.19500001 214 99 82 0.000000
0.00183966 0.03771840 0.19500001 219 103 82 0.000000
0.00229818 0.03771840 0.19500001 219 103 82 0.000000
0.00275670 0.03771840 0.19500001 215 99 78 0.000000
0.00321522 0.03771840 0.19500001 216 100 79 0.000000
0.00367374 0.03771840 0.19500001 219 101 80 0.000000
0.00413227 0.03771840 0.19500001 218 100 79 0.000000
0.00459079 0.03771840 0.19500001 219 99 79 0.000000
0.00504931 0.03771840 0.19500001 218 98 78 0.000000
0.00550783 0.03771840 0.19500001 220 97 76 0.000000
0.00599695 0.03791183 0.19600001 221 98 77 0.000000
0.00645782 0.03791183 0.19600001 226 100 80 0.000000
0.00695400 0.03810526 0.19700001 228 102 82 0.000000
0.00741722 0.03810526 0.19700001 229 101 82 0.000000
0.00788045 0.03810526 0.19700001 227 99 80 0.000000
0.00838602 0.03829869 0.19800001 224 96 77 0.000000
0.00885160 0.03829869 0.19800001 224 96 77 0.000000
0.00931718 0.03829869 0.19800001 229 101 84 0.000000
0.00973334 0.03810526 0.19700001 231 103 86 0.000000
0.01019657 0.03810526 0.19700001 236 106 89 0.000000
0.01060568 0.03791183 0.19600001 238 108 91 0.000000
0.01101009 0.03771840 0.19500001 232 102 85 0.000000
0.01258071 0.03694469 0.19100001 237 105 87 0.000000
0.01572452 0.03694469 0.19100001 239 104 85 0.000000
0.01617364 0.03694469 0.19100001 242 107 88 0.000000
0.01670979 0.03713812 0.19200000 244 106 90 0.000000
0.01716125 0.03713812 0.19200000 244 106 90 0.000000
0.01761272 0.03713812 0.19200000 245 107 91 0.000000
0.01815827 0.03733155 0.19300000 250 112 96 0.000000
0.01861209 0.03733155 0.19300000 251 113 97 0.000000
0.01906591 0.03733155 0.19300000 250 112 96 0.000000
0.01962087 0.03752498 0.19400001 242 104 88 0.000000
0.02007704 0.03752498 0.19400001 235 97 81 0.000000
0.02063905 0.03771840 0.19500001 226 91 76 0.000000
0.02109758 0.03771840 0.19500001 228 93 78 0.000000
0.02166664 0.03791183 0.19600001 227 94 81 0.000000
0.02224041 0.03810526 0.19700001 231 98 85 0.000000
0.02270363 0.03810526 0.19700001 225 95 78 0.000000
0.02328446 0.03829869 0.19800001 224 94 77 0.000000
0.02386998 0.03849212 0.19900002 220 90 73 0.000000
0.02446021 0.03868554 0.20000000 223 93 76 0.000000
0.02505514 0.03887897 0.20100001 220 90 73 0.000000
0.02565478 0.03907240 0.20200001 219 89 72 0.000000
0.02625911 0.03926583 0.20300001 215 87 70 0.000000
0.02686815 0.03945925 0.20400001 215 87 70 0.000000
0.02748190 0.03965268 0.20500001 215 87 70 0.000000
0.02810034 0.03984611 0.20600002 216 88 71 0.000000
0.02858473 0.03984611 0.20600002 215 89 71 0.000000
0.02921023 0.04003954 0.20700002 216 90 72 0.000000
0.02984043 0.04023296 0.20800000 216 90 72 0.000000
0.03032952 0.04023296 0.20800000 216 90 72 0.000000
0.03096678 0.04042639 0.20900001 214 88 70 0.000000
0.03160873 0.04061982 0.21000001 214 88 70 0.000000
0.03240827 0.04100668 0.21200001 214 90 74 0.000000
0.03306198 0.04120011 0.21300001 212 88 72 0.000000
0.03372040 0.04139353 0.21400002 213 92 77 0.000000
0.03438352 0.04158696 0.21500000 212 91 76 0.000000
0.03505135 0.04178039 0.21600001 204 96 83 0.000000
0.03572388 0.04197381 0.21700001 202 94 81 0.000000
-0.04646599 0.04777011 0.24400002 146 135 130 0.000000
-0.04608033 0.04796588 0.24500000 146 135 130 0.000000
-0.04550424 0.04796588 0.24500000 144 135 126 0.000000
-0.04492814 0.04796588 0.24500000 144 135 126 0.000000
-0.04435205 0.04796588 0.24500000 144 135 126 0.000000
-0.04377596 0.04796588 0.24500000 144 135 126 0.000000
-0.04302355 0.04777011 0.24400002 145 136 127 0.000000
-0.04244981 0.04777011 0.24400002 146 137 128 0.000000
-0.04170444 0.04757432 0.24300002 146 137 128 0.000000
-0.04079451 0.04718276 0.24100001 144 135 126 0.000000
-0.03989398 0.04679121 0.23900001 146 135 126 0.000000
-0.03916743 0.04659543 0.23800001 147 136 127 0.000000
-0.03828336 0.04620387 0.23600002 153 130 125 0.000000
-0.03740870 0.04581231 0.23400001 124 101 96 0.000000
-0.03670096 0.04561653 0.23300001 116 74 71 0.000000
-0.03584276 0.04522497 0.23100001 123 81 78 0.000000
-0.03514677 0.04502919 0.23000000 130 81 71 0.000000
-0.03460595 0.04502919 0.23000000 129 80 70 0.000000
-0.03406513 0.04502919 0.23000000 136 79 70 0.000000
-0.03352431 0.04502919 0.23000000 141 84 75 0.000000
-0.03298349 0.04502919 0.23000000 145 84 76 0.000000
-0.03244267 0.04502919 0.23000000 140 79 71 0.000000
-0.03190185 0.04502919 0.23000000 142 77 66 0.000000
-0.03136103 0.04502919 0.23000000 140 75 64 0.000000
-0.03082021 0.04502919 0.23000000 145 74 65 0.000000
-0.03027939 0.04502919 0.23000000 147 76 67 0.000000
-0.02960927 0.04483342 0.22900002 152 75 66 0.000000
-0.02907080 0.04483342 0.22900002 152 75 66 0.000000
-0.02750489 0.04405030 0.22500001 155 72 65 0.000000
-0.02511137 0.04267985 0.21800001 160 77 65 0.000000
-0.02437309 0.04228829 0.21600001 160 77 65 0.000000
-0.02386518 0.04228829 0.21600001 163 76 63 0.000000
-0.02324915 0.04209251 0.21500000 163 76 63 0.000000
-0.02274360 0.04209251 0.21500000 165 75 63 0.000000
-0.02223805 0.04209251 0.21500000 167 77 65 0.000000
-0.02163142 0.04189673 0.21400002 168 77 68 0.000000
-0.02102949 0.04170095 0.21300001 166 75 66 0.000000
-0.02052864 0.04170095 0.21300001 170 77 66 0.000000
-0.01993377 0.04150517 0.21200001 171 78 67 0.000000
-0.01934360 0.04130939 0.21100001 172 79 68 0.000000
-0.01884745 0.04130939 0.21100001 175 82 71 0.000000
-0.01826433 0.04111361 0.21000001 175 82 69 0.000000
-0.01768592 0.04091783 0.20900001 175 82 69 0.000000
-0.01719448 0.04091783 0.20900001 173 79 66 0.000000
-0.01670304 0.04091783 0.20900001 175 81 68 0.000000
-0.01613403 0.04072205 0.20800000 172 78 65 0.000000
-0.01564494 0.04072205 0.20800000 176 82 69 0.000000
-0.01508299 0.04052628 0.20700002 179 82 70 0.000000
-0.01459625 0.04052628 0.20700002 180 83 71 0.000000
-0.01410951 0.04052628 0.20700002 181 84 72 0.000000
-0.01355696 0.04033050 0.20600002 180 83 71 0.000000
-0.01307257 0.04033050 0.20600002 180 83 71 0.000000
-0.01258818 0.04033050 0.20600002 180 83 71 0.000000
-0.01204504 0.04013472 0.20500001 181 84 70 0.000000
-0.01156300 0.04013472 0.20500001 179 82 68 0.000000
-0.01108097 0.04013472 0.20500001 179 82 68 0.000000
-0.01059893 0.04013472 0.20500001 181 84 70 0.000000
-0.01011690 0.04013472 0.20500001 185 87 71 0.000000
-0.00963486 0.04013472 0.20500001 186 88 72 0.000000
-0.00910818 0.03993894 0.20400001 186 88 72 0.000000
-0.00862849 0.03993894 0.20400001 188 89 76 0.000000
-0.00814881 0.03993894 0.20400001 186 87 74 0.000000
-0.00766912 0.03993894 0.20400001 186 87 74 0.000000
-0.00718944 0.03993894 0.20400001 186 87 74 0.000000
-0.00670976 0.03993894 0.20400001 186 87 74 0.000000
-0.00623007 0.03993894 0.20400001 186 87 74 0.000000
-0.00572220 0.03974316 0.20300001 186 87 74 0.000000
-0.00524487 0.03974316 0.20300001 189 90 77 0.000000
-0.00476753 0.03974316 0.20300001 187 89 73 0.000000
-0.00426907 0.03954738 0.20200001 189 91 75 0.000000
-0.00379408 0.03954738 0.20200001 191 90 75 0.000000
-0.00328624 0.03915582 0.20000000 192 91 76 0.000000
-0.00278780 0.03876426 0.19800001 192 91 74 0.000000
-0.00231050 0.03856849 0.19700001 192 91 74 0.000000
-0.00137000 0.03817693 0.19500001 197 91 76 0.000000
-0.00090680 0.03798115 0.19400001 199 91 76 0.000000
-0.00045063 0.03798115 0.19400001 196 88 73 0.000000
0.00000551 0.03778537 0.19300000 201 91 77 0.000000
0.00045933 0.03778537 0.19300000 200 90 76 0.000000
0.00091315 0.03778537 0.19300000 201 85 71 0.000000
0.00136697 0.03778537 0.19300000 205 89 75 0.000000
0.00183022 0.03798115 0.19400001 217 101 80 0.000000
0.00228639 0.03798115 0.19400001 219 103 82 0.000000
0.00274256 0.03798115 0.19400001 219 101 80 0.000000
0.00319873 0.03798115 0.19400001 219 101 80 0.000000
0.00365490 0.03798115 0.19400001 221 103 82 0.000000
0.00411107 0.03798115 0.19400001 222 104 83 0.000000
0.00456725 0.03798115 0.19400001 223 104 86 0.000000
0.00502342 0.03798115 0.19400001 221 102 84 0.000000
0.00547959 0.03798115 0.19400001 218 98 78 0.000000
0.00596635 0.03817693 0.19500001 222 102 82 0.000000
0.00642487 0.03817693 0.19500001 225 102 83 0.000000
0.00691870 0.03837271 0.19600001 227 104 85 0.000000
0.00741722 0.03856849 0.19700001 228 102 84 0.000000
0.00788045 0.03856849 0.19700001 228 102 84 0.000000
0.00834367 0.03856849 0.19700001 224 98 78 0.000000
0.00880690 0.03856849 0.19700001 228 102 82 0.000000
0.00927012 0.03856849 0.19700001 229 101 82 0.000000
0.00973334 0.03856849 0.19700001 230 102 83 0.000000
0.01014481 0.03837271 0.19600001 231 103 84 0.000000
0.01055157 0.03817693 0.19500001 231 103 84 0.000000
0.01095363 0.03798115 0.19400001 236 106 87 0.000000
0.01135099 0.03778537 0.19300000 232 102 83 0.000000
0.01340837 0.03719803 0.19000001 232 100 82 0.000000
0.01385514 0.03719803 0.19000001 234 102 82 0.000000
0.01430190 0.03719803 0.19000001 233 101 81 0.000000
0.01474867 0.03719803 0.19000001 237 102 83 0.000000
0.01527541 0.03739381 0.19100001 240 105 86 0.000000
0.01572452 0.03739381 0.19100001 243 108 89 0.000000
0.01625832 0.03758959 0.19200000 242 107 88 0.000000
0.01670979 0.03758959 0.19200000 242 107 88 0.000000
0.01725064 0.03778537 0.19300000 242 107 88 0.000000
0.01770446 0.03778537 0.19300000 244 109 90 0.000000
0.01815827 0.03778537 0.19300000 249 114 95 0.000000
0.01870853 0.03798115 0.19400001 247 112 95 0.000000
0.01916470 0.03798115 0.19400001 228 93 76 0.000000
0.01962087 0.03798115 0.19400001 228 93 78 0.000000
0.02018053 0.03817693 0.19500001 228 93 78 0.000000
0.02063905 0.03817693 0.19500001 227 95 79 0.000000
0.02120577 0.03837271 0.19600001 226 94 78 0.000000
0.02177718 0.03856849 0.19700001 225 94 80 0.000000
0.02224041 0.03856849 0.19700001 229 98 84 0.000000
0.02281888 0.03876426 0.19800001 224 96 79 0.000000
0.02340206 0.03896004 0.19900002 223 95 78 0.000000
0.02398993 0.03915582 0.20000000 222 94 77 0.000000
0.02458251 0.03935160 0.20100001 220 92 75 0.000000
0.02517979 0.03954738 0.20200001 218 90 73 0.000000
0.02578178 0.03974316 0.20300001 218 90 73 0.000000
0.02638847 0.03993894 0.20400001 215 87 68 0.000000
0.02699986 0.04013472 0.20500001 214 86 67 0.000000
0.02748190 0.04013472 0.20500001 217 89 70 0.000000
0.02810034 0.04033050 0.20600002 217 89 70 0.000000
0.02872349 0.04052628 0.20700002 215 89 71 0.000000
0.02921023 0.04052628 0.20700002 217 91 73 0.000000
0.02984043 0.04072205 0.20800000 217 91 73 0.000000
0.03047533 0.04091783 0.20900001 216 90 72 0.000000
0.03096678 0.04091783 0.20900001 215 89 71 0.000000
0.03175925 0.04130939 0.21100001 212 86 68 0.000000
0.03240827 0.04150517 0.21200001 214 91 72 0.000000
0.03306198 0.04170095 0.21300001 212 89 70 0.000000
0.03372040 0.04189673 0.21400002 212 91 76 0.000000
0.03438352 0.04209251 0.21500000 217 96 81 0.000000
0.03505135 0.04228829 0.21600001 206 99 91 0.000000
0.03572388 0.04248407 0.21700001 201 94 86 0.000000
-0.04665415 0.04794758 0.24200001 146 132 126 0.000000
-0.04608512 0.04794758 0.24200001 146 132 126 0.000000
-0.04570416 0.04814571 0.24300002 148 134 128 0.000000
-0.04513277 0.04814571 0.24300002 147 136 127 0.000000
-0.04456139 0.04814571 0.24300002 145 134 125 0.000000
-0.04399000 0.04814571 0.24300002 145 134 125 0.000000
-0.04341861 0.04814571 0.24300002 145 134 125 0.000000
-0.04284722 0.04814571 0.24300002 143 134 125 0.000000
-0.04210186 0.04794758 0.24200001 144 135 126 0.000000
-0.04153282 0.04794758 0.24200001 144 135 126 0.000000
-0.04062524 0.04755132 0.24000001 143 134 125 0.000000
-0.03989398 0.04735319 0.23900001 144 133 124 0.000000
-0.03900286 0.04695693 0.23700002 142 131 122 0.000000
-0.03828336 0.04675880 0.23600002 149 126 121 0.000000
-0.03740870 0.04636254 0.23400001 128 105 100 0.000000
-0.03670096 0.04616440 0.23300001 114 77 72 0.000000
-0.03584276 0.04576815 0.23100001 117 80 75 0.000000
-0.03514677 0.04557001 0.23000000 125 78 67 0.000000
-0.03460595 0.04557001 0.23000000 125 78 67 0.000000
-0.03406513 0.04557001 0.23000000 130 77 64 0.000000
-0.03352431 0.04557001 0.23000000 134 81 68 0.000000
-0.03298349 0.04557001 0.23000000 142 82 71 0.000000
-0.03244267 0.04557001 0.23000000 141 81 70 0.000000
-0.03190185 0.04557001 0.23000000 143 80 66 0.000000
-0.03136103 0.04557001 0.23000000 143 80 66 0.000000
-0.03082021 0.04557001 0.23000000 143 75 63 0.000000
-0.03027939 0.04557001 0.23000000 144 76 64 0.000000
-0.02973856 0.04557001 0.23000000 151 74 65 0.000000
-0.02907080 0.04537189 0.22900002 152 75 66 0.000000
-0.02828314 0.04497562 0.22700001 155 73 63 0.000000
-0.02511137 0.04319245 0.21800001 162 76 67 0.000000
-0.02437309 0.04279619 0.21600001 162 76 67 0.000000
-0.02386518 0.04279619 0.21600001 163 75 65 0.000000
-0.02324915 0.04259806 0.21500000 165 77 67 0.000000
-0.02274360 0.04259806 0.21500000 165 74 65 0.000000
-0.02213462 0.04239993 0.21400002 163 72 63 0.000000
-0.02163142 0.04239993 0.21400002 166 75 66 0.000000
-0.02112822 0.04239993 0.21400002 169 78 69 0.000000
-0.02052864 0.04220180 0.21300001 170 79 70 0.000000
-0.02002779 0.04220180 0.21300001 170 79 70 0.000000
-0.01943527 0.04200367 0.21200001 173 83 71 0.000000
-0.01884745 0.04180554 0.21100001 170 80 68 0.000000
-0.01826433 0.04160741 0.21000001 175 82 71 0.000000
-0.01777054 0.04160741 0.21000001 177 84 73 0.000000
-0.01719448 0.04140927 0.20900001 179 85 72 0.000000
-0.01670304 0.04140927 0.20900001 178 84 71 0.000000
-0.01613403 0.04121114 0.20800000 177 83 70 0.000000
-0.01564494 0.04121114 0.20800000 178 84 71 0.000000
-0.01515585 0.04121114 0.20800000 180 83 71 0.000000
-0.01459625 0.04101301 0.20700002 181 84 72 0.000000
-0.01410951 0.04101301 0.20700002 182 85 73 0.000000
-0.01362277 0.04101301 0.20700002 182 85 73 0.000000
-0.01307257 0.04081488 0.20600002 178 81 69 0.000000
-0.01258818 0.04081488 0.20600002 180 83 71 0.000000
-0.01204504 0.04061675 0.20500001 184 87 73 0.000000
-0.01156300 0.04061675 0.20500001 179 82 68 0.000000
-0.01108097 0.04061675 0.20500001 181 83 67 0.000000
-0.01059893 0.04061675 0.20500001 180 82 66 0.000000
-0.01011690 0.04061675 0.20500001 181 83 67 0.000000
-0.00958786 0.04041862 0.20400001 182 84 68 0.000000
-0.00910818 0.04041862 0.20400001 185 87 71 0.000000
-0.00862849 0.04041862 0.20400001 189 90 77 0.000000
-0.00814881 0.04041862 0.20400001 193 94 81 0.000000
-0.00766912 0.04041862 0.20400001 192 93 80 0.000000
-0.00718944 0.04041862 0.20400001 188 89 76 0.000000
-0.00670976 0.04041862 0.20400001 186 87 74 0.000000
-0.00623007 0.04041862 0.20400001 185 86 73 0.000000
-0.00572220 0.04022049 0.20300001 187 88 75 0.000000
-0.00524487 0.04022049 0.20300001 190 91 78 0.000000
-0.00476753 0.04022049 0.20300001 186 87 74 0.000000
-0.00379408 0.04002236 0.20200001 190 89 74 0.000000
-0.00137000 0.03863545 0.19500001 195 89 74 0.000000
-0.00090680 0.03843731 0.19400001 196 88 73 0.000000
-0.00044831 0.03823918 0.19300000 196 88 73 0.000000
0.00000551 0.03823918 0.19300000 200 87 74 0.000000
0.00045933 0.03823918 0.19300000 203 90 77 0.000000
0.00091315 0.03823918 0.19300000 204 88 74 0.000000
0.00136697 0.03823918 0.19300000 206 90 76 0.000000
0.00182079 0.03823918 0.19300000 212 93 75 0.000000
0.00227461 0.03823918 0.19300000 215 96 78 0.000000
0.00272843 0.03823918 0.19300000 218 100 79 0.000000
0.00318225 0.03823918 0.19300000 221 103 82 0.000000
0.00363606 0.03823918 0.19300000 220 104 83 0.000000
0.00408988 0.03823918 0.19300000 220 104 83 0.000000
0.00454370 0.03823918 0.19300000 221 104 86 0.000000
0.00502342 0.03843731 0.19400001 221 104 86 0.000000
0.00547959 0.03843731 0.19400001 221 102 84 0.000000
0.00593576 0.03843731 0.19400001 222 103 85 0.000000
0.00642487 0.03863545 0.19500001 223 104 86 0.000000
0.00691870 0.03883358 0.19600001 224 105 87 0.000000
0.00741722 0.03903171 0.19700001 226 103 84 0.000000
0.00788045 0.03903171 0.19700001 226 103 84 0.000000
0.00968394 0.03883358 0.19600001 230 102 83 0.000000
0.01014481 0.03883358 0.19600001 234 106 87 0.000000
0.01049746 0.03843731 0.19400001 234 106 87 0.000000
0.01095363 0.03843731 0.19400001 234 106 87 0.000000
0.01174364 0.03804106 0.19200000 234 104 85 0.000000
0.01213160 0.03784293 0.19100001 234 104 85 0.000000
0.01251484 0.03764480 0.19000001 235 103 83 0.000000
0.01296161 0.03764480 0.19000001 235 103 83 0.000000
0.01340837 0.03764480 0.19000001 235 103 83 0.000000
0.01385514 0.03764480 0.19000001 235 103 83 0.000000
0.01430190 0.03764480 0.19000001 238 106 86 0.000000
0.01474867 0.03764480 0.19000001 241 106 87 0.000000
0.01527541 0.03784293 0.19100001 242 107 88 0.000000
0.01580685 0.03804106 0.19200000 243 108 89 0.000000
0.01625832 0.03804106 0.19200000 246 111 92 0.000000
0.01679682 0.03823918 0.19300000 242 107 88 0.000000
0.01725064 0.03823918 0.19300000 244 109 90 0.000000
0.01779619 0.03843731 0.19400001 235 103 83 0.000000
0.01825236 0.03843731 0.19400001 225 93 73 0.000000
0.01880497 0.03863545 0.19500001 224 92 74 0.000000
0.01926349 0.03863545 0.19500001 225 93 75 0.000000
0.01972201 0.03863545 0.19500001 227 95 77 0.000000
0.02028402 0.03883358 0.19600001 225 93 75 0.000000
0.02074490 0.03883358 0.19600001 227 95 79 0.000000
0.02131396 0.03903171 0.19700001 227 95 79 0.000000
0.02177718 0.03903171 0.19700001 227 97 80 0.000000
0.02235330 0.03922984 0.19800001 229 99 82 0.000000
0.02293413 0.03942797 0.19900002 226 96 79 0.000000
0.02340206 0.03942797 0.19900002 225 95 78 0.000000
0.02410988 0.03982423 0.20100001 223 93 74 0.000000
0.02470481 0.04002236 0.20200001 222 92 73 0.000000
0.02530445 0.04022049 0.20300001 222 92 73 0.000000
0.02590878 0.04041862 0.20400001 222 92 73 0.000000
0.02651783 0.04061675 0.20500001 218 88 69 0.000000
0.02713157 0.04081488 0.20600002 218 88 69 0.000000
0.02761596 0.04081488 0.20600002 217 89 70 0.000000
0.02823675 0.04101301 0.20700002 216 88 69 0.000000
0.02886225 0.04121114 0.20800000 216 88 69 0.000000
0.02935134 0.04121114 0.20800000 216 88 69 0.000000
0.02998389 0.04140927 0.20900001 215 87 70 0.000000
0.03047533 0.04140927 0.20900001 214 86 69 0.000000
0.03096678 0.04140927 0.20900001 219 93 75 0.000000
0.03175925 0.04180554 0.21100001 217 91 73 0.000000
0.03240827 0.04200367 0.21200001 215 91 75 0.000000
0.03306198 0.04220180 0.21300001 214 90 74 0.000000
0.03372040 0.04239993 0.21400002 210 91 75 0.000000
0.03438352 0.04259806 0.21500000 210 91 75 0.000000
0.03505135 0.04279619 0.21600001 204 97 89 0.000000
0.03572388 0.04299432 0.21700001 204 97 89 0.000000
0.03656808 0.04339058 0.21900001 197 123 108 0.000000
-0.04663778 0.04791517 0.23900001 144 128 121 0.000000
-0.04626858 0.04811566 0.24000001 143 127 122 0.000000
-0.04570425 0.04811566 0.24000001 139 125 117 0.000000
-0.04513991 0.04811566 0.24000001 141 127 119 0.000000
-0.04476131 0.04831614 0.24100001 147 133 125 0.000000
-0.04419462 0.04831614 0.24100001 149 135 127 0.000000
-0.04362794 0.04831614 0.24100001 148 138 126 0.000000
-0.04306125 0.04831614 0.24100001 147 137 125 0.000000
-0.04249457 0.04831614 0.24100001 144 134 122 0.000000
-0.04192788 0.04831614 0.24100001 145 135 123 0.000000
-0.04118957 0.04811566 0.24000001 143 134 125 0.000000
-0.04045596 0.04791517 0.23900001 140 131 122 0.000000
-0.03972706 0.04771469 0.23800001 139 128 119 0.000000
-0.03883829 0.04731373 0.23600002 137 126 117 0.000000
-0.03812115 0.04711325 0.23500001 142 119 114 0.000000
-0.03740870 0.04691276 0.23400001 118 95 90 0.000000
-0.03654344 0.04651180 0.23200001 116 79 74 0.000000
-0.03584276 0.04631132 0.23100001 117 80 75 0.000000
-0.03514677 0.04611083 0.23000000 123 78 67 0.000000
-0.03460595 0.04611083 0.23000000 123 78 67 0.000000
-0.03406513 0.04611083 0.23000000 126 78 63 0.000000
-0.03337855 0.04591036 0.22900002 130 82 67 0.000000
-0.03298349 0.04611083 0.23000000 137 81 67 0.000000
-0.03244267 0.04611083 0.23000000 138 82 68 0.000000
-0.03190185 0.04611083 0.23000000 140 80 65 0.000000
-0.03136103 0.04611083 0.23000000 141 81 66 0.000000
-0.03082021 0.04611083 0.23000000 141 76 63 0.000000
-0.03027939 0.04611083 0.23000000 143 78 65 0.000000
-0.02973856 0.04611083 0.23000000 149 74 64 0.000000
-0.02907080 0.04591036 0.22900002 151 76 66 0.000000
-0.02840774 0.04570987 0.22800002 160 81 70 0.000000
-0.02499618 0.04350457 0.21700001 159 73 64 0.000000
-0.02426025 0.04310361 0.21500000 162 76 67 0.000000
-0.02375470 0.04310361 0.21500000 165 77 67 0.000000
-0.02324915 0.04310361 0.21500000 166 78 68 0.000000
-0.02274360 0.04310361 0.21500000 163 75 65 0.000000
-0.02213462 0.04290313 0.21400002 161 73 63 0.000000
-0.02163142 0.04290313 0.21400002 167 76 67 0.000000
-0.02112822 0.04290313 0.21400002 170 79 70 0.000000
-0.02052864 0.04270265 0.21300001 170 79 70 0.000000
-0.02002779 0.04270265 0.21300001 170 79 70 0.000000
-0.01943527 0.04250216 0.21200001 172 81 72 0.000000
-0.01884745 0.04230168 0.21100001 172 81 72 0.000000
-0.01835131 0.04230168 0.21100001 175 82 71 0.000000
-0.01777054 0.04210120 0.21000001 177 84 73 0.000000
-0.01727675 0.04210120 0.21000001 179 85 74 0.000000
-0.01670304 0.04190072 0.20900001 179 85 74 0.000000
-0.01621160 0.04190072 0.20900001 182 88 75 0.000000
-0.01572016 0.04190072 0.20900001 179 85 72 0.000000
-0.01515585 0.04170023 0.20800000 179 85 72 0.000000
-0.01459625 0.04149976 0.20700002 178 84 71 0.000000
-0.01410951 0.04149976 0.20700002 180 83 71 0.000000
-0.01362277 0.04149976 0.20700002 181 84 72 0.000000
-0.01307257 0.04129927 0.20600002 180 83 71 0.000000
-0.01258818 0.04129927 0.20600002 181 84 72 0.000000
-0.01210380 0.04129927 0.20600002 185 88 74 0.000000
-0.01156300 0.04109879 0.20500001 181 84 70 0.000000
-0.01108097 0.04109879 0.20500001 179 81 65 0.000000
-0.01059893 0.04109879 0.20500001 182 84 68 0.000000
-0.01011690 0.04109879 0.20500001 186 88 72 0.000000
-0.00958786 0.04089831 0.20400001 187 89 73 0.000000
-0.00910818 0.04089831 0.20400001 187 89 73 0.000000
-0.00862849 0.04089831 0.20400001 189 91 75 0.000000
-0.00814881 0.04089831 0.20400001 186 88 72 0.000000
-0.00766912 0.04089831 0.20400001 186 88 72 0.000000
-0.00718944 0.04089831 0.20400001 189 91 75 0.000000
-0.00670976 0.04089831 0.20400001 186 88 72 0.000000
-0.00623007 0.04089831 0.20400001 186 88 72 0.000000
-0.00575039 0.04089831 0.20400001 187 89 73 0.000000
-0.00524487 0.04069782 0.20300001 187 89 73 0.000000
-0.00476753 0.04069782 0.20300001 185 87 71 0.000000
-0.00429020 0.04069782 0.20300001 183 85 69 0.000000
-0.00136297 0.03889349 0.19400001 195 87 72 0.000000
-0.00090213 0.03869301 0.19300000 196 86 72 0.000000
-0.00044831 0.03869301 0.19300000 198 88 74 0.000000
0.00000548 0.03849252 0.19200000 205 89 77 0.000000
0.00045695 0.03849252 0.19200000 205 89 77 0.000000
0.00090842 0.03849252 0.19200000 206 90 76 0.000000
0.00135989 0.03849252 0.19200000 207 91 77 0.000000
0.00181135 0.03849252 0.19200000 206 90 76 0.000000
0.00226282 0.03849252 0.19200000 208 92 78 0.000000
0.00271429 0.03849252 0.19200000 213 96 80 0.000000
0.00316576 0.03849252 0.19200000 213 96 80 0.000000
0.00363606 0.03869301 0.19300000 215 97 84 0.000000
0.00408988 0.03869301 0.19300000 221 103 90 0.000000
0.00454370 0.03869301 0.19300000 220 103 87 0.000000
0.00499752 0.03869301 0.19300000 222 105 89 0.000000
0.00545134 0.03869301 0.19300000 224 105 89 0.000000
0.00593576 0.03889349 0.19400001 226 107 91 0.000000
0.00642487 0.03909397 0.19500001 225 104 87 0.000000
0.00688340 0.03909397 0.19500001 226 105 88 0.000000
0.00737957 0.03929445 0.19600001 229 105 89 0.000000
0.00788045 0.03949494 0.19700001 229 105 89 0.000000
0.00968394 0.03929445 0.19600001 231 105 87 0.000000
0.01049746 0.03889349 0.19400001 234 108 88 0.000000
0.01089717 0.03869301 0.19300000 234 108 88 0.000000
0.01129218 0.03849252 0.19200000 231 105 85 0.000000
0.01168248 0.03829204 0.19100001 236 108 89 0.000000
0.01213160 0.03829204 0.19100001 234 106 87 0.000000
0.01251484 0.03809156 0.19000001 236 106 87 0.000000
0.01296161 0.03809156 0.19000001 234 104 85 0.000000
0.01340837 0.03809156 0.19000001 234 104 85 0.000000
