0.00952567 0.02930542 0.25300002 187 67 47 0.000000
0.01012057 0.02930542 0.25300002 191 71 51 0.000000
0.01071548 0.02930542 0.25300002 192 72 52 0.000000
0.01131038 0.02930542 0.25300002 191 71 51 0.000000
0.01190528 0.02930542 0.25300002 188 70 49 0.000000
0.01250018 0.02930542 0.25300002 186 68 47 0.000000
0.01309509 0.02930542 0.25300002 183 65 44 0.000000
0.01374410 0.02942125 0.25400001 183 65 44 0.000000
0.01434135 0.02942125 0.25400001 179 62 46 0.000000
0.01493861 0.02942125 0.25400001 180 63 47 0.000000
0.01559703 0.02953709 0.25500003 178 60 47 0.000000
0.01626015 0.02965292 0.25600001 178 60 47 0.000000
0.01692797 0.02976875 0.25700000 178 62 48 0.000000
0.01766872 0.03000041 0.25900000 181 65 51 0.000000
0.01925135 0.03057957 0.26400000 179 64 47 0.000000
0.02017321 0.03104290 0.26800001 177 65 47 0.000000
0.02103626 0.03139040 0.27100003 178 65 50 0.000000
0.02191341 0.03173789 0.27400002 181 68 53 0.000000
0.02272235 0.03196955 0.27600002 180 72 55 0.000000
0.02354069 0.03220122 0.27800003 183 75 58 0.000000
0.02428141 0.03231705 0.27900001 180 74 59 0.000000
0.02502683 0.03243288 0.28000000 178 72 57 0.000000
0.02568522 0.03243288 0.28000000 181 75 60 0.000000
0.02643770 0.03254871 0.28100002 185 79 64 0.000000
0.02719487 0.03266454 0.28200001 184 80 64 0.000000
0.02785797 0.03266454 0.28200001 180 76 60 0.000000
0.02852106 0.03266454 0.28200001 169 84 70 0.000000
0.02928764 0.03278038 0.28300002 184 99 85 0.000000
-0.05991040 0.03238217 0.27400002 65 60 38 0.000000
-0.05926612 0.03238217 0.27400002 63 58 36 0.000000
-0.05862183 0.03238217 0.27400002 66 61 39 0.000000
-0.05797756 0.03238217 0.27400002 64 59 37 0.000000
-0.05733328 0.03238217 0.27400002 65 60 38 0.000000
-0.05668899 0.03238217 0.27400002 63 61 38 0.000000
-0.05604471 0.03238217 0.27400002 63 61 38 0.000000
-0.05540043 0.03238217 0.27400002 63 63 39 0.000000
-0.05455630 0.03226399 0.27300000 60 60 36 0.000000
-0.05391437 0.03226399 0.27300000 58 58 34 0.000000
-0.05327244 0.03226399 0.27300000 58 58 34 0.000000
-0.05263051 0.03226399 0.27300000 58 58 34 0.000000
-0.05179815 0.03214581 0.27200001 58 58 34 0.000000
-0.05097049 0.03202762 0.27100003 58 58 36 0.000000
-0.05033326 0.03202762 0.27100003 60 60 38 0.000000
-0.04932927 0.03179125 0.26900002 35 36 25 0.000000
-0.04851571 0.03167307 0.26800001 25 26 15 0.000000
-0.04752819 0.03143670 0.26600000 22 23 17 0.000000
-0.04672639 0.03131852 0.26500002 24 25 19 0.000000
-0.04592929 0.03120034 0.26400000 29 25 18 0.000000
-0.04496528 0.03096397 0.26200002 26 22 15 0.000000
-0.04417994 0.03084579 0.26100001 82 41 31 0.000000
-0.04356623 0.03084579 0.26100001 112 71 61 0.000000
-0.04278795 0.03072761 0.26000002 141 71 57 0.000000
-0.04201437 0.03060942 0.25900000 155 73 56 0.000000
-0.04124549 0.03049124 0.25800002 157 75 58 0.000000
-0.04048131 0.03037306 0.25700000 164 78 58 0.000000
-0.03972185 0.03025487 0.25600001 170 84 64 0.000000
-0.03911989 0.03025487 0.25600001 171 85 63 0.000000
-0.03836747 0.03013669 0.25500003 172 86 64 0.000000
-0.03776787 0.03013669 0.25500003 174 82 62 0.000000
-0.03716826 0.03013669 0.25500003 174 82 62 0.000000
-0.03656866 0.03013669 0.25500003 177 84 64 0.000000
-0.03611010 0.03025487 0.25600001 178 85 65 0.000000
-0.03550814 0.03025487 0.25600001 181 85 66 0.000000
-0.03490619 0.03025487 0.25600001 181 85 66 0.000000
-0.03430423 0.03025487 0.25600001 186 82 66 0.000000
-0.03370228 0.03025487 0.25600001 189 85 69 0.000000
-0.03322961 0.03037306 0.25700000 190 82 65 0.000000
-0.03249836 0.03025487 0.25600001 194 86 69 0.000000
-0.03189640 0.03025487 0.25600001 199 83 69 0.000000
-0.03129445 0.03025487 0.25600001 206 90 76 0.000000
-0.03057260 0.03013669 0.25500003 212 92 79 0.000000
-0.02997299 0.03013669 0.25500003 212 92 79 0.000000
-0.02925820 0.03001851 0.25400001 218 93 82 0.000000
-0.02866094 0.03001851 0.25400001 207 82 71 0.000000
-0.02806369 0.03001851 0.25400001 226 93 80 0.000000
-0.02735830 0.02990033 0.25300002 227 94 81 0.000000
-0.02676340 0.02990033 0.25300002 232 100 84 0.000000
-0.02616850 0.02990033 0.25300002 240 108 92 0.000000
-0.02557359 0.02990033 0.25300002 241 106 89 0.000000
-0.02487996 0.02978214 0.25200000 235 100 83 0.000000
-0.02438379 0.02990033 0.25300002 236 101 84 0.000000
-0.02369485 0.02978214 0.25200000 248 113 96 0.000000
-0.02301063 0.02966396 0.25100002 249 111 95 0.000000
-0.02233110 0.02954577 0.25000000 252 114 98 0.000000
-0.02148234 0.02919123 0.24700001 247 111 99 0.000000
-0.01775099 0.02789121 0.23600002 253 124 112 0.000000
-0.01712320 0.02777303 0.23500001 248 126 114 0.000000
-0.01650010 0.02765485 0.23400001 255 134 122 0.000000
-0.01594988 0.02765485 0.23400001 255 151 137 0.000000
-0.01533384 0.02753666 0.23300001 255 156 142 0.000000
-0.01478596 0.02753666 0.23300001 255 160 145 0.000000
-0.01423809 0.02753666 0.23300001 255 165 150 0.000000
-0.01369022 0.02753666 0.23300001 255 175 157 0.000000
-0.01308594 0.02741848 0.23200001 255 179 161 0.000000
-0.01254041 0.02741848 0.23200001 255 182 164 0.000000
-0.01194319 0.02730030 0.23100001 255 183 165 0.000000
-0.01140002 0.02730030 0.23100001 255 179 161 0.000000
-0.01085684 0.02730030 0.23100001 255 181 163 0.000000
-0.01031367 0.02730030 0.23100001 255 177 160 0.000000
-0.00981280 0.02741848 0.23200001 255 167 150 0.000000
-0.00930722 0.02753666 0.23300001 255 153 138 0.000000
-0.00875934 0.02753666 0.23300001 245 139 124 0.000000
-0.00821147 0.02753666 0.23300001 243 125 112 0.000000
-0.00769648 0.02765485 0.23400001 251 122 110 0.000000
-0.00714626 0.02765485 0.23400001 245 116 104 0.000000
-0.00659603 0.02765485 0.23400001 247 112 95 0.000000
-0.00604581 0.02765485 0.23400001 243 108 91 0.000000
-0.00549558 0.02765485 0.23400001 242 102 85 0.000000
-0.00494535 0.02765485 0.23400001 240 100 83 0.000000
-0.00439513 0.02765485 0.23400001 244 98 80 0.000000
-0.00384490 0.02765485 0.23400001 245 99 81 0.000000
-0.00329467 0.02765485 0.23400001 249 100 83 0.000000
-0.00109844 0.02777303 0.23500001 252 108 92 0.000000
0.00229250 0.02871850 0.24300002 202 73 59 0.000000
0.00288746 0.02895486 0.24500000 204 75 61 0.000000
0.00349182 0.02919123 0.24700001 201 77 63 0.000000
0.00412208 0.02954577 0.25000000 198 74 60 0.000000
0.00472877 0.02966396 0.25100002 194 70 56 0.000000
0.00534016 0.02978214 0.25200000 194 70 56 0.000000
0.00595625 0.02990033 0.25300002 192 71 56 0.000000
0.00655116 0.02990033 0.25300002 192 71 56 0.000000
0.00714606 0.02990033 0.25300002 189 68 53 0.000000
0.00777156 0.03001851 0.25400001 189 68 53 0.000000
0.00836881 0.03001851 0.25400001 190 69 52 0.000000
0.00896607 0.03001851 0.25400001 189 68 51 0.000000
0.00956332 0.03001851 0.25400001 187 66 49 0.000000
0.01016057 0.03001851 0.25400001 187 66 49 0.000000
0.01075783 0.03001851 0.25400001 190 71 53 0.000000
0.01135508 0.03001851 0.25400001 189 70 52 0.000000
0.01195234 0.03001851 0.25400001 184 65 47 0.000000
0.01254959 0.03001851 0.25400001 183 64 46 0.000000
0.01314684 0.03001851 0.25400001 182 65 47 0.000000
0.01374410 0.03001851 0.25400001 182 65 47 0.000000
0.01439782 0.03013669 0.25500003 176 61 44 0.000000
0.01499742 0.03013669 0.25500003 177 62 45 0.000000
0.01626015 0.03025487 0.25600001 176 63 48 0.000000
0.01699384 0.03049124 0.25800002 179 66 51 0.000000
0.01773694 0.03072761 0.26000002 181 68 53 0.000000
0.01848944 0.03096397 0.26200002 179 66 51 0.000000
0.01932427 0.03131852 0.26500002 177 64 49 0.000000
0.02017321 0.03167307 0.26800001 178 65 50 0.000000
0.02183344 0.03226399 0.27300000 180 70 54 0.000000
0.02264002 0.03250035 0.27500001 179 71 54 0.000000
0.02345601 0.03273672 0.27700001 183 75 58 0.000000
0.02419438 0.03285490 0.27800003 183 77 60 0.000000
0.02493745 0.03297308 0.27900001 184 78 61 0.000000
0.02568522 0.03309127 0.28000000 184 78 61 0.000000
0.02643770 0.03320945 0.28100002 186 80 63 0.000000
0.02719487 0.03332764 0.28200001 185 81 63 0.000000
-0.05991040 0.03302645 0.27400002 65 60 40 0.000000
-0.05926612 0.03302645 0.27400002 63 58 36 0.000000
-0.05797756 0.03302645 0.27400002 66 61 39 0.000000
-0.05733328 0.03302645 0.27400002 66 61 39 0.000000
-0.05668899 0.03302645 0.27400002 64 62 39 0.000000
-0.05604471 0.03302645 0.27400002 62 60 37 0.000000
-0.05540043 0.03302645 0.27400002 63 61 38 0.000000
-0.05475615 0.03302645 0.27400002 57 55 32 0.000000
-0.05411186 0.03302645 0.27400002 58 58 34 0.000000
-0.05346758 0.03302645 0.27400002 58 58 34 0.000000
-0.05263051 0.03290592 0.27300000 56 56 32 0.000000
-0.05198858 0.03290592 0.27300000 54 54 30 0.000000
-0.05115857 0.03278539 0.27200001 56 56 34 0.000000
-0.05033326 0.03266485 0.27100003 54 54 32 0.000000
-0.04951265 0.03254431 0.27000001 37 35 25 0.000000
-0.04851571 0.03230324 0.26800001 26 24 14 0.000000
-0.04770687 0.03218271 0.26700002 24 24 18 0.000000
-0.04672639 0.03194164 0.26500002 25 25 19 0.000000
-0.04592929 0.03182111 0.26400000 36 16 17 0.000000
-0.04513690 0.03170057 0.26300001 39 19 20 0.000000
-0.04434922 0.03158004 0.26200002 88 42 36 0.000000
-0.04356623 0.03145950 0.26100001 114 68 62 0.000000
-0.04278795 0.03133897 0.26000002 141 71 55 0.000000
-0.04201437 0.03121843 0.25900000 153 72 55 0.000000
-0.04140535 0.03121843 0.25900000 154 73 56 0.000000
-0.04048131 0.03097736 0.25700000 159 73 51 0.000000
-0.03972185 0.03085683 0.25600001 165 79 57 0.000000
-0.03911989 0.03085683 0.25600001 171 85 63 0.000000
-0.03836747 0.03073630 0.25500003 173 87 65 0.000000
-0.03776787 0.03073630 0.25500003 176 84 62 0.000000
-0.03716826 0.03073630 0.25500003 175 83 61 0.000000
-0.03656866 0.03073630 0.25500003 177 84 62 0.000000
-0.03596905 0.03073630 0.25500003 179 86 64 0.000000
-0.03536944 0.03073630 0.25500003 184 88 69 0.000000
-0.03490619 0.03085683 0.25600001 184 88 69 0.000000
-0.03430423 0.03085683 0.25600001 187 86 67 0.000000
-0.03370228 0.03085683 0.25600001 190 89 70 0.000000
-0.03310032 0.03085683 0.25600001 194 88 71 0.000000
-0.03249836 0.03085683 0.25600001 197 91 74 0.000000
-0.03189640 0.03085683 0.25600001 206 93 78 0.000000
-0.03129445 0.03085683 0.25600001 210 97 82 0.000000
-0.03057260 0.03073630 0.25500003 221 97 83 0.000000
-0.02985545 0.03061576 0.25400001 222 98 84 0.000000
-0.02925820 0.03061576 0.25400001 230 101 89 0.000000
-0.02854811 0.03049523 0.25300002 237 108 96 0.000000
-0.02795320 0.03049523 0.25300002 249 111 97 0.000000
-0.02735830 0.03049523 0.25300002 250 112 98 0.000000
-0.02676340 0.03049523 0.25300002 252 117 102 0.000000
-0.02606506 0.03037469 0.25200000 255 122 107 0.000000
-0.02547251 0.03037469 0.25200000 255 120 103 0.000000
-0.02487996 0.03037469 0.25200000 248 113 96 0.000000
-0.02428741 0.03037469 0.25200000 248 116 100 0.000000
-0.02360083 0.03025416 0.25100002 253 121 105 0.000000
-0.01894077 0.02856668 0.23700002 255 136 124 0.000000
-0.01822835 0.02832561 0.23500001 255 140 127 0.000000
-0.01760056 0.02820507 0.23400001 255 146 133 0.000000
-0.01690460 0.02796400 0.23200001 255 155 142 0.000000
-0.01635908 0.02796400 0.23200001 255 158 145 0.000000
-0.01581355 0.02796400 0.23200001 255 159 144 0.000000
-0.01520222 0.02784347 0.23100001 255 166 151 0.000000
-0.01465905 0.02784347 0.23100001 255 169 156 0.000000
-0.01411588 0.02784347 0.23100001 255 167 154 0.000000
-0.01357270 0.02784347 0.23100001 255 172 158 0.000000
-0.01302953 0.02784347 0.23100001 255 175 161 0.000000
-0.01248636 0.02784347 0.23100001 255 166 149 0.000000
-0.01194319 0.02784347 0.23100001 255 158 141 0.000000
-0.01135067 0.02772293 0.23000000 255 151 136 0.000000
-0.01085684 0.02784347 0.23100001 249 141 126 0.000000
-0.01031367 0.02784347 0.23100001 248 132 118 0.000000
-0.00981280 0.02796400 0.23200001 241 125 111 0.000000
-0.00930722 0.02808454 0.23300001 242 117 106 0.000000
-0.00879694 0.02820507 0.23400001 246 121 110 0.000000
-0.00824671 0.02820507 0.23400001 247 114 101 0.000000
-0.00769648 0.02820507 0.23400001 245 107 91 0.000000
-0.00717680 0.02832561 0.23500001 245 107 91 0.000000
-0.00662422 0.02832561 0.23500001 249 106 87 0.000000
-0.00609748 0.02844614 0.23600002 247 104 85 0.000000
-0.00554255 0.02844614 0.23600002 246 103 82 0.000000
-0.00496649 0.02832561 0.23500001 246 103 82 0.000000
-0.00441391 0.02832561 0.23500001 249 101 79 0.000000
-0.00386133 0.02832561 0.23500001 247 99 77 0.000000
-0.00332283 0.02844614 0.23600002 249 100 81 0.000000
-0.00276791 0.02844614 0.23600002 249 100 81 0.000000
0.00000680 0.02868721 0.23800001 209 78 66 0.000000
0.00292281 0.02989256 0.24800001 200 76 62 0.000000
0.00353423 0.03013362 0.25000000 199 78 63 0.000000
0.00413857 0.03025416 0.25100002 195 74 59 0.000000
0.00474761 0.03037469 0.25200000 191 70 55 0.000000
0.00534016 0.03037469 0.25200000 190 69 54 0.000000
0.00595625 0.03049523 0.25300002 187 67 54 0.000000
0.00655116 0.03049523 0.25300002 191 71 58 0.000000
0.00717430 0.03061576 0.25400001 186 68 55 0.000000
0.00777156 0.03061576 0.25400001 186 68 55 0.000000
0.00836881 0.03061576 0.25400001 184 67 51 0.000000
0.00896607 0.03061576 0.25400001 185 68 52 0.000000
0.00956332 0.03061576 0.25400001 185 68 52 0.000000
0.01016057 0.03061576 0.25400001 184 67 51 0.000000
0.01080018 0.03073630 0.25500003 185 68 52 0.000000
0.01139979 0.03073630 0.25500003 185 68 52 0.000000
0.01199939 0.03073630 0.25500003 182 65 49 0.000000
0.01259900 0.03073630 0.25500003 182 65 49 0.000000
0.01319860 0.03073630 0.25500003 183 68 49 0.000000
0.01379821 0.03073630 0.25500003 181 66 47 0.000000
0.01439782 0.03073630 0.25500003 177 65 47 0.000000
0.01505623 0.03085683 0.25600001 176 64 46 0.000000
0.01565819 0.03085683 0.25600001 175 65 49 0.000000
0.01632366 0.03097736 0.25700000 175 65 49 0.000000
0.01705971 0.03121843 0.25900000 176 66 50 0.000000
0.01773694 0.03133897 0.26000002 177 67 51 0.000000
0.01848944 0.03158004 0.26200002 177 67 51 0.000000
0.01932427 0.03194164 0.26500002 175 65 49 0.000000
0.02009794 0.03218271 0.26700002 179 69 53 0.000000
0.02095863 0.03254431 0.27000001 180 70 54 0.000000
0.02175346 0.03278539 0.27200001 181 71 55 0.000000
0.02337134 0.03326752 0.27600002 181 73 56 0.000000
0.02410735 0.03338806 0.27700001 184 78 61 0.000000
0.02493745 0.03362913 0.27900001 186 80 63 0.000000
0.02568522 0.03374966 0.28000000 187 83 65 0.000000
-0.05733328 0.03367073 0.27400002 62 60 37 0.000000
-0.05668899 0.03367073 0.27400002 61 59 36 0.000000
-0.05604471 0.03367073 0.27400002 56 54 31 0.000000
-0.05560261 0.03379362 0.27500001 58 56 33 0.000000
-0.05495598 0.03379362 0.27500001 56 54 31 0.000000
-0.05430935 0.03379362 0.27500001 57 57 35 0.000000
-0.05366272 0.03379362 0.27500001 56 56 34 0.000000
-0.05301609 0.03379362 0.27500001 57 57 35 0.000000
-0.05217902 0.03367073 0.27400002 53 53 31 0.000000
-0.05153473 0.03367073 0.27400002 55 55 35 0.000000
-0.05070472 0.03354784 0.27300000 51 51 31 0.000000
-0.04987941 0.03342496 0.27200001 40 38 30 0.000000
-0.04887777 0.03317919 0.27000001 28 26 18 0.000000
-0.04788554 0.03293342 0.26800001 26 17 20 0.000000
-0.04690271 0.03268765 0.26600000 26 17 20 0.000000
-0.04610327 0.03256476 0.26500002 49 22 27 0.000000
-0.04530852 0.03244187 0.26400000 60 33 38 0.000000
-0.04451849 0.03231899 0.26300001 94 46 42 0.000000
-0.04373315 0.03219610 0.26200002 116 68 64 0.000000
-0.04295252 0.03207321 0.26100001 138 71 54 0.000000
-0.04217659 0.03195033 0.26000002 149 68 49 0.000000
-0.04140535 0.03182744 0.25900000 153 72 53 0.000000
-0.04063883 0.03170456 0.25800002 158 74 51 0.000000
-0.03987701 0.03158167 0.25700000 160 76 53 0.000000
-0.03911989 0.03145879 0.25600001 167 78 55 0.000000
-0.03836747 0.03133590 0.25500003 172 83 60 0.000000
-0.03776787 0.03133590 0.25500003 176 85 60 0.000000
-0.03716826 0.03133590 0.25500003 178 87 62 0.000000
-0.03656866 0.03133590 0.25500003 179 86 64 0.000000
-0.03596905 0.03133590 0.25500003 179 86 64 0.000000
-0.03536944 0.03133590 0.25500003 183 85 67 0.000000
-0.03490619 0.03145879 0.25600001 185 87 69 0.000000
-0.03430423 0.03145879 0.25600001 192 88 70 0.000000
-0.03370228 0.03145879 0.25600001 197 93 75 0.000000
-0.03310032 0.03145879 0.25600001 197 91 74 0.000000
-0.03249836 0.03145879 0.25600001 198 92 75 0.000000
-0.03189640 0.03145879 0.25600001 211 96 79 0.000000
-0.03129445 0.03145879 0.25600001 213 98 81 0.000000
-0.03057260 0.03133590 0.25500003 224 100 86 0.000000
-0.02985545 0.03121302 0.25400001 226 102 88 0.000000
-0.02925820 0.03121302 0.25400001 237 106 92 0.000000
-0.02854811 0.03109013 0.25300002 244 113 99 0.000000
-0.02795320 0.03109013 0.25300002 250 110 97 0.000000
-0.02735830 0.03109013 0.25300002 252 112 99 0.000000
-0.02676340 0.03109013 0.25300002 254 114 101 0.000000
-0.02606506 0.03096724 0.25200000 255 117 104 0.000000
-0.02047843 0.02973839 0.24200001 255 137 125 0.000000
-0.01966259 0.02936973 0.23900001 255 140 126 0.000000
-0.01886085 0.02900107 0.23600002 255 143 129 0.000000
-0.01815078 0.02875530 0.23400001 255 149 134 0.000000
-0.01745012 0.02850953 0.23200001 255 151 136 0.000000
-0.01683174 0.02838664 0.23100001 255 153 140 0.000000
-0.01621805 0.02826375 0.23000000 255 156 143 0.000000
-0.01567723 0.02826375 0.23000000 255 158 145 0.000000
-0.01513641 0.02826375 0.23000000 255 155 142 0.000000
-0.01459559 0.02826375 0.23000000 255 148 134 0.000000
-0.01405477 0.02826375 0.23000000 255 145 131 0.000000
-0.01351395 0.02826375 0.23000000 255 139 126 0.000000
-0.01297313 0.02826375 0.23000000 250 132 119 0.000000
-0.01243231 0.02826375 0.23000000 244 124 111 0.000000
-0.01189149 0.02826375 0.23000000 241 121 108 0.000000
-0.01135067 0.02826375 0.23000000 244 117 104 0.000000
-0.01085684 0.02838664 0.23100001 243 116 103 0.000000
-0.01035832 0.02850953 0.23200001 242 109 96 0.000000
-0.00985509 0.02863241 0.23300001 242 109 96 0.000000
-0.00934716 0.02875530 0.23400001 246 110 98 0.000000
-0.00879694 0.02875530 0.23400001 244 108 96 0.000000
-0.00828195 0.02887818 0.23500001 247 104 92 0.000000
-0.00776227 0.02900107 0.23600002 249 102 87 0.000000
-0.00720734 0.02900107 0.23600002 248 101 86 0.000000
-0.00665241 0.02900107 0.23600002 247 101 83 0.000000
-0.00612332 0.02912396 0.23700002 250 104 86 0.000000
-0.00556604 0.02912396 0.23700002 253 104 85 0.000000
-0.00498762 0.02900107 0.23600002 249 100 81 0.000000
-0.00443269 0.02900107 0.23600002 247 98 79 0.000000
-0.00387776 0.02900107 0.23600002 249 100 81 0.000000
-0.00332283 0.02900107 0.23600002 245 99 81 0.000000
0.00294638 0.03072147 0.25000000 197 76 61 0.000000
0.00354837 0.03084436 0.25100002 197 78 62 0.000000
0.00415506 0.03096724 0.25200000 190 71 55 0.000000
0.00474761 0.03096724 0.25200000 190 70 57 0.000000
0.00536135 0.03109013 0.25300002 189 69 56 0.000000
0.00597980 0.03121302 0.25400001 185 67 54 0.000000
0.00657705 0.03121302 0.25400001 187 69 56 0.000000
0.00717430 0.03121302 0.25400001 187 71 57 0.000000
0.00777156 0.03121302 0.25400001 185 69 55 0.000000
0.00840176 0.03133590 0.25500003 184 69 52 0.000000
0.00900137 0.03133590 0.25500003 183 68 51 0.000000
0.00960097 0.03133590 0.25500003 184 69 52 0.000000
0.01020058 0.03133590 0.25500003 184 69 52 0.000000
0.01080018 0.03133590 0.25500003 181 66 49 0.000000
0.01139979 0.03133590 0.25500003 184 69 52 0.000000
0.01199939 0.03133590 0.25500003 181 66 49 0.000000
0.01264841 0.03145879 0.25600001 181 66 49 0.000000
0.01325036 0.03145879 0.25600001 183 68 51 0.000000
0.01385232 0.03145879 0.25600001 181 66 49 0.000000
0.01445428 0.03145879 0.25600001 177 68 49 0.000000
0.01505623 0.03145879 0.25600001 176 67 48 0.000000
0.01571935 0.03158167 0.25700000 175 65 49 0.000000
0.01638718 0.03170456 0.25800002 176 66 50 0.000000
0.01705971 0.03182744 0.25900000 173 63 49 0.000000
0.01780516 0.03207321 0.26100001 174 64 50 0.000000
0.01848944 0.03219610 0.26200002 176 66 50 0.000000
0.01925135 0.03244187 0.26400000 179 69 53 0.000000
0.02002266 0.03268765 0.26600000 180 72 55 0.000000
0.02088101 0.03305630 0.26900002 175 67 50 0.000000
0.02167349 0.03330208 0.27100003 176 68 51 0.000000
0.02247537 0.03354784 0.27300000 180 72 55 0.000000
0.02320198 0.03367073 0.27400002 180 72 55 0.000000
0.02402032 0.03391651 0.27600002 183 77 60 0.000000
-0.05620919 0.03481597 0.27800003 54 52 31 0.000000
-0.05575534 0.03494120 0.27900001 54 52 31 0.000000
-0.05490182 0.03481597 0.27800003 54 52 33 0.000000
-0.05424813 0.03481597 0.27800003 52 50 31 0.000000
-0.05359444 0.03481597 0.27800003 53 53 33 0.000000
-0.05294076 0.03481597 0.27800003 50 50 30 0.000000
-0.05209898 0.03469073 0.27700001 49 51 35 0.000000
-0.05107618 0.03444025 0.27500001 47 49 33 0.000000
-0.05024617 0.03431502 0.27400002 34 34 30 0.000000
-0.04905881 0.03393931 0.27100003 28 28 24 0.000000
-0.04788554 0.03356360 0.26800001 36 25 31 0.000000
-0.04707904 0.03343836 0.26700002 59 48 54 0.000000
-0.04627724 0.03331312 0.26600000 94 66 75 0.000000
-0.04548015 0.03318788 0.26500002 109 81 90 0.000000
-0.04468776 0.03306264 0.26400000 119 72 73 0.000000
-0.04390007 0.03293741 0.26300001 117 70 71 0.000000
-0.04311709 0.03281217 0.26200002 133 71 52 0.000000
-0.04233880 0.03268693 0.26100001 148 71 48 0.000000
-0.04156522 0.03256170 0.26000002 151 74 51 0.000000
-0.04079634 0.03243646 0.25900000 158 74 51 0.000000
-0.03987701 0.03218598 0.25700000 160 76 53 0.000000
-0.03911989 0.03206075 0.25600001 165 76 53 0.000000
-0.03851793 0.03206075 0.25600001 168 79 56 0.000000
-0.03776787 0.03193551 0.25500003 175 84 59 0.000000
-0.03716826 0.03193551 0.25500003 178 87 62 0.000000
-0.03656866 0.03193551 0.25500003 179 86 64 0.000000
-0.03596905 0.03193551 0.25500003 180 87 65 0.000000
-0.03536944 0.03193551 0.25500003 188 90 70 0.000000
-0.03490619 0.03206075 0.25600001 186 88 68 0.000000
-0.03430423 0.03206075 0.25600001 189 85 67 0.000000
-0.03370228 0.03206075 0.25600001 191 87 69 0.000000
-0.03310032 0.03206075 0.25600001 200 93 73 0.000000
-0.03249836 0.03206075 0.25600001 199 92 72 0.000000
-0.03189640 0.03206075 0.25600001 209 97 77 0.000000
-0.03129445 0.03206075 0.25600001 212 100 80 0.000000
-0.03057260 0.03193551 0.25500003 220 99 82 0.000000
-0.02985545 0.03181027 0.25400001 222 101 84 0.000000
-0.02925820 0.03181027 0.25400001 236 107 93 0.000000
-0.02854811 0.03168504 0.25300002 237 108 94 0.000000
-0.02795320 0.03168504 0.25300002 248 110 96 0.000000
-0.02725016 0.03155980 0.25200000 249 111 97 0.000000
-0.02665761 0.03155980 0.25200000 251 108 96 0.000000
-0.02606506 0.03155980 0.25200000 254 111 99 0.000000
-0.02547251 0.03155980 0.25200000 255 118 105 0.000000
-0.02487996 0.03155980 0.25200000 255 118 105 0.000000
-0.01567723 0.02880458 0.23000000 251 122 108 0.000000
-0.01513641 0.02880458 0.23000000 251 122 108 0.000000
-0.01459559 0.02880458 0.23000000 245 112 99 0.000000
-0.01405477 0.02880458 0.23000000 238 105 92 0.000000
-0.01302953 0.02892981 0.23100001 240 104 94 0.000000
-0.01194319 0.02892981 0.23100001 249 110 99 0.000000
-0.01140002 0.02892981 0.23100001 247 107 94 0.000000
-0.01085684 0.02892981 0.23100001 242 102 89 0.000000
-0.01035832 0.02905505 0.23200001 248 104 92 0.000000
-0.00989739 0.02930553 0.23400001 248 104 92 0.000000
-0.00934716 0.02930553 0.23400001 248 104 92 0.000000
-0.00831720 0.02955600 0.23600002 248 101 88 0.000000
-0.00779516 0.02968124 0.23700002 251 101 87 0.000000
-0.00726842 0.02980647 0.23800001 247 97 83 0.000000
-0.00670878 0.02980647 0.23800001 247 98 81 0.000000
-0.00614915 0.02980647 0.23800001 245 96 79 0.000000
-0.00558952 0.02980647 0.23800001 251 102 85 0.000000
-0.00502989 0.02980647 0.23800001 250 101 84 0.000000
-0.00447026 0.02980647 0.23800001 244 98 80 0.000000
0.00296995 0.03155980 0.25200000 198 77 62 0.000000
0.00417155 0.03168504 0.25300002 192 75 59 0.000000
0.00476645 0.03168504 0.25300002 188 70 57 0.000000
0.00538254 0.03181027 0.25400001 186 68 55 0.000000
0.00597980 0.03181027 0.25400001 186 70 58 0.000000
0.00657705 0.03181027 0.25400001 186 70 58 0.000000
0.00720255 0.03193551 0.25500003 185 72 59 0.000000
0.00780215 0.03193551 0.25500003 185 72 59 0.000000
0.00840176 0.03193551 0.25500003 181 69 51 0.000000
0.00900137 0.03193551 0.25500003 177 65 47 0.000000
0.00960097 0.03193551 0.25500003 180 65 48 0.000000
0.01024058 0.03206075 0.25600001 183 68 51 0.000000
0.01084254 0.03206075 0.25600001 180 65 48 0.000000
0.01144449 0.03206075 0.25600001 185 70 53 0.000000
0.01204645 0.03206075 0.25600001 178 66 48 0.000000
0.01264841 0.03206075 0.25600001 179 67 49 0.000000
0.01325036 0.03206075 0.25600001 181 69 51 0.000000
0.01390643 0.03218598 0.25700000 181 69 51 0.000000
0.01451074 0.03218598 0.25700000 179 70 51 0.000000
0.01517386 0.03231122 0.25800002 176 67 48 0.000000
0.01578052 0.03231122 0.25800002 173 65 48 0.000000
0.01638718 0.03231122 0.25800002 175 67 50 0.000000
0.01705971 0.03243646 0.25900000 169 61 46 0.000000
0.01780516 0.03268693 0.26100001 171 63 48 0.000000
0.01848944 0.03281217 0.26200002 176 68 53 0.000000
0.01925135 0.03306264 0.26400000 176 68 53 0.000000
0.01994739 0.03318788 0.26500002 177 71 54 0.000000
0.02080338 0.03356360 0.26800001 176 70 53 0.000000
0.02159351 0.03381407 0.27000001 173 67 50 0.000000
0.02239304 0.03406454 0.27200001 177 71 54 0.000000
0.02320198 0.03431502 0.27400002 177 71 54 0.000000
-0.05608675 0.03623518 0.28400001 48 46 27 0.000000
-0.05541895 0.03623518 0.28400001 49 47 28 0.000000
-0.05455837 0.03610760 0.28300002 48 47 30 0.000000
-0.05370249 0.03598001 0.28200001 46 45 28 0.000000
-0.05181911 0.03559724 0.27900001 39 37 29 0.000000
-0.05061293 0.03521448 0.27600002 44 39 37 0.000000
-0.04942086 0.03483171 0.27300000 69 64 62 0.000000
-0.04645122 0.03406618 0.26700002 196 173 172 0.000000
-0.04565177 0.03393859 0.26600000 166 143 142 0.000000
-0.04485703 0.03381100 0.26500002 180 133 132 0.000000
-0.04406699 0.03368341 0.26400000 130 83 82 0.000000
-0.04311709 0.03342824 0.26200002 140 78 61 0.000000
-0.04250102 0.03342824 0.26200002 152 74 54 0.000000
-0.04172509 0.03330065 0.26100001 151 73 53 0.000000
-0.04079634 0.03304547 0.25900000 158 74 53 0.000000
-0.04003217 0.03291788 0.25800002 160 76 55 0.000000
-0.03927270 0.03279029 0.25700000 161 75 53 0.000000
-0.03851793 0.03266270 0.25600001 164 78 56 0.000000
-0.03791597 0.03266270 0.25600001 169 80 59 0.000000
-0.03731402 0.03266270 0.25600001 174 85 64 0.000000
-0.03656866 0.03253511 0.25500003 179 86 66 0.000000
-0.03596905 0.03253511 0.25500003 175 82 62 0.000000
-0.03536944 0.03253511 0.25500003 180 82 64 0.000000
-0.03490619 0.03266270 0.25600001 183 85 67 0.000000
-0.03430423 0.03266270 0.25600001 189 85 67 0.000000
-0.03370228 0.03266270 0.25600001 190 86 68 0.000000
-0.03310032 0.03266270 0.25600001 196 88 71 0.000000
-0.03249836 0.03266270 0.25600001 200 92 75 0.000000
-0.03189640 0.03266270 0.25600001 202 93 74 0.000000
-0.03129445 0.03266270 0.25600001 205 96 77 0.000000
-0.03057260 0.03253511 0.25500003 215 97 76 0.000000
-0.02985545 0.03240753 0.25400001 216 98 77 0.000000
-0.02925820 0.03240753 0.25400001 239 109 92 0.000000
-0.02854811 0.03227994 0.25300002 236 106 89 0.000000
-0.02795320 0.03227994 0.25300002 240 105 90 0.000000
-0.02735830 0.03227994 0.25300002 242 107 92 0.000000
-0.02676340 0.03227994 0.25300002 245 105 92 0.000000
-0.02606506 0.03215235 0.25200000 246 106 93 0.000000
-0.02547251 0.03215235 0.25200000 253 110 98 0.000000
-0.02487996 0.03215235 0.25200000 255 112 100 0.000000
-0.02428741 0.03215235 0.25200000 253 113 100 0.000000
-0.01308594 0.02960057 0.23200001 248 104 92 0.000000
-0.01090384 0.02960057 0.23200001 247 97 85 0.000000
-0.01040297 0.02972816 0.23300001 250 98 87 0.000000
-0.00989739 0.02985575 0.23400001 248 96 85 0.000000
-0.00835244 0.03023852 0.23700002 252 97 85 0.000000
-0.00782805 0.03036611 0.23800001 250 95 83 0.000000
-0.00729896 0.03049369 0.23900001 249 94 82 0.000000
-0.00673697 0.03049369 0.23900001 246 95 79 0.000000
-0.00617499 0.03049369 0.23900001 247 96 80 0.000000
0.00298174 0.03227994 0.25300002 199 74 63 0.000000
0.00357664 0.03227994 0.25300002 192 74 61 0.000000
0.00418803 0.03240753 0.25400001 192 74 61 0.000000
0.00478529 0.03240753 0.25400001 190 74 62 0.000000
0.00538254 0.03240753 0.25400001 186 70 58 0.000000
0.00597980 0.03240753 0.25400001 187 71 59 0.000000
0.00657705 0.03240753 0.25400001 187 71 59 0.000000
0.00720255 0.03253511 0.25500003 186 70 58 0.000000
0.00780215 0.03253511 0.25500003 186 70 58 0.000000
0.00840176 0.03253511 0.25500003 181 68 55 0.000000
0.00903667 0.03266270 0.25600001 179 66 53 0.000000
0.00963862 0.03266270 0.25600001 181 65 51 0.000000
0.01024058 0.03266270 0.25600001 181 65 51 0.000000
0.01084254 0.03266270 0.25600001 178 62 48 0.000000
0.01148920 0.03279029 0.25700000 185 69 55 0.000000
0.01209350 0.03279029 0.25700000 179 66 51 0.000000
0.01269781 0.03279029 0.25700000 181 68 53 0.000000
0.01335388 0.03291788 0.25800002 179 69 53 0.000000
0.01396054 0.03291788 0.25800002 179 69 53 0.000000
0.01456720 0.03291788 0.25800002 177 67 51 0.000000
0.01517386 0.03291788 0.25800002 175 65 49 0.000000
0.01584169 0.03304547 0.25900000 172 64 47 0.000000
0.01645070 0.03304547 0.25900000 173 65 48 0.000000
0.01712558 0.03317306 0.26000002 172 64 47 0.000000
0.01780516 0.03330065 0.26100001 171 63 46 0.000000
0.01848944 0.03342824 0.26200002 173 67 50 0.000000
0.01917843 0.03355582 0.26300001 174 68 51 0.000000
0.01994739 0.03381100 0.26500002 176 70 53 0.000000
0.02072576 0.03406618 0.26700002 176 72 54 0.000000
0.02151353 0.03432136 0.26900002 176 72 54 0.000000
0.02231072 0.03457654 0.27100003 175 71 55 0.000000
-0.04743170 0.03495388 0.26900002 227 217 215 0.000000
-0.04662519 0.03482394 0.26800001 255 245 242 0.000000
-0.04582340 0.03469400 0.26700002 254 233 230 0.000000
-0.04502630 0.03456406 0.26600000 229 187 184 0.000000
-0.04406699 0.03430418 0.26400000 129 66 52 0.000000
-0.04344622 0.03430418 0.26400000 141 78 64 0.000000
-0.04250102 0.03404430 0.26200002 152 74 56 0.000000
-0.04188496 0.03404430 0.26200002 150 72 54 0.000000
-0.04095386 0.03378442 0.26000002 158 73 55 0.000000
-0.04018733 0.03365448 0.25900000 160 75 57 0.000000
-0.03942551 0.03352454 0.25800002 160 76 55 0.000000
-0.03866839 0.03339460 0.25700000 164 80 59 0.000000
-0.03791597 0.03326466 0.25600001 166 80 60 0.000000
-0.03731402 0.03326466 0.25600001 168 82 62 0.000000
-0.03671206 0.03326466 0.25600001 178 85 67 0.000000
-0.03611010 0.03326466 0.25600001 180 87 69 0.000000
-0.03550814 0.03326466 0.25600001 182 84 66 0.000000
-0.03490619 0.03326466 0.25600001 182 84 66 0.000000
-0.03430423 0.03326466 0.25600001 190 86 70 0.000000
-0.03370228 0.03326466 0.25600001 190 86 70 0.000000
-0.03310032 0.03326466 0.25600001 195 87 72 0.000000
-0.03249836 0.03326466 0.25600001 199 91 76 0.000000
-0.03189640 0.03326466 0.25600001 196 86 70 0.000000
-0.03117221 0.03313472 0.25500003 202 92 76 0.000000
-0.03057260 0.03313472 0.25500003 212 94 73 0.000000
-0.02985545 0.03300478 0.25400001 214 96 75 0.000000
-0.02925820 0.03300478 0.25400001 227 99 80 0.000000
-0.02854811 0.03287484 0.25300002 227 99 80 0.000000
-0.02795320 0.03287484 0.25300002 232 100 82 0.000000
-0.02725016 0.03274490 0.25200000 235 103 85 0.000000
-0.02665761 0.03274490 0.25200000 244 104 89 0.000000
-0.02606506 0.03274490 0.25200000 245 105 90 0.000000
-0.02547251 0.03274490 0.25200000 249 109 94 0.000000
-0.02487996 0.03274490 0.25200000 250 110 95 0.000000
-0.02428741 0.03274490 0.25200000 250 110 95 0.000000
-0.02360083 0.03261496 0.25100002 247 107 92 0.000000
-0.02206313 0.03209520 0.24700001 249 106 92 0.000000
-0.02039381 0.03131556 0.24100001 246 102 88 0.000000
-0.01815078 0.03040598 0.23400001 240 90 76 0.000000
-0.01621805 0.02988621 0.23000000 250 98 85 0.000000
-0.01574539 0.03001616 0.23100001 246 94 81 0.000000
-0.01363146 0.03014610 0.23200001 250 98 85 0.000000
-0.01308594 0.03014610 0.23200001 248 96 83 0.000000
-0.01254041 0.03014610 0.23200001 248 96 83 0.000000
-0.01149872 0.03027604 0.23300001 245 93 80 0.000000
-0.01095084 0.03027604 0.23300001 246 94 81 0.000000
-0.01044762 0.03040598 0.23400001 247 92 80 0.000000
-0.00835244 0.03079580 0.23700002 250 98 85 0.000000
-0.00782805 0.03092574 0.23800001 251 99 86 0.000000
-0.00729896 0.03105568 0.23900001 250 98 85 0.000000
-0.00676516 0.03118562 0.24000001 248 97 81 0.000000
-0.00622666 0.03131556 0.24100001 247 96 80 0.000000
-0.00395992 0.03131556 0.24100001 209 77 61 0.000000
-0.00174938 0.03235508 0.24900001 206 78 61 0.000000
-0.00117323 0.03261496 0.25100002 203 74 60 0.000000
-0.00058768 0.03287484 0.25300002 202 73 59 0.000000
0.00000725 0.03300478 0.25400001 201 74 59 0.000000
0.00060451 0.03300478 0.25400001 201 74 59 0.000000
0.00120176 0.03300478 0.25400001 200 73 58 0.000000
0.00179902 0.03300478 0.25400001 201 74 59 0.000000
0.00239627 0.03300478 0.25400001 197 76 61 0.000000
0.00299352 0.03300478 0.25400001 196 75 60 0.000000
0.00359078 0.03300478 0.25400001 194 77 61 0.000000
0.00418803 0.03300478 0.25400001 193 76 60 0.000000
0.00478529 0.03300478 0.25400001 191 75 61 0.000000
0.00538254 0.03300478 0.25400001 186 70 56 0.000000
0.00597980 0.03300478 0.25400001 185 69 57 0.000000
0.00660294 0.03313472 0.25500003 185 69 57 0.000000
0.00720255 0.03313472 0.25500003 186 70 58 0.000000
0.00780215 0.03313472 0.25500003 185 69 57 0.000000
0.00843471 0.03326466 0.25600001 183 67 55 0.000000
0.00903667 0.03326466 0.25600001 184 68 56 0.000000
0.00963862 0.03326466 0.25600001 183 67 55 0.000000
0.01024058 0.03326466 0.25600001 181 65 53 0.000000
0.01084254 0.03326466 0.25600001 179 63 51 0.000000
0.01148920 0.03339460 0.25700000 183 67 55 0.000000
0.01209350 0.03339460 0.25700000 181 68 53 0.000000
0.01274722 0.03352454 0.25800002 179 66 51 0.000000
0.01335388 0.03352454 0.25800002 176 66 50 0.000000
0.01396054 0.03352454 0.25800002 177 67 51 0.000000
0.01462366 0.03365448 0.25900000 176 66 50 0.000000
0.01523267 0.03365448 0.25900000 175 65 49 0.000000
0.01584169 0.03365448 0.25900000 172 64 47 0.000000
0.01651421 0.03378442 0.26000002 173 65 48 0.000000
0.01712558 0.03378442 0.26000002 170 64 47 0.000000
0.01780516 0.03391436 0.26100001 171 65 48 0.000000
0.01848944 0.03404430 0.26200002 172 66 49 0.000000
0.01917843 0.03417424 0.26300001 174 68 51 0.000000
0.01994739 0.03443412 0.26500002 175 71 53 0.000000
0.02072576 0.03469400 0.26700002 176 72 56 0.000000
0.02151353 0.03495388 0.26900002 176 72 56 0.000000
-0.05648623 0.03876140 0.29300001 51 46 42 0.000000
-0.05560683 0.03862911 0.29200003 71 66 62 0.000000
-0.05014497 0.03664474 0.27700001 210 201 196 0.000000
-0.04877893 0.03611557 0.27300000 248 237 232 0.000000
-0.04760802 0.03571870 0.27000001 255 251 246 0.000000
-0.04662519 0.03545411 0.26800001 255 248 243 0.000000
-0.04599502 0.03545411 0.26800001 255 244 239 0.000000
-0.04502630 0.03518953 0.26600000 208 166 163 0.000000
-0.04423391 0.03505724 0.26500002 133 68 55 0.000000
-0.04344622 0.03492495 0.26400000 141 76 63 0.000000
-0.04266324 0.03479266 0.26300001 154 73 56 0.000000
-0.04188496 0.03466037 0.26200002 154 73 56 0.000000
-0.04111138 0.03452807 0.26100001 157 75 58 0.000000
-0.04034250 0.03439578 0.26000002 158 76 59 0.000000
-0.03957832 0.03426349 0.25900000 160 78 61 0.000000
-0.03881885 0.03413120 0.25800002 162 80 63 0.000000
-0.03821220 0.03413120 0.25800002 164 79 63 0.000000
-0.03745977 0.03399891 0.25700000 159 74 58 0.000000
-0.03685547 0.03399891 0.25700000 170 76 61 0.000000
-0.03611010 0.03386662 0.25600001 179 85 70 0.000000
-0.03550814 0.03386662 0.25600001 182 83 70 0.000000
-0.03490619 0.03386662 0.25600001 183 84 71 0.000000
-0.03430423 0.03386662 0.25600001 187 83 69 0.000000
-0.03370228 0.03386662 0.25600001 187 83 69 0.000000
-0.03310032 0.03386662 0.25600001 193 85 72 0.000000
-0.03249836 0.03386662 0.25600001 199 91 78 0.000000
-0.03189640 0.03386662 0.25600001 195 85 71 0.000000
-0.03117221 0.03373433 0.25500003 200 90 76 0.000000
-0.03057260 0.03373433 0.25500003 210 91 75 0.000000
-0.02985545 0.03360203 0.25400001 214 95 79 0.000000
-0.02925820 0.03360203 0.25400001 217 93 77 0.000000
-0.02854811 0.03346974 0.25300002 219 95 79 0.000000
-0.02795320 0.03346974 0.25300002 227 97 80 0.000000
-0.02735830 0.03346974 0.25300002 229 99 82 0.000000
-0.02676340 0.03346974 0.25300002 245 107 91 0.000000
-0.02606506 0.03333745 0.25200000 242 104 88 0.000000
-0.02547251 0.03333745 0.25200000 244 104 89 0.000000
-0.02497869 0.03346974 0.25300002 244 104 89 0.000000
-0.02428741 0.03333745 0.25200000 247 104 90 0.000000
-0.02360083 0.03320516 0.25100002 247 104 90 0.000000
-0.02291895 0.03307287 0.25000000 247 103 87 0.000000
-0.02215246 0.03280829 0.24800001 243 99 83 0.000000
-0.02139536 0.03254370 0.24600001 245 93 80 0.000000
-0.02056305 0.03214683 0.24300002 247 95 82 0.000000
-0.01974486 0.03174995 0.24000001 248 94 79 0.000000
-0.01902068 0.03148537 0.23800001 242 88 73 0.000000
-0.01760056 0.03095620 0.23400001 249 94 79 0.000000
-0.01690460 0.03069162 0.23200001 248 94 79 0.000000
-0.01417698 0.03069162 0.23200001 249 95 80 0.000000
-0.01314234 0.03082391 0.23300001 249 95 80 0.000000
-0.01264852 0.03095620 0.23400001 246 95 79 0.000000
-0.01209829 0.03095620 0.23400001 246 95 79 0.000000
-0.01154807 0.03095620 0.23400001 245 94 78 0.000000
-0.01099784 0.03095620 0.23400001 245 94 78 0.000000
-0.01049226 0.03108850 0.23500001 245 91 76 0.000000
-0.00890972 0.03135308 0.23700002 246 95 79 0.000000
-0.00838768 0.03148537 0.23800001 247 96 80 0.000000
-0.00786094 0.03161766 0.23900001 250 99 83 0.000000
-0.00732950 0.03174995 0.24000001 250 99 83 0.000000
-0.00676516 0.03174995 0.24000001 245 98 83 0.000000
-0.00511442 0.03201454 0.24200001 218 82 72 0.000000
-0.00059000 0.03360203 0.25400001 202 76 58 0.000000
0.00000725 0.03360203 0.25400001 200 76 60 0.000000
0.00060451 0.03360203 0.25400001 199 75 59 0.000000
0.00120176 0.03360203 0.25400001 198 74 58 0.000000
0.00179902 0.03360203 0.25400001 197 73 57 0.000000
0.00239627 0.03360203 0.25400001 196 75 58 0.000000
0.00299352 0.03360203 0.25400001 196 75 58 0.000000
0.00359078 0.03360203 0.25400001 196 77 61 0.000000
0.00418803 0.03360203 0.25400001 195 76 60 0.000000
0.00478529 0.03360203 0.25400001 190 74 60 0.000000
0.00538254 0.03360203 0.25400001 187 71 57 0.000000
0.00597980 0.03360203 0.25400001 188 72 58 0.000000
0.00660294 0.03373433 0.25500003 187 71 57 0.000000
0.00720255 0.03373433 0.25500003 186 70 58 0.000000
0.00780215 0.03373433 0.25500003 185 69 57 0.000000
0.00843471 0.03386662 0.25600001 181 65 53 0.000000
0.00903667 0.03386662 0.25600001 181 65 53 0.000000
0.00963862 0.03386662 0.25600001 177 64 53 0.000000
0.01024058 0.03386662 0.25600001 179 66 55 0.000000
0.01088489 0.03399891 0.25700000 181 68 57 0.000000
0.01148920 0.03399891 0.25700000 181 68 57 0.000000
0.01214056 0.03413120 0.25800002 179 69 57 0.000000
0.01274722 0.03413120 0.25800002 179 69 57 0.000000
0.01340564 0.03426349 0.25900000 176 66 52 0.000000
0.01401465 0.03426349 0.25900000 175 65 51 0.000000
0.01462366 0.03426349 0.25900000 174 66 49 0.000000
0.01529149 0.03439578 0.26000002 174 66 49 0.000000
0.01590285 0.03439578 0.26000002 172 66 49 0.000000
0.01651421 0.03439578 0.26000002 173 67 50 0.000000
0.01719144 0.03452807 0.26100001 171 67 49 0.000000
0.01780516 0.03452807 0.26100001 171 67 49 0.000000
0.01848944 0.03466037 0.26200002 169 68 49 0.000000
0.01925135 0.03492495 0.26400000 169 68 49 0.000000
0.01994739 0.03505724 0.26500002 173 72 55 0.000000
0.02072576 0.03532182 0.26700002 175 74 57 0.000000
-0.05904908 0.04025822 0.29900002 58 55 50 0.000000
-0.05834601 0.04025822 0.29900002 80 77 72 0.000000
-0.05725737 0.03998893 0.29700002 109 101 98 0.000000
-0.05617814 0.03971964 0.29500002 139 131 128 0.000000
-0.04895761 0.03689215 0.27400002 255 251 241 0.000000
-0.04778435 0.03648822 0.27100003 255 251 241 0.000000
-0.04679917 0.03621893 0.26900002 255 249 241 0.000000
-0.04599502 0.03608429 0.26800001 255 233 225 0.000000
-0.04519558 0.03594964 0.26700002 182 136 130 0.000000
-0.04440083 0.03581500 0.26600000 143 75 63 0.000000
-0.04361079 0.03568036 0.26500002 143 75 63 0.000000
-0.04282545 0.03554571 0.26400000 153 72 57 0.000000
-0.04204482 0.03541107 0.26300001 155 74 59 0.000000
-0.04126889 0.03527643 0.26200002 157 75 58 0.000000
-0.04049766 0.03514178 0.26100001 157 75 58 0.000000
-0.03973114 0.03500715 0.26000002 160 78 61 0.000000
-0.03896931 0.03487250 0.25900000 163 81 64 0.000000
-0.03836030 0.03487250 0.25900000 161 79 62 0.000000
-0.03760553 0.03473786 0.25800002 161 79 62 0.000000
-0.03699888 0.03473786 0.25800002 168 78 64 0.000000
-0.03625115 0.03460321 0.25700000 172 82 68 0.000000
-0.03564685 0.03460321 0.25700000 180 83 69 0.000000
-0.03490619 0.03446857 0.25600001 181 84 70 0.000000
-0.03430423 0.03446857 0.25600001 183 81 69 0.000000
-0.03370228 0.03446857 0.25600001 185 83 71 0.000000
-0.03310032 0.03446857 0.25600001 191 85 72 0.000000
-0.03249836 0.03446857 0.25600001 195 89 76 0.000000
-0.03189640 0.03446857 0.25600001 195 85 73 0.000000
-0.03117221 0.03433393 0.25500003 196 86 74 0.000000
-0.03057260 0.03433393 0.25500003 208 88 75 0.000000
-0.02985545 0.03419929 0.25400001 208 88 75 0.000000
-0.02925820 0.03419929 0.25400001 211 90 73 0.000000
-0.02854811 0.03406465 0.25300002 211 90 73 0.000000
-0.02795320 0.03406465 0.25300002 217 90 75 0.000000
-0.02735830 0.03406465 0.25300002 219 92 77 0.000000
-0.02676340 0.03406465 0.25300002 221 85 73 0.000000
-0.02616850 0.03406465 0.25300002 222 86 74 0.000000
-0.02557359 0.03406465 0.25300002 229 89 76 0.000000
-0.02497869 0.03406465 0.25300002 226 86 73 0.000000
-0.02438379 0.03406465 0.25300002 240 97 83 0.000000
-0.02369485 0.03393000 0.25200000 249 106 92 0.000000
-0.02310230 0.03393000 0.25200000 239 95 79 0.000000
-0.02250975 0.03393000 0.25200000 236 92 76 0.000000
-0.02183023 0.03379536 0.25100002 240 90 76 0.000000
-0.02124003 0.03379536 0.25100002 245 95 81 0.000000
-0.01423809 0.03137179 0.23300001 241 90 72 0.000000
-0.01369022 0.03137179 0.23300001 238 89 70 0.000000
-0.01319875 0.03150643 0.23400001 238 89 70 0.000000
-0.01264852 0.03150643 0.23400001 242 93 74 0.000000
-0.01209829 0.03150643 0.23400001 240 91 72 0.000000
-0.01154807 0.03150643 0.23400001 244 95 76 0.000000
-0.01099784 0.03150643 0.23400001 242 93 74 0.000000
-0.01049226 0.03164107 0.23500001 239 90 73 0.000000
-0.00894731 0.03204500 0.23800001 241 95 77 0.000000
-0.00842292 0.03217964 0.23900001 244 98 80 0.000000
-0.00789383 0.03231429 0.24000001 245 99 81 0.000000
-0.00736004 0.03244893 0.24100001 244 98 80 0.000000
-0.00679335 0.03244893 0.24100001 235 94 86 0.000000
-0.00627834 0.03271822 0.24300002 232 91 83 0.000000
-0.00570695 0.03271822 0.24300002 199 69 62 0.000000
-0.00515669 0.03285286 0.24400002 200 70 63 0.000000
-0.00460174 0.03298750 0.24500000 203 75 65 0.000000
-0.00404207 0.03312214 0.24600001 202 74 64 0.000000
-0.00350587 0.03352607 0.24900001 202 76 58 0.000000
-0.00118725 0.03419929 0.25400001 199 76 57 0.000000
-0.00059000 0.03419929 0.25400001 201 78 59 0.000000
0.00000725 0.03419929 0.25400001 204 84 64 0.000000
0.00060451 0.03419929 0.25400001 203 83 63 0.000000
0.00120176 0.03419929 0.25400001 201 83 62 0.000000
0.00179902 0.03419929 0.25400001 200 82 61 0.000000
0.00239627 0.03419929 0.25400001 197 79 58 0.000000
0.00299352 0.03419929 0.25400001 195 77 56 0.000000
0.00359078 0.03419929 0.25400001 196 77 59 0.000000
0.00418803 0.03419929 0.25400001 196 77 59 0.000000
0.00478529 0.03419929 0.25400001 190 74 60 0.000000
0.00538254 0.03419929 0.25400001 190 74 60 0.000000
0.00597980 0.03419929 0.25400001 190 74 60 0.000000
0.00660294 0.03433393 0.25500003 188 72 58 0.000000
0.00720255 0.03433393 0.25500003 184 71 56 0.000000
0.00780215 0.03433393 0.25500003 185 72 57 0.000000
0.00840176 0.03433393 0.25500003 184 71 56 0.000000
0.00903667 0.03446857 0.25600001 181 68 53 0.000000
0.00963862 0.03446857 0.25600001 177 67 53 0.000000
0.01024058 0.03446857 0.25600001 177 67 53 0.000000
0.01088489 0.03460321 0.25700000 179 69 57 0.000000
0.01148920 0.03460321 0.25700000 177 67 55 0.000000
0.01214056 0.03473786 0.25800002 179 69 57 0.000000
0.01279663 0.03487250 0.25900000 177 67 55 0.000000
0.01340564 0.03487250 0.25900000 177 67 53 0.000000
0.01401465 0.03487250 0.25900000 176 66 52 0.000000
0.01468013 0.03500715 0.26000002 174 66 49 0.000000
0.01529149 0.03500715 0.26000002 174 66 49 0.000000
0.01590285 0.03500715 0.26000002 172 68 50 0.000000
0.01657773 0.03514178 0.26100001 175 71 53 0.000000
0.01719144 0.03514178 0.26100001 172 74 56 0.000000
0.01787338 0.03527643 0.26200002 171 73 55 0.000000
0.01856001 0.03541107 0.26300001 168 70 52 0.000000
0.01925135 0.03554571 0.26400000 169 71 53 0.000000
-0.06166836 0.04178324 0.30500001 56 53 48 0.000000
-0.06035166 0.04137226 0.30200002 74 71 66 0.000000
-0.05944406 0.04123527 0.30100003 106 99 93 0.000000
-0.05834601 0.04096128 0.29900002 130 123 117 0.000000
-0.05745016 0.04082429 0.29800001 167 156 149 0.000000
-0.05636857 0.04055030 0.29600000 204 193 186 0.000000
-0.05492023 0.04000232 0.29200003 226 212 204 0.000000
-0.04895761 0.03753642 0.27400002 255 246 237 0.000000
-0.04796067 0.03726244 0.27200001 255 246 237 0.000000
-0.04697315 0.03698845 0.27000001 255 233 226 0.000000
-0.04616664 0.03685145 0.26900002 228 203 196 0.000000
-0.04536485 0.03671446 0.26800001 124 76 68 0.000000
-0.04456776 0.03657747 0.26700002 146 75 59 0.000000
-0.04377536 0.03644047 0.26600000 145 74 58 0.000000
-0.04298767 0.03630348 0.26500002 154 72 55 0.000000
-0.04220469 0.03616648 0.26400000 155 73 56 0.000000
-0.04142641 0.03602949 0.26300001 157 75 58 0.000000
-0.04065283 0.03589249 0.26200002 158 76 59 0.000000
-0.03988395 0.03575550 0.26100001 162 77 61 0.000000
-0.03927023 0.03575550 0.26100001 164 79 63 0.000000
-0.03850842 0.03561851 0.26000002 162 77 61 0.000000
-0.03775129 0.03548151 0.25900000 164 79 63 0.000000
-0.03699888 0.03534451 0.25800002 167 80 63 0.000000
-0.03639221 0.03534451 0.25800002 166 79 62 0.000000
-0.03564685 0.03520752 0.25700000 175 81 66 0.000000
-0.03504254 0.03520752 0.25700000 180 86 71 0.000000
-0.03430423 0.03507053 0.25600001 187 85 73 0.000000
-0.03370228 0.03507053 0.25600001 188 86 74 0.000000
-0.03310032 0.03507053 0.25600001 191 84 74 0.000000
-0.03249836 0.03507053 0.25600001 192 85 75 0.000000
-0.03177181 0.03493353 0.25500003 196 83 72 0.000000
-0.03117221 0.03493353 0.25500003 198 85 74 0.000000
-0.03045271 0.03479654 0.25400001 203 85 72 0.000000
-0.02985545 0.03479654 0.25400001 202 84 71 0.000000
-0.02925820 0.03479654 0.25400001 210 91 73 0.000000
-0.02854811 0.03465955 0.25300002 212 93 75 0.000000
-0.02795320 0.03465955 0.25300002 213 90 71 0.000000
-0.02735830 0.03465955 0.25300002 214 91 72 0.000000
-0.02676340 0.03465955 0.25300002 217 87 70 0.000000
-0.02616850 0.03465955 0.25300002 217 87 70 0.000000
-0.02557359 0.03465955 0.25300002 225 90 75 0.000000
-0.02487996 0.03452255 0.25200000 227 92 77 0.000000
-0.02438379 0.03465955 0.25300002 232 92 77 0.000000
-0.02369485 0.03452255 0.25200000 232 92 77 0.000000
-0.02310230 0.03452255 0.25200000 233 90 74 0.000000
-0.01712320 0.03219365 0.23500001 239 90 73 0.000000
-0.01423809 0.03191966 0.23300001 237 91 71 0.000000
-0.01369022 0.03191966 0.23300001 235 89 69 0.000000
-0.01319875 0.03205666 0.23400001 235 89 69 0.000000
-0.01264852 0.03205666 0.23400001 236 90 70 0.000000
-0.01209829 0.03205666 0.23400001 235 89 69 0.000000
-0.01154807 0.03205666 0.23400001 241 96 73 0.000000
-0.01099784 0.03205666 0.23400001 240 95 72 0.000000
-0.01049226 0.03219365 0.23500001 236 90 70 0.000000
-0.00998198 0.03233064 0.23600002 237 91 71 0.000000
-0.00838768 0.03260463 0.23800001 243 97 79 0.000000
-0.00786094 0.03274162 0.23900001 240 96 82 0.000000
-0.00682154 0.03315261 0.24200001 230 90 86 0.000000
-0.00630417 0.03342660 0.24400002 211 71 67 0.000000
-0.00573043 0.03342660 0.24400002 203 78 69 0.000000
-0.00517783 0.03356359 0.24500000 199 74 65 0.000000
-0.00463930 0.03383758 0.24700001 199 74 65 0.000000
-0.00407494 0.03397457 0.24800001 199 74 65 0.000000
-0.00177748 0.03465955 0.25300002 199 75 61 0.000000
-0.00118258 0.03465955 0.25300002 196 75 60 0.000000
-0.00059000 0.03479654 0.25400001 199 78 63 0.000000
0.00000725 0.03479654 0.25400001 202 83 65 0.000000
0.00060451 0.03479654 0.25400001 203 84 66 0.000000
0.00120176 0.03479654 0.25400001 203 84 66 0.000000
