-0.02418985 0.03617568 0.21000001 151 71 65 0.000000
-0.02369606 0.03617568 0.21000001 153 73 67 0.000000
-0.02309178 0.03600342 0.20900001 155 75 67 0.000000
-0.02260033 0.03600342 0.20900001 153 73 65 0.000000
-0.02200311 0.03583115 0.20800000 155 72 65 0.000000
-0.02151402 0.03583115 0.20800000 156 73 66 0.000000
-0.02102493 0.03583115 0.20800000 156 73 63 0.000000
-0.02053584 0.03583115 0.20800000 158 75 65 0.000000
-0.01995037 0.03565889 0.20700002 160 74 65 0.000000
-0.01946363 0.03565889 0.20700002 162 76 67 0.000000
-0.01897690 0.03565889 0.20700002 164 78 67 0.000000
-0.01849016 0.03565889 0.20700002 165 79 68 0.000000
-0.01800342 0.03565889 0.20700002 165 79 68 0.000000
-0.01743206 0.03548662 0.20600002 169 83 72 0.000000
-0.01694767 0.03548662 0.20600002 170 85 71 0.000000
-0.01646328 0.03548662 0.20600002 167 82 68 0.000000
-0.01597890 0.03548662 0.20600002 169 84 70 0.000000
-0.01549451 0.03548662 0.20600002 169 84 70 0.000000
-0.01493726 0.03531436 0.20500001 165 78 65 0.000000
-0.01445522 0.03531436 0.20500001 166 79 66 0.000000
-0.01397318 0.03531436 0.20500001 170 80 68 0.000000
-0.01349115 0.03531436 0.20500001 169 79 67 0.000000
-0.01307257 0.03548662 0.20600002 171 78 67 0.000000
-0.01258818 0.03548662 0.20600002 175 82 71 0.000000
-0.01210380 0.03548662 0.20600002 177 83 72 0.000000
-0.01161941 0.03548662 0.20600002 176 82 71 0.000000
-0.01108097 0.03531436 0.20500001 178 81 71 0.000000
-0.01059893 0.03531436 0.20500001 179 82 72 0.000000
-0.01006755 0.03514209 0.20400001 179 82 72 0.000000
-0.00954086 0.03496983 0.20300001 179 82 72 0.000000
-0.00794908 0.03428077 0.19900002 185 86 75 0.000000
-0.00744356 0.03410850 0.19800001 188 86 76 0.000000
-0.00694274 0.03393624 0.19700001 189 87 77 0.000000
-0.00647952 0.03393624 0.19700001 192 87 76 0.000000
-0.00601629 0.03393624 0.19700001 197 92 81 0.000000
-0.00555307 0.03393624 0.19700001 200 93 83 0.000000
-0.00508985 0.03393624 0.19700001 201 94 84 0.000000
-0.00462662 0.03393624 0.19700001 200 93 83 0.000000
-0.00416340 0.03393624 0.19700001 197 90 80 0.000000
-0.00370017 0.03393624 0.19700001 197 86 77 0.000000
-0.00323695 0.03393624 0.19700001 196 85 76 0.000000
-0.00277372 0.03393624 0.19700001 200 86 78 0.000000
-0.00231050 0.03393624 0.19700001 203 89 81 0.000000
-0.00184727 0.03393624 0.19700001 202 88 80 0.000000
-0.00139107 0.03410850 0.19800001 202 88 80 0.000000
-0.00092550 0.03410850 0.19800001 206 89 82 0.000000
-0.00046224 0.03428077 0.19900002 208 91 84 0.000000
0.00000568 0.03428077 0.19900002 209 92 85 0.000000
0.00047599 0.03445303 0.20000000 208 91 84 0.000000
0.00095100 0.03462530 0.20100001 208 92 82 0.000000
0.00143780 0.03496983 0.20300001 207 91 81 0.000000
0.00240425 0.03514209 0.20400001 212 92 81 0.000000
0.00289807 0.03531436 0.20500001 219 94 83 0.000000
0.00338011 0.03531436 0.20500001 221 96 85 0.000000
0.00388098 0.03548662 0.20600002 224 97 84 0.000000
0.00436537 0.03548662 0.20600002 228 101 88 0.000000
0.00484976 0.03548662 0.20600002 233 100 87 0.000000
0.00536004 0.03565889 0.20700002 233 100 87 0.000000
0.00584678 0.03565889 0.20700002 239 101 87 0.000000
0.00633351 0.03565889 0.20700002 239 101 87 0.000000
0.00678730 0.03548662 0.20600002 247 104 92 0.000000
0.00851308 0.03462530 0.20100001 250 103 92 0.000000
0.01017280 0.03238585 0.18800001 254 107 96 0.000000
0.01061486 0.03238585 0.18800001 255 113 101 0.000000
0.01099811 0.03221359 0.18700001 255 113 101 0.000000
0.01143782 0.03221359 0.18700001 255 112 100 0.000000
0.01187753 0.03221359 0.18700001 253 109 97 0.000000
0.01231724 0.03221359 0.18700001 253 109 97 0.000000
0.01275695 0.03221359 0.18700001 254 110 98 0.000000
0.01319666 0.03221359 0.18700001 249 105 91 0.000000
0.01370929 0.03238585 0.18800001 249 105 91 0.000000
0.01415136 0.03238585 0.18800001 255 111 95 0.000000
0.01459342 0.03238585 0.18800001 253 110 94 0.000000
0.01503548 0.03238585 0.18800001 251 108 92 0.000000
0.01555987 0.03255812 0.18900001 250 106 92 0.000000
0.01600428 0.03255812 0.18900001 248 104 90 0.000000
0.01653573 0.03273038 0.19000001 246 102 88 0.000000
0.01698249 0.03273038 0.19000001 247 103 89 0.000000
0.01742926 0.03273038 0.19000001 254 107 96 0.000000
0.01797011 0.03290265 0.19100001 252 105 94 0.000000
0.01841922 0.03290265 0.19100001 250 103 92 0.000000
0.01896713 0.03307491 0.19200000 251 104 93 0.000000
0.01941859 0.03307491 0.19200000 251 104 93 0.000000
0.01997355 0.03324718 0.19300000 250 103 92 0.000000
0.02042737 0.03324718 0.19300000 249 102 91 0.000000
0.02088119 0.03324718 0.19300000 250 103 92 0.000000
0.02144555 0.03341944 0.19400001 250 106 94 0.000000
0.02190172 0.03341944 0.19400001 252 108 96 0.000000
0.02235789 0.03341944 0.19400001 252 111 101 0.000000
0.02293166 0.03359171 0.19500001 255 119 109 0.000000
0.02339018 0.03359171 0.19500001 255 128 127 0.000000
0.02384870 0.03359171 0.19500001 233 98 97 0.000000
0.02430723 0.03359171 0.19500001 214 83 81 0.000000
0.02489275 0.03376397 0.19600001 217 86 84 0.000000
0.02535363 0.03376397 0.19600001 212 86 82 0.000000
0.02581450 0.03376397 0.19600001 206 80 76 0.000000
0.02640943 0.03393624 0.19700001 204 82 74 0.000000
0.03598276 0.03875966 0.22500001 198 92 79 0.000000
0.03651182 0.03875966 0.22500001 181 91 77 0.000000
0.03720551 0.03893193 0.22600001 218 128 114 0.000000
0.03790390 0.03910419 0.22700001 230 162 150 0.000000
-0.04279776 0.04295567 0.24600001 154 135 120 0.000000
-0.04170444 0.04243183 0.24300002 153 131 121 0.000000
-0.04079451 0.04208259 0.24100001 150 128 118 0.000000
-0.03989398 0.04173336 0.23900001 173 142 133 0.000000
-0.03916743 0.04155874 0.23800001 155 124 115 0.000000
-0.03844558 0.04138413 0.23700002 160 110 103 0.000000
-0.03772843 0.04120951 0.23600002 159 109 102 0.000000
-0.03701599 0.04103490 0.23500001 135 74 66 0.000000
-0.03630825 0.04086028 0.23400001 139 78 70 0.000000
-0.03575802 0.04086028 0.23400001 141 76 67 0.000000
-0.03505734 0.04068566 0.23300001 138 73 64 0.000000
-0.03450946 0.04068566 0.23300001 140 72 62 0.000000
-0.03396159 0.04068566 0.23300001 140 72 62 0.000000
-0.03341371 0.04068566 0.23300001 140 72 62 0.000000
-0.03272478 0.04051104 0.23200001 140 72 62 0.000000
-0.03217926 0.04051104 0.23200001 140 69 62 0.000000
-0.03163373 0.04051104 0.23200001 140 69 62 0.000000
-0.03082021 0.04016181 0.23000000 145 70 64 0.000000
-0.03001609 0.03981258 0.22800002 147 72 66 0.000000
-0.02640469 0.03771718 0.21600001 148 71 64 0.000000
-0.02553711 0.03719333 0.21300001 150 70 64 0.000000
-0.02480118 0.03684410 0.21100001 148 68 62 0.000000
-0.02430504 0.03684410 0.21100001 150 67 62 0.000000
-0.02369606 0.03666948 0.21000001 154 71 66 0.000000
-0.02309178 0.03649486 0.20900001 156 73 66 0.000000
-0.02260033 0.03649486 0.20900001 156 73 66 0.000000
-0.02200311 0.03632025 0.20800000 156 73 66 0.000000
-0.02151402 0.03632025 0.20800000 156 73 66 0.000000
-0.02102493 0.03632025 0.20800000 157 74 64 0.000000
-0.02053584 0.03632025 0.20800000 157 74 64 0.000000
-0.01995037 0.03614563 0.20700002 158 72 63 0.000000
-0.01946363 0.03614563 0.20700002 158 72 63 0.000000
-0.01897690 0.03614563 0.20700002 165 79 68 0.000000
-0.01849016 0.03614563 0.20700002 165 79 68 0.000000
-0.01791644 0.03597102 0.20600002 166 81 67 0.000000
-0.01743206 0.03597102 0.20600002 169 84 70 0.000000
-0.01694767 0.03597102 0.20600002 171 86 72 0.000000
-0.01646328 0.03597102 0.20600002 171 86 72 0.000000
-0.01590133 0.03579640 0.20500001 170 85 71 0.000000
-0.01541929 0.03579640 0.20500001 169 84 70 0.000000
-0.01493726 0.03579640 0.20500001 165 78 65 0.000000
-0.01445522 0.03579640 0.20500001 165 78 65 0.000000
-0.01397318 0.03579640 0.20500001 168 78 66 0.000000
-0.01349115 0.03579640 0.20500001 169 79 67 0.000000
-0.01307257 0.03597102 0.20600002 171 78 67 0.000000
-0.01258818 0.03597102 0.20600002 174 81 70 0.000000
-0.01210380 0.03597102 0.20600002 176 82 71 0.000000
-0.01161941 0.03597102 0.20600002 173 79 68 0.000000
-0.01113502 0.03597102 0.20600002 175 78 68 0.000000
-0.01065063 0.03597102 0.20600002 177 80 70 0.000000
-0.01011690 0.03579640 0.20500001 179 82 72 0.000000
-0.00958786 0.03562178 0.20400001 179 82 72 0.000000
-0.00697799 0.03457408 0.19800001 188 86 76 0.000000
-0.00651241 0.03457408 0.19800001 188 86 76 0.000000
-0.00604683 0.03457408 0.19800001 190 88 78 0.000000
-0.00558126 0.03457408 0.19800001 192 85 75 0.000000
-0.00511568 0.03457408 0.19800001 202 95 85 0.000000
-0.00465011 0.03457408 0.19800001 203 94 84 0.000000
-0.00416340 0.03439946 0.19700001 203 94 84 0.000000
-0.00370017 0.03439946 0.19700001 208 97 88 0.000000
-0.00323695 0.03439946 0.19700001 205 94 85 0.000000
-0.00277372 0.03439946 0.19700001 205 91 83 0.000000
-0.00231050 0.03439946 0.19700001 205 91 83 0.000000
-0.00184727 0.03439946 0.19700001 203 89 81 0.000000
-0.00138405 0.03439946 0.19700001 205 91 83 0.000000
-0.00092550 0.03457408 0.19800001 208 91 84 0.000000
-0.00045992 0.03457408 0.19800001 208 91 84 0.000000
0.00000568 0.03474870 0.19900002 207 90 83 0.000000
0.00095100 0.03509793 0.20100001 208 90 81 0.000000
0.00143071 0.03527255 0.20200001 208 90 81 0.000000
0.00192456 0.03562178 0.20400001 210 90 79 0.000000
0.00241603 0.03579640 0.20500001 215 95 84 0.000000
0.00289807 0.03579640 0.20500001 218 96 84 0.000000
0.00339659 0.03597102 0.20600002 220 98 86 0.000000
0.00388098 0.03597102 0.20600002 224 97 84 0.000000
0.00438656 0.03614563 0.20700002 223 96 83 0.000000
0.00487330 0.03614563 0.20700002 227 98 84 0.000000
0.00536004 0.03614563 0.20700002 229 100 86 0.000000
0.00584678 0.03614563 0.20700002 234 101 88 0.000000
0.00633351 0.03614563 0.20700002 234 101 88 0.000000
0.00682025 0.03614563 0.20700002 242 102 89 0.000000
0.01055840 0.03265330 0.18700001 255 109 96 0.000000
0.01099811 0.03265330 0.18700001 254 107 94 0.000000
0.01143782 0.03265330 0.18700001 255 109 96 0.000000
0.01187753 0.03265330 0.18700001 251 104 91 0.000000
0.01231724 0.03265330 0.18700001 251 104 91 0.000000
0.01275695 0.03265330 0.18700001 254 107 94 0.000000
0.01319666 0.03265330 0.18700001 251 104 89 0.000000
0.01363637 0.03265330 0.18700001 251 104 89 0.000000
0.01415136 0.03282791 0.18800001 254 107 92 0.000000
0.01459342 0.03282791 0.18800001 255 108 93 0.000000
0.01503548 0.03282791 0.18800001 254 107 92 0.000000
0.01555987 0.03300253 0.18900001 252 105 90 0.000000
0.01600428 0.03300253 0.18900001 250 103 88 0.000000
0.01653573 0.03317715 0.19000001 249 102 89 0.000000
0.01698249 0.03317715 0.19000001 251 104 91 0.000000
0.01752099 0.03335176 0.19100001 255 108 95 0.000000
0.01797011 0.03335176 0.19100001 252 105 92 0.000000
0.01841922 0.03335176 0.19100001 252 105 92 0.000000
0.01896713 0.03352638 0.19200000 252 105 92 0.000000
0.01941859 0.03352638 0.19200000 251 104 91 0.000000
0.01987006 0.03352638 0.19200000 249 102 89 0.000000
0.02042737 0.03370100 0.19300000 250 103 90 0.000000
0.02088119 0.03370100 0.19300000 250 103 90 0.000000
0.02133501 0.03370100 0.19300000 251 104 91 0.000000
0.02190172 0.03387561 0.19400001 255 108 95 0.000000
0.02235789 0.03387561 0.19400001 253 113 107 0.000000
0.02293166 0.03405023 0.19500001 255 125 119 0.000000
0.02339018 0.03405023 0.19500001 252 119 119 0.000000
0.02384870 0.03405023 0.19500001 218 85 85 0.000000
0.02430723 0.03405023 0.19500001 216 87 86 0.000000
0.02489275 0.03422485 0.19600001 216 87 86 0.000000
0.02535363 0.03422485 0.19600001 209 86 81 0.000000
0.02581450 0.03422485 0.19600001 205 82 77 0.000000
0.02640943 0.03439946 0.19700001 207 87 78 0.000000
0.03582283 0.03911411 0.22400001 202 94 81 0.000000
0.03651182 0.03928873 0.22500001 182 92 78 0.000000
0.03720551 0.03946334 0.22600001 217 127 113 0.000000
0.03773693 0.03946334 0.22600001 229 159 145 0.000000
-0.04262378 0.04335715 0.24500000 143 124 109 0.000000
-0.04170444 0.04300321 0.24300002 137 118 105 0.000000
-0.04079451 0.04264928 0.24100001 144 125 112 0.000000
-0.03989398 0.04229534 0.23900001 157 131 120 0.000000
-0.03916743 0.04211837 0.23800001 148 122 111 0.000000
-0.03844558 0.04194141 0.23700002 149 106 99 0.000000
-0.03772843 0.04176444 0.23600002 150 107 100 0.000000
-0.03701599 0.04158747 0.23500001 141 82 75 0.000000
-0.03630825 0.04141050 0.23400001 134 75 68 0.000000
-0.03575802 0.04141050 0.23400001 141 75 69 0.000000
-0.03505734 0.04123353 0.23300001 138 72 66 0.000000
-0.03450946 0.04123353 0.23300001 137 72 63 0.000000
-0.03396159 0.04123353 0.23300001 140 75 66 0.000000
-0.03327030 0.04105657 0.23200001 140 72 64 0.000000
-0.03272478 0.04105657 0.23200001 139 71 63 0.000000
-0.03217926 0.04105657 0.23200001 140 69 62 0.000000
-0.03149738 0.04087960 0.23100001 142 71 64 0.000000
-0.03095421 0.04087960 0.23100001 143 71 64 0.000000
-0.03014774 0.04052566 0.22900002 145 73 66 0.000000
-0.02664918 0.03857901 0.21800001 151 71 67 0.000000
-0.02565701 0.03787114 0.21400002 153 70 65 0.000000
-0.02491872 0.03751721 0.21200001 155 72 67 0.000000
-0.02430504 0.03734024 0.21100001 153 70 65 0.000000
-0.02369606 0.03716327 0.21000001 150 67 62 0.000000
-0.02309178 0.03698630 0.20900001 153 70 63 0.000000
-0.02260033 0.03698630 0.20900001 156 73 66 0.000000
-0.02200311 0.03680933 0.20800000 157 73 66 0.000000
-0.02151402 0.03680933 0.20800000 157 73 66 0.000000
-0.02102493 0.03680933 0.20800000 158 74 67 0.000000
-0.02053584 0.03680933 0.20800000 161 77 70 0.000000
-0.01995037 0.03663237 0.20700002 161 78 68 0.000000
-0.01946363 0.03663237 0.20700002 160 77 67 0.000000
-0.01897690 0.03663237 0.20700002 162 76 67 0.000000
-0.01840083 0.03645540 0.20600002 163 77 68 0.000000
-0.01791644 0.03645540 0.20600002 164 78 67 0.000000
-0.01743206 0.03645540 0.20600002 165 79 68 0.000000
-0.01694767 0.03645540 0.20600002 166 80 69 0.000000
-0.01646328 0.03645540 0.20600002 167 81 70 0.000000
-0.01590133 0.03627843 0.20500001 169 84 70 0.000000
-0.01541929 0.03627843 0.20500001 169 84 70 0.000000
-0.01493726 0.03627843 0.20500001 168 81 68 0.000000
-0.01445522 0.03627843 0.20500001 167 80 67 0.000000
-0.01397318 0.03627843 0.20500001 170 80 68 0.000000
-0.01349115 0.03627843 0.20500001 173 83 71 0.000000
-0.01307257 0.03645540 0.20600002 172 82 70 0.000000
-0.01258818 0.03645540 0.20600002 173 83 71 0.000000
-0.01210380 0.03645540 0.20600002 175 85 73 0.000000
-0.01167581 0.03663237 0.20700002 173 83 71 0.000000
-0.01118908 0.03663237 0.20700002 176 83 72 0.000000
-0.01070234 0.03663237 0.20700002 177 84 73 0.000000
-0.01021560 0.03663237 0.20700002 177 83 72 0.000000
-0.00968186 0.03645540 0.20600002 177 83 72 0.000000
-0.00651241 0.03503966 0.19800001 188 86 76 0.000000
-0.00604683 0.03503966 0.19800001 185 83 73 0.000000
-0.00558126 0.03503966 0.19800001 188 86 76 0.000000
-0.00511568 0.03503966 0.19800001 195 88 78 0.000000
-0.00465011 0.03503966 0.19800001 198 91 81 0.000000
-0.00416340 0.03486269 0.19700001 204 97 87 0.000000
-0.00370017 0.03486269 0.19700001 207 96 87 0.000000
-0.00323695 0.03486269 0.19700001 202 91 82 0.000000
-0.00277372 0.03486269 0.19700001 205 91 83 0.000000
-0.00231050 0.03486269 0.19700001 206 92 84 0.000000
-0.00184727 0.03486269 0.19700001 204 90 82 0.000000
-0.00138405 0.03486269 0.19700001 207 93 85 0.000000
-0.00092082 0.03486269 0.19700001 209 92 85 0.000000
-0.00045760 0.03486269 0.19700001 207 90 83 0.000000
0.00000565 0.03503966 0.19800001 207 90 83 0.000000
0.00047361 0.03521663 0.19900002 207 90 83 0.000000
0.00191513 0.03592449 0.20300001 210 90 79 0.000000
0.00241603 0.03627843 0.20500001 214 94 83 0.000000
0.00289807 0.03627843 0.20500001 216 94 84 0.000000
0.00339659 0.03645540 0.20600002 217 95 85 0.000000
0.00389982 0.03663237 0.20700002 220 96 82 0.000000
0.00536004 0.03663237 0.20700002 227 100 87 0.000000
0.00584678 0.03663237 0.20700002 232 101 87 0.000000
0.00636411 0.03680933 0.20800000 233 102 88 0.000000
0.01099811 0.03309301 0.18700001 253 103 91 0.000000
0.01143782 0.03309301 0.18700001 254 104 92 0.000000
0.01187753 0.03309301 0.18700001 251 101 89 0.000000
0.01231724 0.03309301 0.18700001 254 104 92 0.000000
0.01275695 0.03309301 0.18700001 253 103 91 0.000000
0.01319666 0.03309301 0.18700001 251 101 87 0.000000
0.01363637 0.03309301 0.18700001 252 102 88 0.000000
0.01407608 0.03309301 0.18700001 251 101 87 0.000000
0.01459342 0.03326998 0.18800001 255 107 93 0.000000
0.01503548 0.03326998 0.18800001 254 104 90 0.000000
0.01555987 0.03344695 0.18900001 251 104 89 0.000000
0.01600428 0.03344695 0.18900001 250 103 88 0.000000
0.01653573 0.03362391 0.19000001 250 103 88 0.000000
0.01698249 0.03362391 0.19000001 250 103 88 0.000000
0.01752099 0.03380088 0.19100001 252 105 92 0.000000
0.01797011 0.03380088 0.19100001 251 104 91 0.000000
0.01841922 0.03380088 0.19100001 250 103 90 0.000000
0.01896713 0.03397785 0.19200000 254 107 94 0.000000
0.01941859 0.03397785 0.19200000 251 104 91 0.000000
0.01997355 0.03415481 0.19300000 248 101 88 0.000000
0.02042737 0.03415481 0.19300000 250 103 90 0.000000
0.02088119 0.03415481 0.19300000 250 103 90 0.000000
0.02133501 0.03415481 0.19300000 249 105 93 0.000000
0.02190172 0.03433178 0.19400001 246 102 90 0.000000
0.02235789 0.03433178 0.19400001 255 125 118 0.000000
0.02293166 0.03450875 0.19500001 255 125 118 0.000000
0.02339018 0.03450875 0.19500001 216 87 86 0.000000
0.02384870 0.03450875 0.19500001 216 87 86 0.000000
0.02430723 0.03450875 0.19500001 215 89 87 0.000000
0.02489275 0.03468572 0.19600001 214 88 86 0.000000
0.02535363 0.03468572 0.19600001 211 89 81 0.000000
0.02581450 0.03468572 0.19600001 209 87 79 0.000000
0.02640943 0.03486269 0.19700001 207 87 78 0.000000
0.03566291 0.03946385 0.22300000 202 94 79 0.000000
0.03634955 0.03964082 0.22400001 184 91 78 0.000000
0.03704089 0.03981779 0.22500001 216 123 110 0.000000
0.03773693 0.03999476 0.22600001 227 155 144 0.000000
-0.03989398 0.04285732 0.23900001 131 110 97 0.000000
-0.03916743 0.04267800 0.23800001 136 115 102 0.000000
-0.03844558 0.04249869 0.23700002 143 105 96 0.000000
-0.03772843 0.04231936 0.23600002 147 109 100 0.000000
-0.03701599 0.04214005 0.23500001 152 94 90 0.000000
-0.03630825 0.04196073 0.23400001 135 77 73 0.000000
-0.03560521 0.04178141 0.23300001 141 77 72 0.000000
-0.03505734 0.04178141 0.23300001 137 73 68 0.000000
-0.03450946 0.04178141 0.23300001 137 73 66 0.000000
-0.03381583 0.04160209 0.23200001 144 83 75 0.000000
-0.03327030 0.04160209 0.23200001 141 80 72 0.000000
-0.03272478 0.04160209 0.23200001 138 77 69 0.000000
-0.03217926 0.04160209 0.23200001 140 75 66 0.000000
-0.03149738 0.04142277 0.23100001 137 72 63 0.000000
-0.03095421 0.04142277 0.23100001 143 71 64 0.000000
-0.03014774 0.04106413 0.22900002 146 74 67 0.000000
-0.02677142 0.03927094 0.21900001 152 72 68 0.000000
-0.02577690 0.03855366 0.21500000 154 71 66 0.000000
-0.02503626 0.03819502 0.21300001 153 70 65 0.000000
-0.02430504 0.03783638 0.21100001 153 70 65 0.000000
-0.02369606 0.03765706 0.21000001 150 67 62 0.000000
-0.02309178 0.03747774 0.20900001 156 72 65 0.000000
-0.02260033 0.03747774 0.20900001 158 74 67 0.000000
-0.02200311 0.03729842 0.20800000 156 72 65 0.000000
-0.02151402 0.03729842 0.20800000 158 74 67 0.000000
-0.02102493 0.03729842 0.20800000 158 75 65 0.000000
-0.02053584 0.03729842 0.20800000 161 78 68 0.000000
-0.01995037 0.03711911 0.20700002 162 79 69 0.000000
-0.01946363 0.03711911 0.20700002 161 78 68 0.000000
-0.01888522 0.03693978 0.20600002 163 77 66 0.000000
-0.01840083 0.03693978 0.20600002 163 77 66 0.000000
-0.01791644 0.03693978 0.20600002 163 77 66 0.000000
-0.01743206 0.03693978 0.20600002 165 79 68 0.000000
-0.01694767 0.03693978 0.20600002 169 83 72 0.000000
-0.01638336 0.03676047 0.20500001 167 81 70 0.000000
-0.01590133 0.03676047 0.20500001 167 81 70 0.000000
-0.01541929 0.03676047 0.20500001 169 83 72 0.000000
-0.01493726 0.03676047 0.20500001 172 84 74 0.000000
-0.01445522 0.03676047 0.20500001 171 83 73 0.000000
-0.01397318 0.03676047 0.20500001 171 83 73 0.000000
-0.01349115 0.03676047 0.20500001 174 86 76 0.000000
-0.01300911 0.03676047 0.20500001 172 81 72 0.000000
-0.01258818 0.03693978 0.20600002 173 82 73 0.000000
-0.01210380 0.03693978 0.20600002 179 88 79 0.000000
-0.01167581 0.03711911 0.20700002 173 82 73 0.000000
-0.01118908 0.03711911 0.20700002 176 82 74 0.000000
-0.01070234 0.03711911 0.20700002 176 82 74 0.000000
-0.01021560 0.03711911 0.20700002 177 82 74 0.000000
-0.00968186 0.03693978 0.20600002 176 81 73 0.000000
-0.00607737 0.03568455 0.19900002 185 86 77 0.000000
-0.00558126 0.03550523 0.19800001 188 86 76 0.000000
-0.00511568 0.03550523 0.19800001 188 86 76 0.000000
-0.00465011 0.03550523 0.19800001 188 86 76 0.000000
-0.00416340 0.03532591 0.19700001 188 86 76 0.000000
-0.00370017 0.03532591 0.19700001 192 85 75 0.000000
-0.00322051 0.03514659 0.19600001 200 93 83 0.000000
-0.00275964 0.03514659 0.19600001 208 97 88 0.000000
-0.00229877 0.03514659 0.19600001 209 98 89 0.000000
-0.00183790 0.03514659 0.19600001 203 92 83 0.000000
-0.00137702 0.03514659 0.19600001 205 94 85 0.000000
-0.00091615 0.03514659 0.19600001 208 91 84 0.000000
-0.00045760 0.03532591 0.19700001 208 91 84 0.000000
0.00000563 0.03532591 0.19700001 211 94 87 0.000000
0.00094154 0.03568455 0.19900002 210 91 85 0.000000
0.00141655 0.03586387 0.20000000 209 90 84 0.000000
0.00190570 0.03622251 0.20200001 215 95 86 0.000000
0.00240425 0.03658115 0.20400001 217 97 88 0.000000
0.01011869 0.03353272 0.18700001 249 102 89 0.000000
0.01055840 0.03353272 0.18700001 250 103 90 0.000000
0.01099811 0.03353272 0.18700001 250 103 90 0.000000
0.01143782 0.03353272 0.18700001 250 100 88 0.000000
0.01187753 0.03353272 0.18700001 249 99 87 0.000000
0.01231724 0.03353272 0.18700001 249 99 87 0.000000
0.01275695 0.03353272 0.18700001 249 99 87 0.000000
0.01312609 0.03335340 0.18600000 251 101 89 0.000000
0.01363637 0.03353272 0.18700001 252 102 90 0.000000
0.01407608 0.03353272 0.18700001 249 99 87 0.000000
0.01451579 0.03353272 0.18700001 255 106 92 0.000000
0.01503548 0.03371204 0.18800001 250 100 86 0.000000
0.01547754 0.03371204 0.18800001 250 100 86 0.000000
0.01600428 0.03389136 0.18900001 252 102 88 0.000000
0.01644870 0.03389136 0.18900001 250 100 86 0.000000
0.01698249 0.03407068 0.19000001 252 102 88 0.000000
0.01742926 0.03407068 0.19000001 252 102 88 0.000000
0.01797011 0.03424999 0.19100001 250 100 86 0.000000
0.01841922 0.03424999 0.19100001 248 101 88 0.000000
0.01896713 0.03442931 0.19200000 252 105 92 0.000000
0.01941859 0.03442931 0.19200000 250 103 90 0.000000
0.01987006 0.03442931 0.19200000 249 102 89 0.000000
0.02042737 0.03460863 0.19300000 251 104 91 0.000000
0.02088119 0.03460863 0.19300000 252 105 92 0.000000
0.02133501 0.03460863 0.19300000 244 104 91 0.000000
0.02190172 0.03478795 0.19400001 255 121 108 0.000000
0.02235789 0.03478795 0.19400001 255 136 129 0.000000
0.02293166 0.03496727 0.19500001 228 98 91 0.000000
0.02351013 0.03514659 0.19600001 220 94 92 0.000000
0.02397101 0.03514659 0.19600001 217 91 89 0.000000
0.02455653 0.03532591 0.19700001 214 88 84 0.000000
0.02501976 0.03532591 0.19700001 214 88 84 0.000000
0.02561234 0.03550523 0.19800001 211 89 81 0.000000
0.02607791 0.03550523 0.19800001 209 87 79 0.000000
0.02681161 0.03586387 0.20000000 207 87 76 0.000000
0.03170761 0.03837434 0.21400002 207 89 78 0.000000
0.03566291 0.03998821 0.22300000 204 94 80 0.000000
0.03687626 0.04016753 0.22400001 214 117 105 0.000000
0.03756995 0.04034685 0.22500001 228 153 143 0.000000
-0.03149738 0.04196594 0.23100001 138 73 64 0.000000
-0.03095421 0.04196594 0.23100001 144 73 66 0.000000
-0.03014774 0.04160260 0.22900002 146 75 68 0.000000
-0.02947997 0.04142093 0.22800002 148 73 67 0.000000
-0.02689367 0.03996757 0.22000001 152 75 68 0.000000
-0.02589679 0.03924088 0.21600001 157 74 69 0.000000
-0.02515381 0.03887754 0.21400002 152 69 64 0.000000
-0.02442023 0.03851420 0.21200001 150 67 60 0.000000
-0.02369606 0.03815086 0.21000001 150 67 60 0.000000
-0.02309178 0.03796919 0.20900001 150 67 60 0.000000
-0.02260033 0.03796919 0.20900001 152 69 62 0.000000
-0.02200311 0.03778752 0.20800000 156 72 65 0.000000
-0.02151402 0.03778752 0.20800000 161 77 70 0.000000
-0.02102493 0.03778752 0.20800000 160 77 67 0.000000
-0.02043711 0.03760585 0.20700002 163 80 70 0.000000
-0.01995037 0.03760585 0.20700002 162 79 69 0.000000
-0.01946363 0.03760585 0.20700002 160 77 67 0.000000
-0.01888522 0.03742418 0.20600002 162 76 67 0.000000
-0.01840083 0.03742418 0.20600002 164 78 69 0.000000
-0.01791644 0.03742418 0.20600002 164 78 67 0.000000
-0.01743206 0.03742418 0.20600002 167 81 70 0.000000
-0.01686540 0.03724251 0.20500001 170 82 72 0.000000
-0.01638336 0.03724251 0.20500001 167 79 69 0.000000
-0.01590133 0.03724251 0.20500001 168 80 70 0.000000
-0.01541929 0.03724251 0.20500001 170 82 72 0.000000
-0.01493726 0.03724251 0.20500001 172 84 74 0.000000
-0.01445522 0.03724251 0.20500001 172 84 74 0.000000
-0.01397318 0.03724251 0.20500001 172 81 72 0.000000
-0.01349115 0.03724251 0.20500001 172 81 72 0.000000
-0.01300911 0.03724251 0.20500001 170 79 70 0.000000
-0.01252708 0.03724251 0.20500001 172 81 72 0.000000
-0.01210380 0.03742418 0.20600002 176 85 76 0.000000
-0.01161941 0.03742418 0.20600002 174 83 74 0.000000
-0.01118908 0.03760585 0.20700002 174 83 74 0.000000
-0.01070234 0.03760585 0.20700002 174 83 74 0.000000
-0.01021560 0.03760585 0.20700002 176 82 74 0.000000
-0.00968186 0.03742418 0.20600002 176 82 74 0.000000
-0.00708371 0.03651582 0.20100001 181 83 76 0.000000
-0.00657819 0.03633415 0.20000000 183 84 75 0.000000
-0.00560945 0.03615248 0.19900002 183 84 75 0.000000
-0.00511568 0.03597081 0.19800001 183 84 75 0.000000
-0.00462662 0.03578914 0.19700001 187 85 77 0.000000
-0.00416340 0.03578914 0.19700001 188 86 78 0.000000
-0.00368139 0.03560747 0.19600001 193 88 79 0.000000
-0.00322051 0.03560747 0.19600001 194 89 80 0.000000
-0.00275964 0.03560747 0.19600001 200 91 81 0.000000
-0.00229877 0.03560747 0.19600001 207 98 88 0.000000
-0.00182852 0.03542580 0.19500001 207 96 87 0.000000
-0.00137000 0.03542580 0.19500001 207 96 87 0.000000
-0.00091147 0.03542580 0.19500001 205 91 83 0.000000
-0.00045528 0.03560747 0.19600001 205 91 83 0.000000
0.00000560 0.03560747 0.19600001 209 92 85 0.000000
0.00189626 0.03651582 0.20100001 213 95 86 0.000000
0.00239246 0.03687916 0.20300001 213 95 86 0.000000
0.00440775 0.03778752 0.20800000 220 98 86 0.000000
0.00487330 0.03760585 0.20700002 219 97 85 0.000000
0.00536004 0.03760585 0.20700002 218 96 84 0.000000
0.00973073 0.03415410 0.18800001 244 101 89 0.000000
0.01017280 0.03415410 0.18800001 244 101 89 0.000000
0.01055840 0.03397243 0.18700001 247 103 89 0.000000
0.01099811 0.03397243 0.18700001 248 104 90 0.000000
0.01187753 0.03397243 0.18700001 248 101 88 0.000000
0.01275695 0.03397243 0.18700001 248 101 88 0.000000
0.01312609 0.03379076 0.18600000 248 101 88 0.000000
0.01356345 0.03379076 0.18600000 249 102 89 0.000000
0.01407608 0.03397243 0.18700001 247 100 87 0.000000
0.01459342 0.03415410 0.18800001 247 100 87 0.000000
0.01547754 0.03415410 0.18800001 250 100 88 0.000000
0.01600428 0.03433577 0.18900001 250 100 88 0.000000
0.01644870 0.03433577 0.18900001 251 101 89 0.000000
0.01698249 0.03451744 0.19000001 253 103 91 0.000000
0.01742926 0.03451744 0.19000001 251 104 91 0.000000
0.01797011 0.03469911 0.19100001 250 103 90 0.000000
0.01841922 0.03469911 0.19100001 248 101 88 0.000000
0.01886834 0.03469911 0.19100001 248 101 88 0.000000
0.01941859 0.03488078 0.19200000 249 102 91 0.000000
0.01987006 0.03488078 0.19200000 250 103 92 0.000000
0.02042737 0.03506245 0.19300000 252 105 94 0.000000
0.02088119 0.03506245 0.19300000 255 108 97 0.000000
0.02133501 0.03506245 0.19300000 255 124 111 0.000000
0.02190172 0.03524413 0.19400001 255 135 122 0.000000
0.02304926 0.03560747 0.19600001 218 93 86 0.000000
0.02363008 0.03578914 0.19700001 220 95 88 0.000000
0.02421561 0.03597081 0.19800001 217 92 85 0.000000
0.02468119 0.03597081 0.19800001 215 90 83 0.000000
0.02527376 0.03615248 0.19900002 212 87 80 0.000000
0.02587105 0.03633415 0.20000000 210 88 80 0.000000
0.02647303 0.03651582 0.20100001 209 87 79 0.000000
0.02707972 0.03669749 0.20200001 205 85 74 0.000000
0.03105859 0.03869587 0.21300001 208 88 77 0.000000
0.03155944 0.03869587 0.21300001 207 87 76 0.000000
0.03236132 0.03905921 0.21500000 209 89 78 0.000000
0.03466583 0.03996757 0.22000001 205 92 79 0.000000
0.03550299 0.04033091 0.22200002 206 93 80 0.000000
0.03671163 0.04051258 0.22300000 202 103 92 0.000000
0.03740297 0.04069425 0.22400001 228 148 140 0.000000
-0.02527135 0.03956476 0.21500000 160 77 72 0.000000
-0.02453542 0.03919671 0.21300001 159 76 69 0.000000
-0.02369606 0.03864465 0.21000001 154 71 64 0.000000
-0.02309178 0.03846063 0.20900001 154 71 64 0.000000
-0.02260033 0.03846063 0.20900001 161 78 71 0.000000
-0.02200311 0.03827661 0.20800000 161 78 71 0.000000
-0.02151402 0.03827661 0.20800000 161 78 71 0.000000
-0.02102493 0.03827661 0.20800000 158 75 65 0.000000
-0.02043711 0.03809258 0.20700002 161 78 68 0.000000
-0.01995037 0.03809258 0.20700002 162 79 69 0.000000
-0.01946363 0.03809258 0.20700002 161 78 68 0.000000
-0.01888522 0.03790856 0.20600002 164 78 69 0.000000
-0.01840083 0.03790856 0.20600002 165 79 70 0.000000
-0.01791644 0.03790856 0.20600002 166 80 69 0.000000
-0.01734743 0.03772454 0.20500001 169 83 72 0.000000
-0.01686540 0.03772454 0.20500001 171 83 73 0.000000
-0.01638336 0.03772454 0.20500001 172 84 74 0.000000
-0.01590133 0.03772454 0.20500001 170 82 72 0.000000
-0.01541929 0.03772454 0.20500001 170 82 72 0.000000
-0.01493726 0.03772454 0.20500001 173 82 73 0.000000
-0.01445522 0.03772454 0.20500001 173 82 73 0.000000
-0.01397318 0.03772454 0.20500001 173 82 73 0.000000
-0.01349115 0.03772454 0.20500001 172 81 72 0.000000
-0.01300911 0.03772454 0.20500001 170 79 70 0.000000
-0.01252708 0.03772454 0.20500001 172 81 72 0.000000
-0.01210380 0.03790856 0.20600002 174 83 74 0.000000
-0.01161941 0.03790856 0.20600002 175 84 75 0.000000
-0.01118908 0.03809258 0.20700002 175 84 75 0.000000
-0.01065063 0.03790856 0.20600002 175 84 75 0.000000
-0.01021560 0.03809258 0.20700002 175 84 75 0.000000
-0.00968186 0.03790856 0.20600002 175 84 75 0.000000
-0.00919747 0.03790856 0.20600002 179 85 77 0.000000
-0.00711896 0.03717247 0.20200001 182 84 77 0.000000
-0.00661108 0.03698845 0.20100001 185 87 80 0.000000
-0.00560945 0.03662041 0.19900002 181 84 74 0.000000
-0.00511568 0.03643638 0.19800001 182 85 75 0.000000
-0.00462662 0.03625236 0.19700001 186 87 78 0.000000
-0.00414226 0.03606834 0.19600001 186 87 78 0.000000
-0.00368139 0.03606834 0.19600001 191 89 79 0.000000
-0.00320408 0.03588432 0.19500001 190 88 78 0.000000
-0.00274556 0.03588432 0.19500001 197 88 78 0.000000
-0.00228704 0.03588432 0.19500001 203 94 84 0.000000
-0.00182852 0.03588432 0.19500001 203 94 84 0.000000
-0.00137000 0.03588432 0.19500001 208 99 89 0.000000
-0.00091147 0.03588432 0.19500001 211 100 91 0.000000
-0.00045295 0.03588432 0.19500001 210 99 90 0.000000
0.00000560 0.03606834 0.19600001 207 93 85 0.000000
0.00046647 0.03606834 0.19600001 209 95 87 0.000000
0.00093208 0.03625236 0.19700001 214 97 90 0.000000
0.00140238 0.03643638 0.19800001 214 97 90 0.000000
0.00187739 0.03662041 0.19900002 214 96 87 0.000000
0.00236889 0.03698845 0.20100001 213 95 86 0.000000
0.00386214 0.03772454 0.20500001 217 95 85 0.000000
0.00434418 0.03772454 0.20500001 219 97 87 0.000000
0.00480267 0.03754052 0.20400001 219 94 85 0.000000
0.00525646 0.03735649 0.20300001 219 94 85 0.000000
0.00973073 0.03459616 0.18800001 238 99 88 0.000000
0.01017280 0.03459616 0.18800001 239 100 89 0.000000
0.01061486 0.03459616 0.18800001 242 102 89 0.000000
0.01099811 0.03441214 0.18700001 242 102 89 0.000000
0.01143782 0.03441214 0.18700001 240 100 87 0.000000
0.01275695 0.03441214 0.18700001 245 102 90 0.000000
0.01600428 0.03478019 0.18900001 245 101 87 0.000000
0.01644870 0.03478019 0.18900001 248 101 88 0.000000
0.01698249 0.03496421 0.19000001 249 102 89 0.000000
0.01742926 0.03496421 0.19000001 247 103 89 0.000000
0.01797011 0.03514823 0.19100001 247 103 89 0.000000
0.01841922 0.03514823 0.19100001 248 104 92 0.000000
0.01886834 0.03514823 0.19100001 248 104 92 0.000000
0.01941859 0.03533225 0.19200000 248 104 92 0.000000
0.01987006 0.03533225 0.19200000 249 105 93 0.000000
0.02032153 0.03533225 0.19200000 251 108 96 0.000000
0.02088119 0.03551627 0.19300000 255 116 104 0.000000
0.02133501 0.03551627 0.19300000 255 135 122 0.000000
0.02190172 0.03570030 0.19400001 249 116 103 0.000000
0.02363008 0.03625236 0.19700001 220 95 88 0.000000
0.02433791 0.03662041 0.19900002 218 93 86 0.000000
0.02493049 0.03680443 0.20000000 213 91 83 0.000000
0.02552777 0.03698845 0.20100001 210 88 80 0.000000
0.02612976 0.03717247 0.20200001 208 86 78 0.000000
0.02673645 0.03735649 0.20300001 206 84 76 0.000000
0.03027082 0.03882867 0.21100001 205 85 74 0.000000
0.03105859 0.03919671 0.21300001 207 87 76 0.000000
0.03155944 0.03919671 0.21300001 203 85 74 0.000000
0.03221081 0.03938074 0.21400002 208 90 79 0.000000
0.03301974 0.03974878 0.21600001 208 90 79 0.000000
0.03368286 0.03993280 0.21700001 209 91 80 0.000000
0.03450826 0.04030085 0.21900001 207 94 81 0.000000
0.03518314 0.04048487 0.22000001 206 93 80 0.000000
-0.01936960 0.03839295 0.20600002 162 79 69 0.000000
-0.01888522 0.03839295 0.20600002 165 79 68 0.000000
-0.01840083 0.03839295 0.20600002 164 78 67 0.000000
-0.01782947 0.03820658 0.20500001 166 78 68 0.000000
-0.01734743 0.03820658 0.20500001 170 82 72 0.000000
-0.01686540 0.03820658 0.20500001 170 79 70 0.000000
-0.01638336 0.03820658 0.20500001 168 77 68 0.000000
-0.01582376 0.03802020 0.20400001 168 77 68 0.000000
-0.01534407 0.03802020 0.20400001 169 78 69 0.000000
-0.01486439 0.03802020 0.20400001 170 79 70 0.000000
-0.01438471 0.03802020 0.20400001 172 81 72 0.000000
-0.01390502 0.03802020 0.20400001 174 80 72 0.000000
-0.01349115 0.03820658 0.20500001 174 80 72 0.000000
-0.01300911 0.03820658 0.20500001 174 80 72 0.000000
-0.01252708 0.03820658 0.20500001 175 81 73 0.000000
-0.01210380 0.03839295 0.20600002 177 83 75 0.000000
-0.01161941 0.03839295 0.20600002 177 83 75 0.000000
-0.01113502 0.03839295 0.20600002 174 83 74 0.000000
-0.01065063 0.03839295 0.20600002 175 84 75 0.000000
-0.01016625 0.03839295 0.20600002 175 84 75 0.000000
-0.00968186 0.03839295 0.20600002 176 85 76 0.000000
-0.00919747 0.03839295 0.20600002 177 86 77 0.000000
-0.00715420 0.03783383 0.20300001 180 85 77 0.000000
-0.00664397 0.03764746 0.20200001 182 87 79 0.000000
-0.00460313 0.03652921 0.19600001 185 88 78 0.000000
-0.00412113 0.03634284 0.19500001 185 88 78 0.000000
-0.00366261 0.03634284 0.19500001 190 88 80 0.000000
-0.00320408 0.03634284 0.19500001 189 87 79 0.000000
-0.00273148 0.03615647 0.19400001 194 87 79 0.000000
-0.00227531 0.03615647 0.19400001 197 90 82 0.000000
-0.00181914 0.03615647 0.19400001 200 91 81 0.000000
-0.00136297 0.03615647 0.19400001 204 95 85 0.000000
-0.00091147 0.03634284 0.19500001 209 99 87 0.000000
-0.00045295 0.03634284 0.19500001 210 100 88 0.000000
0.00000557 0.03634284 0.19500001 211 98 87 0.000000
0.00928867 0.03503823 0.18800001 232 101 89 0.000000
0.00973073 0.03503823 0.18800001 234 101 88 0.000000
0.01017280 0.03503823 0.18800001 238 105 92 0.000000
0.01061486 0.03503823 0.18800001 243 105 91 0.000000
0.01105692 0.03503823 0.18800001 243 105 91 0.000000
0.01143782 0.03485185 0.18700001 241 103 89 0.000000
0.01187753 0.03485185 0.18700001 238 100 86 0.000000
0.01275695 0.03485185 0.18700001 237 99 85 0.000000
0.01503548 0.03503823 0.18800001 244 104 91 0.000000
0.01547754 0.03503823 0.18800001 244 101 89 0.000000
0.01600428 0.03522460 0.18900001 244 101 89 0.000000
0.01644870 0.03522460 0.18900001 245 102 90 0.000000
0.01698249 0.03541097 0.19000001 246 103 91 0.000000
0.01742926 0.03541097 0.19000001 246 103 91 0.000000
0.01797011 0.03559735 0.19100001 246 103 91 0.000000
0.01841922 0.03559735 0.19100001 248 105 93 0.000000
0.01886834 0.03559735 0.19100001 249 106 94 0.000000
0.01941859 0.03578372 0.19200000 249 106 94 0.000000
0.01987006 0.03578372 0.19200000 251 108 96 0.000000
0.02042737 0.03597009 0.19300000 251 111 98 0.000000
0.02088119 0.03597009 0.19300000 255 126 113 0.000000
0.02133501 0.03597009 0.19300000 246 110 98 0.000000
0.02316686 0.03671559 0.19700001 225 93 84 0.000000
0.02386998 0.03708833 0.19900002 219 94 83 0.000000
0.02458251 0.03746108 0.20100001 217 92 81 0.000000
0.02517979 0.03764746 0.20200001 215 93 83 0.000000
0.02578178 0.03783383 0.20300001 211 89 79 0.000000
0.02963356 0.03913844 0.21000001 208 88 77 0.000000
0.03027082 0.03932482 0.21100001 207 87 76 0.000000
0.03105859 0.03969757 0.21300001 207 87 76 0.000000
0.03170761 0.03988394 0.21400002 203 85 74 0.000000
0.03221081 0.03988394 0.21400002 208 90 79 0.000000
0.03286687 0.04007031 0.21500000 208 90 79 0.000000
0.03368286 0.04044306 0.21700001 209 91 80 0.000000
0.03450826 0.04081580 0.21900001 207 94 83 0.000000
0.03502322 0.04081580 0.21900001 203 90 79 0.000000
0.03570045 0.04100218 0.22000001 192 87 78 0.000000
-0.01113502 0.03887734 0.20600002 177 84 73 0.000000
-0.01065063 0.03887734 0.20600002 177 84 73 0.000000
-0.01016625 0.03887734 0.20600002 177 84 73 0.000000
-0.00968186 0.03887734 0.20600002 177 84 73 0.000000
-0.00919747 0.03887734 0.20600002 177 84 73 0.000000
-0.00871309 0.03887734 0.20600002 181 88 77 0.000000
-0.00770672 0.03868861 0.20500001 178 85 74 0.000000
-0.00718944 0.03849988 0.20400001 179 86 75 0.000000
-0.00664397 0.03812243 0.20200001 182 88 77 0.000000
-0.00460313 0.03699009 0.19600001 184 86 79 0.000000
-0.00412113 0.03680136 0.19500001 185 87 80 0.000000
-0.00364382 0.03661264 0.19400001 189 87 79 0.000000
-0.00318765 0.03661264 0.19400001 189 87 79 0.000000
-0.00273148 0.03661264 0.19400001 192 87 78 0.000000
-0.00227531 0.03661264 0.19400001 193 88 79 0.000000
-0.00181914 0.03661264 0.19400001 199 90 80 0.000000
-0.00136297 0.03661264 0.19400001 197 88 78 0.000000
-0.00090680 0.03661264 0.19400001 201 91 79 0.000000
-0.00045295 0.03680136 0.19500001 207 97 85 0.000000
0.00000557 0.03680136 0.19500001 213 100 89 0.000000
0.00046409 0.03680136 0.19500001 214 101 90 0.000000
0.00796249 0.03548029 0.18800001 224 97 84 0.000000
0.00840455 0.03548029 0.18800001 224 97 84 0.000000
0.00884661 0.03548029 0.18800001 231 100 88 0.000000
0.00928867 0.03548029 0.18800001 232 101 89 0.000000
0.00973073 0.03548029 0.18800001 233 102 90 0.000000
0.01017280 0.03548029 0.18800001 233 102 90 0.000000
0.01061486 0.03548029 0.18800001 234 101 88 0.000000
0.01105692 0.03548029 0.18800001 235 102 89 0.000000
0.01149898 0.03548029 0.18800001 233 100 87 0.000000
0.01503548 0.03548029 0.18800001 240 100 87 0.000000
0.01547754 0.03548029 0.18800001 242 102 89 0.000000
0.01600428 0.03566901 0.18900001 242 102 89 0.000000
0.01644870 0.03566901 0.18900001 240 100 87 0.000000
0.01698249 0.03585774 0.19000001 243 103 90 0.000000
0.01742926 0.03585774 0.19000001 246 103 91 0.000000
0.01787602 0.03585774 0.19000001 245 102 90 0.000000
0.01841922 0.03604646 0.19100001 248 105 93 0.000000
0.01886834 0.03604646 0.19100001 249 106 94 0.000000
0.01931746 0.03604646 0.19100001 249 109 96 0.000000
0.01987006 0.03623518 0.19200000 249 109 96 0.000000
0.02032153 0.03623518 0.19200000 254 116 102 0.000000
0.02088119 0.03642391 0.19300000 245 107 93 0.000000
0.02133501 0.03642391 0.19300000 231 98 85 0.000000
0.02190172 0.03661264 0.19400001 231 98 85 0.000000
0.02482711 0.03831116 0.20300001 219 91 81 0.000000
0.02542910 0.03849988 0.20400001 217 92 81 0.000000
0.02603579 0.03868861 0.20500001 215 90 79 0.000000
0.02664718 0.03887734 0.20600002 211 89 77 0.000000
0.02726327 0.03906606 0.20700002 209 87 75 0.000000
0.02788407 0.03925478 0.20800000 206 84 72 0.000000
0.02850957 0.03944351 0.20900001 205 83 71 0.000000
0.02913977 0.03963223 0.21000001 206 84 72 0.000000
0.02977468 0.03982096 0.21100001 210 88 76 0.000000
0.03041429 0.04000968 0.21200001 207 87 74 0.000000
0.03105859 0.04019841 0.21300001 208 88 75 0.000000
0.03170761 0.04038713 0.21400002 208 88 75 0.000000
0.03221081 0.04038713 0.21400002 209 89 76 0.000000
0.03286687 0.04057586 0.21500000 209 91 80 0.000000
0.03352764 0.04076459 0.21600001 210 92 81 0.000000
0.03435069 0.04114204 0.21800001 207 94 81 0.000000
0.03502322 0.04133076 0.21900001 203 90 77 0.000000
0.03553817 0.04133076 0.21900001 194 92 84 0.000000
0.03621776 0.04151949 0.22000001 194 92 84 0.000000
0.03690204 0.04170821 0.22100002 212 135 130 0.000000
-0.00558126 0.03783311 0.19800001 181 83 76 0.000000
-0.00409999 0.03706881 0.19400001 185 86 77 0.000000
-0.00364382 0.03706881 0.19400001 190 88 80 0.000000
-0.00318765 0.03706881 0.19400001 190 88 80 0.000000
-0.00273148 0.03706881 0.19400001 191 86 77 0.000000
-0.00227531 0.03706881 0.19400001 192 87 78 0.000000
-0.00181914 0.03706881 0.19400001 194 87 77 0.000000
-0.00136297 0.03706881 0.19400001 194 87 77 0.000000
-0.00090680 0.03706881 0.19400001 200 90 78 0.000000
-0.00045063 0.03706881 0.19400001 202 92 80 0.000000
0.00000554 0.03706881 0.19400001 207 94 83 0.000000
0.00046409 0.03725988 0.19500001 216 103 92 0.000000
0.00092261 0.03725988 0.19500001 213 100 89 0.000000
0.00138113 0.03725988 0.19500001 210 97 86 0.000000
0.00626014 0.03630450 0.19000001 226 98 88 0.000000
0.00667160 0.03611343 0.18900001 226 98 88 0.000000
0.00707836 0.03592235 0.18800001 223 95 85 0.000000
0.00752043 0.03592235 0.18800001 226 98 88 0.000000
0.00796249 0.03592235 0.18800001 227 97 88 0.000000
0.00840455 0.03592235 0.18800001 227 97 88 0.000000
0.00933808 0.03611343 0.18900001 231 102 90 0.000000
0.00978249 0.03611343 0.18900001 232 101 89 0.000000
0.01022691 0.03611343 0.18900001 232 101 89 0.000000
0.01067132 0.03611343 0.18900001 234 101 90 0.000000
0.01111574 0.03611343 0.18900001 235 102 91 0.000000
0.01156015 0.03611343 0.18900001 233 100 87 0.000000
0.01459342 0.03592235 0.18800001 239 101 87 0.000000
0.01503548 0.03592235 0.18800001 241 103 89 0.000000
0.01547754 0.03592235 0.18800001 242 104 90 0.000000
0.01600428 0.03611343 0.18900001 242 104 90 0.000000
0.01644870 0.03611343 0.18900001 241 103 89 0.000000
0.01689311 0.03611343 0.18900001 241 103 89 0.000000
0.01742926 0.03630450 0.19000001 243 105 91 0.000000
0.01787602 0.03630450 0.19000001 244 106 92 0.000000
0.01832279 0.03630450 0.19000001 248 110 96 0.000000
0.01886834 0.03649558 0.19100001 248 110 96 0.000000
0.01931746 0.03649558 0.19100001 248 110 96 0.000000
0.02088119 0.03687773 0.19300000 238 100 86 0.000000
0.02144555 0.03706881 0.19400001 231 99 83 0.000000
0.02567841 0.03936172 0.20600002 219 92 79 0.000000
0.02628980 0.03955280 0.20700002 217 90 77 0.000000
0.02690589 0.03974387 0.20800000 213 89 75 0.000000
0.02752669 0.03993495 0.20900001 211 87 73 0.000000
0.02815219 0.04012603 0.21000001 210 86 72 0.000000
0.02864598 0.04012603 0.21000001 210 86 72 0.000000
0.02927853 0.04031710 0.21100001 209 88 73 0.000000
0.02977468 0.04031710 0.21100001 211 90 75 0.000000
0.03041429 0.04050818 0.21200001 208 87 72 0.000000
0.03105859 0.04069925 0.21300001 209 88 73 0.000000
0.03155944 0.04069925 0.21300001 209 89 76 0.000000
0.03221081 0.04089033 0.21400002 211 91 78 0.000000
0.03286687 0.04108141 0.21500000 212 94 81 0.000000
0.03352764 0.04127248 0.21600001 210 92 79 0.000000
0.03419312 0.04146356 0.21700001 208 92 80 0.000000
0.03486329 0.04165464 0.21800001 207 91 79 0.000000
0.03553817 0.04184571 0.21900001 199 94 85 0.000000
0.03621776 0.04203679 0.22000001 203 98 89 0.000000
0.03690204 0.04222787 0.22100002 200 120 114 0.000000
0.00183966 0.03771840 0.19500001 216 103 90 0.000000
0.00229818 0.03771840 0.19500001 214 101 88 0.000000
0.00275670 0.03771840 0.19500001 218 105 92 0.000000
0.00408988 0.03733155 0.19300000 219 101 88 0.000000
0.00539485 0.03694469 0.19100001 222 97 86 0.000000
0.00581337 0.03675127 0.19000001 222 97 86 0.000000
0.00622719 0.03655784 0.18900001 224 96 86 0.000000
0.00667160 0.03655784 0.18900001 226 98 88 0.000000
0.00707836 0.03636441 0.18800001 224 94 85 0.000000
0.00752043 0.03636441 0.18800001 229 99 90 0.000000
0.00796249 0.03636441 0.18800001 231 101 92 0.000000
0.00840455 0.03636441 0.18800001 231 101 92 0.000000
0.00889367 0.03655784 0.18900001 234 105 93 0.000000
0.00933808 0.03655784 0.18900001 232 103 91 0.000000
0.00978249 0.03655784 0.18900001 229 100 88 0.000000
0.01028102 0.03675127 0.19000001 231 102 90 0.000000
0.01072778 0.03675127 0.19000001 234 101 90 0.000000
0.01117455 0.03675127 0.19000001 234 101 90 0.000000
0.01467104 0.03655784 0.18900001 243 107 95 0.000000
0.01511546 0.03655784 0.18900001 241 105 93 0.000000
0.01555987 0.03655784 0.18900001 239 103 91 0.000000
0.01600428 0.03655784 0.18900001 240 104 92 0.000000
0.01644870 0.03655784 0.18900001 240 105 90 0.000000
0.01689311 0.03655784 0.18900001 241 106 91 0.000000
0.01733752 0.03655784 0.18900001 247 112 97 0.000000
0.01787602 0.03675127 0.19000001 246 111 96 0.000000
0.01832279 0.03675127 0.19000001 246 111 96 0.000000
0.01876955 0.03675127 0.19000001 248 113 98 0.000000
0.02032153 0.03713812 0.19200000 228 93 78 0.000000
0.02088119 0.03733155 0.19300000 228 93 78 0.000000
0.02155610 0.03771840 0.19500001 226 94 78 0.000000
0.02212751 0.03791183 0.19600001 231 99 83 0.000000
0.02654380 0.04042639 0.20900001 221 92 78 0.000000
0.02703525 0.04042639 0.20900001 212 88 74 0.000000
0.02765839 0.04061982 0.21000001 213 89 75 0.000000
0.02828624 0.04081325 0.21100001 213 89 75 0.000000
0.02878239 0.04081325 0.21100001 213 89 75 0.000000
0.02941729 0.04100668 0.21200001 214 90 76 0.000000
0.02991579 0.04100668 0.21200001 215 91 77 0.000000
0.03055775 0.04120011 0.21300001 213 92 77 0.000000
0.03105859 0.04120011 0.21300001 213 92 77 0.000000
0.03170761 0.04139353 0.21400002 213 92 77 0.000000
0.03221081 0.04139353 0.21400002 213 92 77 0.000000
0.03286687 0.04158696 0.21500000 214 94 81 0.000000
0.03352764 0.04178039 0.21600001 212 92 79 0.000000
0.03419312 0.04197381 0.21700001 209 91 78 0.000000
0.03486329 0.04216724 0.21800001 210 92 79 0.000000
0.03537590 0.04216724 0.21800001 205 100 91 0.000000
0.03605313 0.04236067 0.21900001 206 101 92 0.000000
0.00663630 0.03680647 0.18800001 226 101 90 0.000000
0.00707836 0.03680647 0.18800001 227 99 89 0.000000
0.00752043 0.03680647 0.18800001 228 100 90 0.000000
0.00796249 0.03680647 0.18800001 229 99 90 0.000000
0.00844925 0.03700225 0.18900001 230 100 91 0.000000
0.00889367 0.03700225 0.18900001 231 102 90 0.000000
0.00938749 0.03719803 0.19000001 230 101 89 0.000000
0.00983425 0.03719803 0.19000001 230 101 89 0.000000
0.01028102 0.03719803 0.19000001 231 102 90 0.000000
0.01078425 0.03739381 0.19100001 233 102 90 0.000000
0.01123336 0.03739381 0.19100001 234 103 91 0.000000
0.01168248 0.03739381 0.19100001 235 102 91 0.000000
0.01213160 0.03739381 0.19100001 235 102 91 0.000000
0.01302983 0.03739381 0.19100001 237 101 89 0.000000
0.01340837 0.03719803 0.19000001 240 104 92 0.000000
0.01385514 0.03719803 0.19000001 242 106 94 0.000000
0.01422663 0.03700225 0.18900001 241 105 93 0.000000
0.01467104 0.03700225 0.18900001 244 108 96 0.000000
0.01511546 0.03700225 0.18900001 240 104 92 0.000000
0.01555987 0.03700225 0.18900001 240 104 92 0.000000
0.01600428 0.03700225 0.18900001 241 105 93 0.000000
0.01644870 0.03700225 0.18900001 241 110 98 0.000000
0.01689311 0.03700225 0.18900001 245 114 102 0.000000
0.01733752 0.03700225 0.18900001 242 115 100 0.000000
0.01778194 0.03700225 0.18900001 240 113 98 0.000000
0.01832279 0.03719803 0.19000001 225 96 82 0.000000
0.01876955 0.03719803 0.19000001 227 97 78 0.000000
0.02032153 0.03758959 0.19200000 230 97 84 0.000000
0.02098938 0.03798115 0.19400001 227 94 81 0.000000
0.02155610 0.03817693 0.19500001 231 98 85 0.000000
0.02224041 0.03856849 0.19700001 230 97 84 0.000000
0.02293413 0.03896004 0.19900002 223 92 78 0.000000
0.02446973 0.03993894 0.20400001 221 92 78 0.000000
0.02654380 0.04091783 0.20900001 221 92 78 0.000000
0.02716460 0.04111361 0.21000001 220 93 78 0.000000
0.02779010 0.04130939 0.21100001 216 89 74 0.000000
0.02828624 0.04130939 0.21100001 213 89 73 0.000000
0.02891880 0.04150517 0.21200001 214 90 74 0.000000
0.02941729 0.04150517 0.21200001 215 91 75 0.000000
0.02991579 0.04150517 0.21200001 217 93 77 0.000000
