0.03962246 -0.01053343 0.21600001 161 84 106 0.000000
0.04031615 -0.01058220 0.21700001 159 82 104 0.000000
0.06382853 -0.01594644 0.32700002 81 53 50 0.000000
-0.03581003 -0.01039685 0.22400001 66 38 37 0.000000
-0.03159674 -0.00974704 0.21000001 70 35 49 0.000000
-0.03110295 -0.00974704 0.21000001 94 59 73 0.000000
-0.03060915 -0.00974704 0.21000001 112 85 107 0.000000
-0.03011536 -0.00974704 0.21000001 91 64 86 0.000000
-0.02962157 -0.00974704 0.21000001 27 46 87 0.000000
-0.02926648 -0.00979346 0.21100001 39 58 99 0.000000
-0.02877034 -0.00979346 0.21100001 6 74 125 0.000000
-0.02827419 -0.00979346 0.21100001 8 76 127 0.000000
-0.02777805 -0.00979346 0.21100001 0 70 121 0.000000
-0.02728190 -0.00979346 0.21100001 0 65 115 0.000000
-0.02678576 -0.00979346 0.21100001 0 52 102 0.000000
-0.02628961 -0.00979346 0.21100001 0 50 98 0.000000
-0.02579347 -0.00979346 0.21100001 0 48 96 0.000000
-0.02529733 -0.00979346 0.21100001 0 44 91 0.000000
-0.02480118 -0.00979346 0.21100001 0 47 94 0.000000
-0.02430504 -0.00979346 0.21100001 0 49 93 0.000000
-0.02380889 -0.00979346 0.21100001 0 50 94 0.000000
-0.02331275 -0.00979346 0.21100001 0 53 101 0.000000
-0.02281661 -0.00979346 0.21100001 2 59 107 0.000000
-0.02232046 -0.00979346 0.21100001 0 64 114 0.000000
-0.02182432 -0.00979346 0.21100001 2 68 118 0.000000
-0.02132817 -0.00979346 0.21100001 1 76 129 0.000000
-0.02083203 -0.00979346 0.21100001 3 78 131 0.000000
-0.02033588 -0.00979346 0.21100001 1 79 131 0.000000
-0.01983974 -0.00979346 0.21100001 0 76 128 0.000000
-0.01943527 -0.00983987 0.21200001 0 75 127 0.000000
-0.01893678 -0.00983987 0.21200001 0 75 127 0.000000
-0.01843828 -0.00983987 0.21200001 0 71 119 0.000000
-0.01793979 -0.00983987 0.21200001 0 69 117 0.000000
-0.01744129 -0.00983987 0.21200001 0 63 112 0.000000
-0.01702271 -0.00988629 0.21300001 0 62 111 0.000000
-0.01652187 -0.00988629 0.21300001 0 60 110 0.000000
-0.01602102 -0.00988629 0.21300001 0 60 110 0.000000
-0.01552017 -0.00988629 0.21300001 0 59 107 0.000000
-0.01501933 -0.00988629 0.21300001 0 59 107 0.000000
-0.01451848 -0.00988629 0.21300001 12 55 94 0.000000
-0.01401763 -0.00988629 0.21300001 18 61 100 0.000000
-0.01351678 -0.00988629 0.21300001 39 32 56 0.000000
-0.01301594 -0.00988629 0.21300001 34 27 51 0.000000
-0.01251509 -0.00988629 0.21300001 61 16 23 0.000000
-0.01201424 -0.00988629 0.21300001 61 16 23 0.000000
-0.01074332 -0.01178928 0.25400001 65 14 14 0.000000
-0.01014607 -0.01178928 0.25400001 62 13 12 0.000000
-0.00954881 -0.01178928 0.25400001 62 13 12 0.000000
-0.00898680 -0.01183570 0.25500003 64 15 14 0.000000
-0.00838719 -0.01183570 0.25500003 65 16 15 0.000000
-0.00781813 -0.01188211 0.25600001 64 15 14 0.000000
-0.00721617 -0.01188211 0.25600001 64 15 14 0.000000
-0.00664005 -0.01192852 0.25700000 66 17 16 0.000000
-0.00603574 -0.01192852 0.25700000 66 17 16 0.000000
-0.00545257 -0.01197494 0.25800002 66 17 18 0.000000
-0.00484591 -0.01197494 0.25800002 68 19 20 0.000000
-0.00423925 -0.01197494 0.25800002 66 17 18 0.000000
-0.00363259 -0.01197494 0.25800002 68 17 17 0.000000
-0.00302593 -0.01197494 0.25800002 68 17 17 0.000000
-0.00241927 -0.01197494 0.25800002 71 18 16 0.000000
-0.00181261 -0.01197494 0.25800002 71 18 16 0.000000
-0.00120595 -0.01197494 0.25800002 71 18 14 0.000000
-0.00059929 -0.01197494 0.25800002 71 18 14 0.000000
0.00000737 -0.01197494 0.25800002 73 18 15 0.000000
0.00061165 -0.01192852 0.25700000 72 17 14 0.000000
0.00121596 -0.01192852 0.25700000 73 18 17 0.000000
0.00182026 -0.01192852 0.25700000 75 20 19 0.000000
0.00241514 -0.01188211 0.25600001 73 18 17 0.000000
0.00301710 -0.01188211 0.25600001 73 18 17 0.000000
0.00361905 -0.01188211 0.25600001 73 18 15 0.000000
0.00422101 -0.01188211 0.25600001 72 17 14 0.000000
0.00482297 -0.01188211 0.25600001 72 17 14 0.000000
0.00542492 -0.01188211 0.25600001 72 17 14 0.000000
0.00602688 -0.01188211 0.25600001 74 16 14 0.000000
0.00662884 -0.01188211 0.25600001 75 17 15 0.000000
0.00723079 -0.01188211 0.25600001 77 19 17 0.000000
0.00783275 -0.01188211 0.25600001 75 17 15 0.000000
0.00843471 -0.01188211 0.25600001 77 19 17 0.000000
0.00903667 -0.01188211 0.25600001 77 19 17 0.000000
0.00963862 -0.01188211 0.25600001 77 19 17 0.000000
0.01024058 -0.01188211 0.25600001 77 19 17 0.000000
0.01084254 -0.01188211 0.25600001 80 20 18 0.000000
0.01144449 -0.01188211 0.25600001 79 19 17 0.000000
0.01204645 -0.01188211 0.25600001 80 18 17 0.000000
0.01264841 -0.01188211 0.25600001 81 19 18 0.000000
0.01325036 -0.01188211 0.25600001 78 16 15 0.000000
0.01385232 -0.01188211 0.25600001 80 18 17 0.000000
0.01439782 -0.01183570 0.25500003 81 19 18 0.000000
0.01499742 -0.01183570 0.25500003 80 18 17 0.000000
0.01559703 -0.01183570 0.25500003 82 20 19 0.000000
0.01619663 -0.01183570 0.25500003 82 20 19 0.000000
0.01673037 -0.01178928 0.25400001 82 20 19 0.000000
0.01732762 -0.01178928 0.25400001 81 19 18 0.000000
0.01785431 -0.01174287 0.25300002 82 22 20 0.000000
0.01844921 -0.01174287 0.25300002 83 23 21 0.000000
0.01896884 -0.01169645 0.25200000 84 24 24 0.000000
0.01948377 -0.01165004 0.25100002 82 22 22 0.000000
0.02007397 -0.01165004 0.25100002 82 19 23 0.000000
0.02058184 -0.01160362 0.25000000 84 21 25 0.000000
0.02116969 -0.01160362 0.25000000 88 20 26 0.000000
0.02175754 -0.01160362 0.25000000 87 19 25 0.000000
0.02225600 -0.01155721 0.24900001 90 22 28 0.000000
0.02284150 -0.01155721 0.24900001 96 23 28 0.000000
0.02342700 -0.01155721 0.24900001 96 23 28 0.000000
0.02391606 -0.01151079 0.24800001 94 21 26 0.000000
0.02449921 -0.01151079 0.24800001 96 23 28 0.000000
0.02498121 -0.01146438 0.24700001 96 23 28 0.000000
0.02545852 -0.01141796 0.24600001 97 24 29 0.000000
0.02603696 -0.01141796 0.24600001 98 25 30 0.000000
0.02661540 -0.01141796 0.24600001 99 26 31 0.000000
0.02708330 -0.01137155 0.24500000 102 25 31 0.000000
0.02616279 -0.00956139 0.20600002 117 34 45 0.000000
0.02748190 -0.00951497 0.20500001 121 35 49 0.000000
0.02796393 -0.00951497 0.20500001 121 35 49 0.000000
0.02844597 -0.00951497 0.20500001 122 41 60 0.000000
0.02892800 -0.00951497 0.20500001 169 88 107 0.000000
0.02955350 -0.00956139 0.20600002 162 85 105 0.000000
0.03003789 -0.00956139 0.20600002 163 86 106 0.000000
0.03052228 -0.00956139 0.20600002 163 87 107 0.000000
0.03115718 -0.00960780 0.20700002 163 87 107 0.000000
0.03164392 -0.00960780 0.20700002 161 85 105 0.000000
0.03228588 -0.00965421 0.20800000 162 86 106 0.000000
0.03277497 -0.00965421 0.20800000 162 87 104 0.000000
0.03342398 -0.00970063 0.20900001 162 87 104 0.000000
0.03407770 -0.00974704 0.21000001 165 90 107 0.000000
0.03473612 -0.00979346 0.21100001 161 86 103 0.000000
0.03539924 -0.00983987 0.21200001 161 86 103 0.000000
0.03606706 -0.00988629 0.21300001 163 88 105 0.000000
0.03673960 -0.00993270 0.21400002 161 89 105 0.000000
0.03741682 -0.00997911 0.21500000 158 86 102 0.000000
0.03809875 -0.01002553 0.21600001 156 80 100 0.000000
0.03860665 -0.01002553 0.21600001 158 82 102 0.000000
0.03929564 -0.01007194 0.21700001 160 83 105 0.000000
0.03980590 -0.01007194 0.21700001 161 84 106 0.000000
0.04031615 -0.01007194 0.21700001 160 83 105 0.000000
0.04101454 -0.01011836 0.21800001 160 83 105 0.000000
0.06402372 -0.01522395 0.32800001 81 55 53 0.000000
-0.03209053 -0.00925325 0.21000001 65 34 36 0.000000
-0.03159674 -0.00925325 0.21000001 73 38 54 0.000000
-0.03110295 -0.00925325 0.21000001 111 76 92 0.000000
-0.03060915 -0.00925325 0.21000001 111 83 110 0.000000
-0.03011536 -0.00925325 0.21000001 71 43 70 0.000000
-0.02962157 -0.00925325 0.21000001 27 54 96 0.000000
-0.02926648 -0.00929731 0.21100001 35 62 104 0.000000
-0.02877034 -0.00929731 0.21100001 4 76 128 0.000000
-0.02827419 -0.00929731 0.21100001 5 77 129 0.000000
-0.02777805 -0.00929731 0.21100001 0 76 128 0.000000
-0.02728190 -0.00929731 0.21100001 0 69 121 0.000000
-0.02678576 -0.00929731 0.21100001 0 63 115 0.000000
-0.02628961 -0.00929731 0.21100001 0 55 105 0.000000
-0.02579347 -0.00929731 0.21100001 0 55 105 0.000000
-0.02529733 -0.00929731 0.21100001 0 51 101 0.000000
-0.02480118 -0.00929731 0.21100001 0 52 102 0.000000
-0.02430504 -0.00929731 0.21100001 0 56 106 0.000000
-0.02392173 -0.00934138 0.21200001 0 56 106 0.000000
-0.02342324 -0.00934138 0.21200001 0 61 111 0.000000
-0.02292474 -0.00934138 0.21200001 3 67 117 0.000000
-0.02242625 -0.00934138 0.21200001 1 73 125 0.000000
-0.02192775 -0.00934138 0.21200001 4 76 128 0.000000
-0.02142926 -0.00934138 0.21200001 1 79 134 0.000000
-0.02093076 -0.00934138 0.21200001 3 81 136 0.000000
-0.02043226 -0.00934138 0.21200001 1 82 136 0.000000
-0.01993377 -0.00934138 0.21200001 0 79 133 0.000000
-0.01943527 -0.00934138 0.21200001 0 78 134 0.000000
-0.01893678 -0.00934138 0.21200001 0 78 134 0.000000
-0.01843828 -0.00934138 0.21200001 0 76 128 0.000000
-0.01793979 -0.00934138 0.21200001 0 73 125 0.000000
-0.01752356 -0.00938544 0.21300001 0 70 123 0.000000
-0.01702271 -0.00938544 0.21300001 0 69 122 0.000000
-0.01652187 -0.00938544 0.21300001 0 67 119 0.000000
-0.01602102 -0.00938544 0.21300001 0 67 119 0.000000
-0.01552017 -0.00938544 0.21300001 0 66 114 0.000000
-0.01501933 -0.00938544 0.21300001 0 67 115 0.000000
-0.01451848 -0.00938544 0.21300001 15 60 99 0.000000
-0.01401763 -0.00938544 0.21300001 17 62 101 0.000000
-0.01351678 -0.00938544 0.21300001 40 31 54 0.000000
-0.01301594 -0.00938544 0.21300001 36 27 50 0.000000
-0.01134057 -0.01119203 0.25400001 64 15 16 0.000000
-0.01074332 -0.01119203 0.25400001 64 15 16 0.000000
-0.01014607 -0.01119203 0.25400001 64 15 14 0.000000
-0.00958641 -0.01123609 0.25500003 64 15 14 0.000000
-0.00898680 -0.01123609 0.25500003 64 15 14 0.000000
-0.00838719 -0.01123609 0.25500003 65 16 15 0.000000
-0.00781813 -0.01128015 0.25600001 64 15 14 0.000000
-0.00724436 -0.01132421 0.25700000 65 16 15 0.000000
-0.00664005 -0.01132421 0.25700000 67 18 19 0.000000
-0.00605923 -0.01136828 0.25800002 67 18 19 0.000000
-0.00545257 -0.01136828 0.25800002 67 18 19 0.000000
-0.00484591 -0.01136828 0.25800002 67 18 19 0.000000
-0.00423925 -0.01136828 0.25800002 68 19 20 0.000000
-0.00363259 -0.01136828 0.25800002 68 19 18 0.000000
-0.00302593 -0.01136828 0.25800002 68 19 18 0.000000
-0.00241927 -0.01136828 0.25800002 69 18 18 0.000000
-0.00181261 -0.01136828 0.25800002 69 18 18 0.000000
-0.00120595 -0.01136828 0.25800002 68 18 15 0.000000
-0.00059929 -0.01136828 0.25800002 68 18 15 0.000000
0.00000737 -0.01136828 0.25800002 71 18 16 0.000000
0.00061165 -0.01132421 0.25700000 74 21 19 0.000000
0.00121596 -0.01132421 0.25700000 74 21 19 0.000000
0.00182026 -0.01132421 0.25700000 74 21 19 0.000000
0.00241514 -0.01128015 0.25600001 72 19 17 0.000000
0.00301710 -0.01128015 0.25600001 72 19 17 0.000000
0.00361905 -0.01128015 0.25600001 73 18 17 0.000000
0.00422101 -0.01128015 0.25600001 75 20 19 0.000000
0.00482297 -0.01128015 0.25600001 75 20 19 0.000000
0.00542492 -0.01128015 0.25600001 75 20 19 0.000000
0.00602688 -0.01128015 0.25600001 72 17 16 0.000000
0.00662884 -0.01128015 0.25600001 75 20 19 0.000000
0.00723079 -0.01128015 0.25600001 78 20 20 0.000000
0.00783275 -0.01128015 0.25600001 75 17 17 0.000000
0.00843471 -0.01128015 0.25600001 77 19 17 0.000000
0.00903667 -0.01128015 0.25600001 77 19 17 0.000000
0.00963862 -0.01128015 0.25600001 75 17 13 0.000000
0.01024058 -0.01128015 0.25600001 77 19 15 0.000000
0.01084254 -0.01128015 0.25600001 80 20 16 0.000000
0.01144449 -0.01128015 0.25600001 81 21 17 0.000000
0.01204645 -0.01128015 0.25600001 79 19 15 0.000000
0.01264841 -0.01128015 0.25600001 77 17 13 0.000000
0.01325036 -0.01128015 0.25600001 78 16 13 0.000000
0.01385232 -0.01128015 0.25600001 80 18 15 0.000000
0.01439782 -0.01123609 0.25500003 80 18 17 0.000000
0.01499742 -0.01123609 0.25500003 80 18 17 0.000000
0.01559703 -0.01123609 0.25500003 81 19 18 0.000000
0.01619663 -0.01123609 0.25500003 80 18 17 0.000000
0.01673037 -0.01119203 0.25400001 81 19 18 0.000000
0.01732762 -0.01119203 0.25400001 80 18 17 0.000000
0.01785431 -0.01114796 0.25300002 80 18 17 0.000000
0.01837629 -0.01110390 0.25200000 82 20 19 0.000000
0.01896884 -0.01110390 0.25200000 84 22 23 0.000000
0.01948377 -0.01105984 0.25100002 83 21 22 0.000000
0.02007397 -0.01105984 0.25100002 86 20 25 0.000000
0.02058184 -0.01101577 0.25000000 86 20 25 0.000000
0.02108501 -0.01097171 0.24900001 86 18 26 0.000000
0.02167051 -0.01097171 0.24900001 87 19 27 0.000000
0.02216662 -0.01092765 0.24800001 90 19 26 0.000000
0.02274977 -0.01092765 0.24800001 95 22 27 0.000000
0.02333291 -0.01092765 0.24800001 96 23 28 0.000000
0.02381962 -0.01088358 0.24700001 94 21 26 0.000000
0.02440042 -0.01088358 0.24700001 94 21 26 0.000000
0.02488007 -0.01083952 0.24600001 96 23 28 0.000000
0.02545852 -0.01083952 0.24600001 98 25 30 0.000000
0.02593112 -0.01079546 0.24500000 102 29 34 0.000000
0.02650721 -0.01079546 0.24500000 102 29 34 0.000000
0.02708330 -0.01079546 0.24500000 107 30 36 0.000000
0.02754650 -0.01075140 0.24400002 108 31 37 0.000000
0.02775001 -0.00912106 0.20700002 123 36 55 0.000000
0.02810034 -0.00907700 0.20600002 118 31 50 0.000000
0.02858473 -0.00907700 0.20600002 130 49 68 0.000000
0.02906912 -0.00907700 0.20600002 170 89 108 0.000000
0.02955350 -0.00907700 0.20600002 163 86 106 0.000000
0.03018370 -0.00912106 0.20700002 162 85 105 0.000000
0.03067045 -0.00912106 0.20700002 162 86 106 0.000000
0.03130770 -0.00916512 0.20800000 163 87 107 0.000000
0.03179679 -0.00916512 0.20800000 162 86 106 0.000000
0.03244110 -0.00920919 0.20900001 162 86 106 0.000000
0.03293254 -0.00920919 0.20900001 161 86 103 0.000000
0.03358391 -0.00925325 0.21000001 160 85 102 0.000000
0.03423997 -0.00929731 0.21100001 166 90 107 0.000000
0.03490075 -0.00934138 0.21200001 162 86 103 0.000000
0.03556622 -0.00938544 0.21300001 162 87 104 0.000000
0.03606706 -0.00938544 0.21300001 162 87 104 0.000000
0.03673960 -0.00942950 0.21400002 163 87 107 0.000000
0.03741682 -0.00947357 0.21500000 159 83 103 0.000000
0.03809875 -0.00951763 0.21600001 156 80 102 0.000000
0.03878539 -0.00956169 0.21700001 156 80 102 0.000000
0.03929564 -0.00956169 0.21700001 160 83 105 0.000000
0.03980590 -0.00956169 0.21700001 160 83 105 0.000000
0.04050194 -0.00960575 0.21800001 159 82 104 0.000000
0.04101454 -0.00960575 0.21800001 159 82 104 0.000000
0.04171764 -0.00964982 0.21900001 148 92 105 0.000000
0.06441411 -0.01454082 0.33000001 76 57 53 0.000000
-0.03533044 -0.00921829 0.22100002 66 38 39 0.000000
-0.03209053 -0.00875946 0.21000001 70 36 42 0.000000
-0.03159674 -0.00875946 0.21000001 84 49 65 0.000000
-0.03110295 -0.00875946 0.21000001 119 84 100 0.000000
-0.03060915 -0.00875946 0.21000001 105 81 111 0.000000
-0.03011536 -0.00875946 0.21000001 53 29 59 0.000000
-0.02976262 -0.00880117 0.21100001 26 56 100 0.000000
-0.02926648 -0.00880117 0.21100001 32 62 106 0.000000
-0.02877034 -0.00880117 0.21100001 2 77 128 0.000000
-0.02827419 -0.00880117 0.21100001 3 78 129 0.000000
-0.02777805 -0.00880117 0.21100001 0 78 132 0.000000
-0.02728190 -0.00880117 0.21100001 0 75 130 0.000000
-0.02678576 -0.00880117 0.21100001 0 74 129 0.000000
-0.02628961 -0.00880117 0.21100001 0 71 122 0.000000
-0.02579347 -0.00880117 0.21100001 0 68 119 0.000000
-0.02541722 -0.00884288 0.21200001 0 63 116 0.000000
-0.02491872 -0.00884288 0.21200001 0 62 115 0.000000
-0.02442023 -0.00884288 0.21200001 0 62 113 0.000000
-0.02392173 -0.00884288 0.21200001 0 66 117 0.000000
-0.02342324 -0.00884288 0.21200001 0 69 121 0.000000
-0.02292474 -0.00884288 0.21200001 0 71 123 0.000000
-0.02242625 -0.00884288 0.21200001 0 76 131 0.000000
-0.02192775 -0.00884288 0.21200001 1 79 134 0.000000
-0.02142926 -0.00884288 0.21200001 0 83 138 0.000000
-0.02093076 -0.00884288 0.21200001 1 84 139 0.000000
-0.02043226 -0.00884288 0.21200001 1 84 141 0.000000
-0.01993377 -0.00884288 0.21200001 0 83 140 0.000000
-0.01943527 -0.00884288 0.21200001 0 83 140 0.000000
-0.01893678 -0.00884288 0.21200001 0 83 140 0.000000
-0.01843828 -0.00884288 0.21200001 0 81 138 0.000000
-0.01802441 -0.00888459 0.21300001 0 79 136 0.000000
-0.01752356 -0.00888459 0.21300001 0 77 133 0.000000
-0.01702271 -0.00888459 0.21300001 0 75 131 0.000000
-0.01652187 -0.00888459 0.21300001 0 74 129 0.000000
-0.01602102 -0.00888459 0.21300001 0 72 127 0.000000
-0.01552017 -0.00888459 0.21300001 0 70 121 0.000000
-0.01501933 -0.00888459 0.21300001 0 71 122 0.000000
-0.01451848 -0.00888459 0.21300001 15 62 100 0.000000
-0.01401763 -0.00888459 0.21300001 20 67 105 0.000000
-0.01258443 -0.01063648 0.25500003 65 14 16 0.000000
-0.01198483 -0.01063648 0.25500003 63 12 14 0.000000
-0.01138522 -0.01063648 0.25500003 65 14 14 0.000000
-0.01078562 -0.01063648 0.25500003 65 14 14 0.000000
-0.01018601 -0.01063648 0.25500003 62 13 12 0.000000
-0.00958641 -0.01063648 0.25500003 62 13 12 0.000000
-0.00898680 -0.01063648 0.25500003 62 13 12 0.000000
-0.00842009 -0.01067820 0.25600001 62 13 12 0.000000
-0.00781813 -0.01067820 0.25600001 64 15 14 0.000000
-0.00724436 -0.01071991 0.25700000 65 16 15 0.000000
-0.00664005 -0.01071991 0.25700000 66 17 18 0.000000
-0.00605923 -0.01076162 0.25800002 67 18 19 0.000000
-0.00545257 -0.01076162 0.25800002 67 18 19 0.000000
-0.00484591 -0.01076162 0.25800002 67 18 19 0.000000
-0.00423925 -0.01076162 0.25800002 67 18 19 0.000000
-0.00363259 -0.01076162 0.25800002 68 19 20 0.000000
-0.00302593 -0.01076162 0.25800002 69 20 21 0.000000
-0.00241927 -0.01076162 0.25800002 68 19 18 0.000000
-0.00181261 -0.01076162 0.25800002 68 19 18 0.000000
-0.00120595 -0.01076162 0.25800002 68 17 17 0.000000
-0.00059929 -0.01076162 0.25800002 68 17 17 0.000000
0.00000734 -0.01071991 0.25700000 69 19 16 0.000000
0.00061165 -0.01071991 0.25700000 70 20 17 0.000000
0.00121596 -0.01071991 0.25700000 74 21 19 0.000000
0.00181318 -0.01067820 0.25600001 72 19 17 0.000000
0.00241514 -0.01067820 0.25600001 75 22 20 0.000000
0.00301710 -0.01067820 0.25600001 72 19 17 0.000000
0.00361905 -0.01067820 0.25600001 72 19 17 0.000000
0.00422101 -0.01067820 0.25600001 74 21 19 0.000000
0.00482297 -0.01067820 0.25600001 74 21 19 0.000000
0.00542492 -0.01067820 0.25600001 74 21 19 0.000000
0.00602688 -0.01067820 0.25600001 73 18 17 0.000000
0.00662884 -0.01067820 0.25600001 77 22 21 0.000000
0.00723079 -0.01067820 0.25600001 76 21 20 0.000000
0.00783275 -0.01067820 0.25600001 76 21 20 0.000000
0.00843471 -0.01067820 0.25600001 76 21 20 0.000000
0.00903667 -0.01067820 0.25600001 76 21 20 0.000000
0.00963862 -0.01067820 0.25600001 80 22 20 0.000000
0.01024058 -0.01067820 0.25600001 78 20 18 0.000000
0.01084254 -0.01067820 0.25600001 81 21 17 0.000000
0.01144449 -0.01067820 0.25600001 82 22 18 0.000000
0.01204645 -0.01067820 0.25600001 81 21 17 0.000000
0.01264841 -0.01067820 0.25600001 79 19 15 0.000000
0.01325036 -0.01067820 0.25600001 79 19 15 0.000000
0.01385232 -0.01067820 0.25600001 77 17 13 0.000000
0.01439782 -0.01063648 0.25500003 79 19 17 0.000000
0.01499742 -0.01063648 0.25500003 81 21 19 0.000000
0.01559703 -0.01063648 0.25500003 80 20 18 0.000000
0.01613311 -0.01059477 0.25400001 80 20 18 0.000000
0.01673037 -0.01059477 0.25400001 79 19 17 0.000000
0.01725941 -0.01055306 0.25300002 79 19 17 0.000000
0.01778374 -0.01051135 0.25200000 78 16 15 0.000000
0.01837629 -0.01051135 0.25200000 81 19 18 0.000000
0.01889357 -0.01046964 0.25100002 83 21 22 0.000000
0.01948377 -0.01046964 0.25100002 84 22 23 0.000000
0.01999399 -0.01042792 0.25000000 85 19 24 0.000000
0.02049951 -0.01038621 0.24900001 85 19 24 0.000000
0.02108501 -0.01038621 0.24900001 88 20 28 0.000000
0.02158348 -0.01034450 0.24800001 86 18 26 0.000000
0.02216662 -0.01034450 0.24800001 90 19 26 0.000000
0.02274977 -0.01034450 0.24800001 89 19 23 0.000000
0.02333291 -0.01034450 0.24800001 89 19 23 0.000000
0.02381962 -0.01030279 0.24700001 90 20 24 0.000000
0.02430163 -0.01026108 0.24600001 92 22 26 0.000000
0.02488007 -0.01026108 0.24600001 93 23 27 0.000000
0.02535503 -0.01021937 0.24500000 96 26 30 0.000000
0.02593112 -0.01021937 0.24500000 103 30 35 0.000000
0.02639902 -0.01017766 0.24400002 103 30 35 0.000000
0.02697276 -0.01017766 0.24400002 106 32 37 0.000000
0.02732071 -0.01009423 0.24200001 110 36 41 0.000000
0.02886225 -0.00867603 0.20800000 145 63 85 0.000000
0.02969697 -0.00863432 0.20700002 163 86 106 0.000000
0.03032952 -0.00867603 0.20800000 163 86 106 0.000000
0.03081861 -0.00867603 0.20800000 163 87 107 0.000000
0.03145822 -0.00871775 0.20900001 162 86 106 0.000000
0.03194966 -0.00871775 0.20900001 161 85 107 0.000000
0.03259632 -0.00875946 0.21000001 161 85 107 0.000000
0.03309011 -0.00875946 0.21000001 161 85 105 0.000000
0.03374383 -0.00880117 0.21100001 160 84 104 0.000000
0.03440225 -0.00884288 0.21200001 161 85 102 0.000000
0.03506537 -0.00888459 0.21300001 162 86 103 0.000000
0.03573320 -0.00892630 0.21400002 161 86 103 0.000000
0.03623639 -0.00892630 0.21400002 162 87 104 0.000000
0.03691127 -0.00896802 0.21500000 162 86 106 0.000000
0.03759085 -0.00900973 0.21600001 158 82 102 0.000000
0.03809875 -0.00900973 0.21600001 160 82 108 0.000000
0.03878539 -0.00905144 0.21700001 159 81 107 0.000000
0.03929564 -0.00905144 0.21700001 162 81 108 0.000000
0.03998933 -0.00909315 0.21800001 163 82 109 0.000000
0.04050194 -0.00909315 0.21800001 161 84 106 0.000000
0.04101454 -0.00909315 0.21800001 157 80 102 0.000000
0.06460930 -0.01380657 0.33100003 74 63 58 0.000000
-0.03289465 -0.00834438 0.21200001 75 38 45 0.000000
-0.03209053 -0.00826566 0.21000001 71 34 41 0.000000
-0.03159674 -0.00826566 0.21000001 103 67 86 0.000000
-0.03110295 -0.00826566 0.21000001 125 89 108 0.000000
-0.03060915 -0.00826566 0.21000001 76 57 85 0.000000
-0.03011536 -0.00826566 0.21000001 48 29 57 0.000000
-0.02976262 -0.00830502 0.21100001 25 59 106 0.000000
-0.02926648 -0.00830502 0.21100001 30 64 111 0.000000
-0.02877034 -0.00830502 0.21100001 0 78 130 0.000000
-0.02827419 -0.00830502 0.21100001 0 80 136 0.000000
-0.02777805 -0.00830502 0.21100001 0 80 136 0.000000
-0.02728190 -0.00830502 0.21100001 0 79 135 0.000000
-0.02678576 -0.00830502 0.21100001 0 77 133 0.000000
-0.02641421 -0.00834438 0.21200001 0 78 132 0.000000
-0.02591572 -0.00834438 0.21200001 0 76 130 0.000000
-0.02541722 -0.00834438 0.21200001 0 76 131 0.000000
-0.02491872 -0.00834438 0.21200001 0 74 129 0.000000
-0.02442023 -0.00834438 0.21200001 0 71 126 0.000000
-0.02392173 -0.00834438 0.21200001 0 75 130 0.000000
-0.02342324 -0.00834438 0.21200001 0 76 131 0.000000
-0.02292474 -0.00834438 0.21200001 0 77 132 0.000000
-0.02242625 -0.00834438 0.21200001 0 83 140 0.000000
-0.02203118 -0.00838375 0.21300001 2 85 142 0.000000
-0.02142926 -0.00834438 0.21200001 0 87 145 0.000000
-0.02093076 -0.00834438 0.21200001 0 87 145 0.000000
-0.02052864 -0.00838375 0.21300001 0 85 143 0.000000
-0.01993377 -0.00834438 0.21200001 0 84 142 0.000000
-0.01952695 -0.00838375 0.21300001 0 84 142 0.000000
-0.01893678 -0.00834438 0.21200001 0 84 142 0.000000
-0.01852525 -0.00838375 0.21300001 0 83 142 0.000000
-0.01802441 -0.00838375 0.21300001 0 83 142 0.000000
-0.01752356 -0.00838375 0.21300001 0 80 140 0.000000
-0.01702271 -0.00838375 0.21300001 0 79 139 0.000000
-0.01652187 -0.00838375 0.21300001 0 78 135 0.000000
-0.01602102 -0.00838375 0.21300001 0 78 135 0.000000
-0.01552017 -0.00838375 0.21300001 0 76 133 0.000000
-0.01501933 -0.00838375 0.21300001 0 75 132 0.000000
-0.01458664 -0.00842311 0.21400002 18 65 105 0.000000
-0.01258443 -0.01003688 0.25500003 63 12 14 0.000000
-0.01198483 -0.01003688 0.25500003 65 14 16 0.000000
-0.01138522 -0.01003688 0.25500003 65 14 14 0.000000
-0.01078562 -0.01003688 0.25500003 65 14 14 0.000000
-0.01018601 -0.01003688 0.25500003 62 13 12 0.000000
-0.00958641 -0.01003688 0.25500003 62 13 12 0.000000
-0.00902204 -0.01007624 0.25600001 62 13 12 0.000000
-0.00842009 -0.01007624 0.25600001 62 13 12 0.000000
-0.00781813 -0.01007624 0.25600001 64 15 14 0.000000
-0.00724436 -0.01011560 0.25700000 64 15 14 0.000000
-0.00664005 -0.01011560 0.25700000 64 15 16 0.000000
-0.00605923 -0.01015496 0.25800002 66 17 18 0.000000
-0.00545257 -0.01015496 0.25800002 65 16 17 0.000000
-0.00484591 -0.01015496 0.25800002 67 18 19 0.000000
-0.00423925 -0.01015496 0.25800002 67 18 19 0.000000
-0.00363259 -0.01015496 0.25800002 67 18 19 0.000000
-0.00302593 -0.01015496 0.25800002 69 20 21 0.000000
-0.00241927 -0.01015496 0.25800002 67 18 19 0.000000
-0.00181261 -0.01015496 0.25800002 67 18 19 0.000000
-0.00120595 -0.01015496 0.25800002 68 17 17 0.000000
-0.00059929 -0.01015496 0.25800002 72 21 21 0.000000
0.00000734 -0.01011560 0.25700000 69 19 16 0.000000
0.00061165 -0.01011560 0.25700000 72 22 19 0.000000
0.00121596 -0.01011560 0.25700000 72 19 17 0.000000
0.00181318 -0.01007624 0.25600001 72 19 17 0.000000
0.00241514 -0.01007624 0.25600001 74 21 19 0.000000
0.00301710 -0.01007624 0.25600001 74 21 19 0.000000
0.00361905 -0.01007624 0.25600001 75 22 20 0.000000
0.00422101 -0.01007624 0.25600001 76 23 21 0.000000
0.00482297 -0.01007624 0.25600001 75 21 22 0.000000
0.00542492 -0.01007624 0.25600001 75 21 22 0.000000
0.00602688 -0.01007624 0.25600001 74 20 21 0.000000
0.00662884 -0.01007624 0.25600001 75 21 22 0.000000
0.00723079 -0.01007624 0.25600001 75 20 19 0.000000
0.00783275 -0.01007624 0.25600001 75 20 19 0.000000
0.00843471 -0.01007624 0.25600001 76 21 20 0.000000
0.00903667 -0.01007624 0.25600001 77 22 21 0.000000
0.00963862 -0.01007624 0.25600001 78 20 18 0.000000
0.01024058 -0.01007624 0.25600001 78 20 18 0.000000
0.01084254 -0.01007624 0.25600001 80 20 16 0.000000
0.01144449 -0.01007624 0.25600001 81 21 17 0.000000
0.01204645 -0.01007624 0.25600001 81 21 17 0.000000
0.01264841 -0.01007624 0.25600001 81 21 17 0.000000
0.01325036 -0.01007624 0.25600001 81 21 17 0.000000
0.01385232 -0.01007624 0.25600001 81 21 17 0.000000
0.01439782 -0.01003688 0.25500003 81 21 19 0.000000
0.01499742 -0.01003688 0.25500003 81 21 19 0.000000
0.01559703 -0.01003688 0.25500003 81 21 19 0.000000
0.01613311 -0.00999752 0.25400001 81 21 19 0.000000
0.01673037 -0.00999752 0.25400001 82 22 20 0.000000
0.01725941 -0.00995816 0.25300002 80 20 18 0.000000
0.01778374 -0.00991880 0.25200000 80 18 17 0.000000
0.01830337 -0.00987944 0.25100002 81 19 18 0.000000
0.01889357 -0.00987944 0.25100002 83 21 22 0.000000
0.01940614 -0.00984008 0.25000000 83 21 22 0.000000
0.01991401 -0.00980072 0.24900001 85 19 24 0.000000
0.02049951 -0.00980072 0.24900001 84 18 23 0.000000
0.02100033 -0.00976136 0.24800001 87 19 25 0.000000
0.02158348 -0.00976136 0.24800001 87 19 25 0.000000
0.02207724 -0.00972200 0.24700001 90 23 26 0.000000
0.02265803 -0.00972200 0.24700001 87 20 23 0.000000
0.02314474 -0.00968263 0.24600001 87 20 23 0.000000
0.02372319 -0.00968263 0.24600001 87 20 23 0.000000
0.02420284 -0.00964327 0.24500000 90 23 26 0.000000
0.02477893 -0.00964327 0.24500000 95 25 29 0.000000
0.02525154 -0.00960391 0.24400002 99 29 33 0.000000
0.02571944 -0.00956455 0.24300002 102 29 34 0.000000
0.02629082 -0.00956455 0.24300002 103 30 35 0.000000
0.02675167 -0.00952519 0.24200001 107 33 38 0.000000
0.02828624 -0.00830502 0.21100001 120 33 54 0.000000
0.02864598 -0.00826566 0.21000001 119 32 53 0.000000
0.02900101 -0.00822630 0.20900001 165 83 105 0.000000
0.02949245 -0.00822630 0.20900001 170 88 110 0.000000
0.02998389 -0.00822630 0.20900001 162 85 105 0.000000
0.03047533 -0.00822630 0.20900001 164 87 107 0.000000
0.03111494 -0.00826566 0.21000001 163 87 109 0.000000
0.03160873 -0.00826566 0.21000001 163 87 109 0.000000
0.03225540 -0.00830502 0.21100001 162 86 108 0.000000
0.03275154 -0.00830502 0.21100001 161 85 107 0.000000
0.03324768 -0.00830502 0.21100001 160 84 106 0.000000
0.03390376 -0.00834438 0.21200001 160 84 106 0.000000
0.03456452 -0.00838375 0.21300001 161 84 104 0.000000
0.03523000 -0.00842311 0.21400002 163 86 106 0.000000
0.03573320 -0.00842311 0.21400002 166 89 109 0.000000
0.03640572 -0.00846247 0.21500000 163 86 106 0.000000
0.03708295 -0.00850183 0.21600001 162 85 105 0.000000
0.03759085 -0.00850183 0.21600001 159 82 102 0.000000
0.03827514 -0.00854119 0.21700001 159 81 107 0.000000
0.03878539 -0.00854119 0.21700001 160 82 108 0.000000
0.03929564 -0.00854119 0.21700001 160 82 108 0.000000
0.03998933 -0.00858055 0.21800001 160 82 108 0.000000
0.04050194 -0.00858055 0.21800001 156 86 106 0.000000
0.04101454 -0.00858055 0.21800001 159 89 109 0.000000
0.06480449 -0.01306762 0.33200002 72 65 59 0.000000
-0.03273949 -0.00780888 0.21100001 73 36 43 0.000000
-0.03209053 -0.00777187 0.21000001 78 41 48 0.000000
-0.03159674 -0.00777187 0.21000001 119 83 102 0.000000
-0.03110295 -0.00777187 0.21000001 124 88 107 0.000000
-0.03075491 -0.00780888 0.21100001 46 33 64 0.000000
-0.03025877 -0.00780888 0.21100001 46 33 64 0.000000
-0.02976262 -0.00780888 0.21100001 21 63 107 0.000000
-0.02926648 -0.00780888 0.21100001 26 68 112 0.000000
-0.02877034 -0.00780888 0.21100001 1 79 131 0.000000
-0.02827419 -0.00780888 0.21100001 0 83 138 0.000000
-0.02777805 -0.00780888 0.21100001 0 83 138 0.000000
-0.02741120 -0.00784589 0.21200001 0 81 138 0.000000
-0.02691271 -0.00784589 0.21200001 0 80 137 0.000000
-0.02641421 -0.00784589 0.21200001 0 81 138 0.000000
-0.02591572 -0.00784589 0.21200001 0 81 138 0.000000
-0.02541722 -0.00784589 0.21200001 0 83 138 0.000000
-0.02491872 -0.00784589 0.21200001 0 83 138 0.000000
-0.02453542 -0.00788290 0.21300001 0 83 138 0.000000
-0.02403457 -0.00788290 0.21300001 0 81 136 0.000000
-0.02353372 -0.00788290 0.21300001 0 82 138 0.000000
-0.02303288 -0.00788290 0.21300001 0 84 140 0.000000
-0.02253203 -0.00788290 0.21300001 0 87 145 0.000000
-0.02203118 -0.00788290 0.21300001 0 88 146 0.000000
-0.02153034 -0.00788290 0.21300001 0 88 148 0.000000
-0.02102949 -0.00788290 0.21300001 0 87 147 0.000000
-0.02052864 -0.00788290 0.21300001 0 87 147 0.000000
-0.02002779 -0.00788290 0.21300001 0 87 147 0.000000
-0.01952695 -0.00788290 0.21300001 0 86 146 0.000000
-0.01902610 -0.00788290 0.21300001 0 85 145 0.000000
-0.01852525 -0.00788290 0.21300001 0 86 146 0.000000
-0.01802441 -0.00788290 0.21300001 0 84 144 0.000000
-0.01752356 -0.00788290 0.21300001 0 84 144 0.000000
-0.01702271 -0.00788290 0.21300001 0 82 142 0.000000
-0.01652187 -0.00788290 0.21300001 0 80 141 0.000000
-0.01602102 -0.00788290 0.21300001 0 81 142 0.000000
-0.01552017 -0.00788290 0.21300001 0 81 138 0.000000
-0.01501933 -0.00788290 0.21300001 0 80 137 0.000000
-0.01389175 -0.00951129 0.25700000 66 15 17 0.000000
-0.01323574 -0.00947428 0.25600001 65 14 16 0.000000
-0.01263378 -0.00947428 0.25600001 63 12 14 0.000000
-0.01203183 -0.00947428 0.25600001 65 14 16 0.000000
-0.01142987 -0.00947428 0.25600001 65 14 14 0.000000
-0.01082791 -0.00947428 0.25600001 63 12 12 0.000000
-0.01022596 -0.00947428 0.25600001 62 13 12 0.000000
-0.00962400 -0.00947428 0.25600001 61 12 11 0.000000
-0.00902204 -0.00947428 0.25600001 61 12 11 0.000000
-0.00842009 -0.00947428 0.25600001 64 15 14 0.000000
-0.00784867 -0.00951129 0.25700000 64 15 14 0.000000
-0.00724436 -0.00951129 0.25700000 66 17 16 0.000000
-0.00664005 -0.00951129 0.25700000 65 16 17 0.000000
-0.00605923 -0.00954830 0.25800002 65 16 17 0.000000
-0.00545257 -0.00954830 0.25800002 66 17 18 0.000000
-0.00484591 -0.00954830 0.25800002 68 17 19 0.000000
-0.00423925 -0.00954830 0.25800002 67 16 18 0.000000
-0.00363259 -0.00954830 0.25800002 66 15 17 0.000000
-0.00302593 -0.00954830 0.25800002 68 17 19 0.000000
-0.00241927 -0.00954830 0.25800002 68 17 19 0.000000
-0.00181261 -0.00954830 0.25800002 69 18 20 0.000000
-0.00120128 -0.00951129 0.25700000 69 18 18 0.000000
-0.00059697 -0.00951129 0.25700000 72 21 21 0.000000
0.00000734 -0.00951129 0.25700000 70 16 17 0.000000
0.00061165 -0.00951129 0.25700000 71 17 18 0.000000
0.00121123 -0.00947428 0.25600001 72 19 17 0.000000
0.00181318 -0.00947428 0.25600001 72 19 17 0.000000
0.00241514 -0.00947428 0.25600001 74 21 19 0.000000
0.00301710 -0.00947428 0.25600001 72 19 17 0.000000
0.00361905 -0.00947428 0.25600001 75 22 20 0.000000
0.00422101 -0.00947428 0.25600001 75 22 20 0.000000
0.00482297 -0.00947428 0.25600001 75 21 22 0.000000
0.00542492 -0.00947428 0.25600001 74 20 21 0.000000
0.00602688 -0.00947428 0.25600001 75 21 22 0.000000
0.00662884 -0.00947428 0.25600001 74 20 21 0.000000
0.00723079 -0.00947428 0.25600001 73 18 17 0.000000
0.00783275 -0.00947428 0.25600001 75 20 19 0.000000
0.00843471 -0.00947428 0.25600001 76 21 20 0.000000
0.00903667 -0.00947428 0.25600001 76 21 20 0.000000
0.00963862 -0.00947428 0.25600001 78 20 18 0.000000
0.01024058 -0.00947428 0.25600001 77 19 17 0.000000
0.01084254 -0.00947428 0.25600001 77 19 15 0.000000
0.01144449 -0.00947428 0.25600001 78 20 16 0.000000
0.01204645 -0.00947428 0.25600001 78 20 16 0.000000
0.01264841 -0.00947428 0.25600001 78 20 16 0.000000
0.01325036 -0.00947428 0.25600001 80 22 20 0.000000
0.01385232 -0.00947428 0.25600001 79 21 19 0.000000
0.01439782 -0.00943727 0.25500003 79 21 19 0.000000
0.01499742 -0.00943727 0.25500003 79 21 19 0.000000
0.01553586 -0.00940026 0.25400001 81 23 21 0.000000
0.01613311 -0.00940026 0.25400001 80 22 20 0.000000
0.01666450 -0.00936326 0.25300002 82 22 20 0.000000
0.01719119 -0.00932625 0.25200000 80 20 18 0.000000
0.01771317 -0.00928924 0.25100002 80 20 18 0.000000
0.01830337 -0.00928924 0.25100002 79 19 17 0.000000
0.01881829 -0.00925223 0.25000000 82 20 21 0.000000
0.01932852 -0.00921522 0.24900001 82 20 21 0.000000
0.01983404 -0.00917821 0.24800001 83 18 20 0.000000
0.02041718 -0.00917821 0.24800001 84 19 21 0.000000
0.02091565 -0.00914120 0.24700001 86 19 22 0.000000
0.02140942 -0.00910419 0.24600001 87 20 23 0.000000
0.02198786 -0.00910419 0.24600001 87 20 23 0.000000
0.02247457 -0.00906718 0.24500000 86 19 20 0.000000
0.02305066 -0.00906718 0.24500000 86 19 20 0.000000
0.02353032 -0.00903018 0.24400002 87 20 21 0.000000
0.02410406 -0.00903018 0.24400002 91 24 25 0.000000
0.02457666 -0.00899317 0.24300002 92 25 26 0.000000
0.02514805 -0.00899317 0.24300002 94 27 28 0.000000
0.02561359 -0.00895616 0.24200001 101 28 31 0.000000
0.02607444 -0.00891915 0.24100001 102 29 32 0.000000
0.02653058 -0.00888214 0.24000001 108 31 37 0.000000
0.02825154 -0.00854906 0.23100001 123 40 51 0.000000
0.02794085 -0.00814196 0.22000001 125 42 53 0.000000
0.02878239 -0.00780888 0.21100001 131 44 65 0.000000
0.02927853 -0.00780888 0.21100001 169 89 110 0.000000
0.02963356 -0.00777187 0.21000001 169 89 110 0.000000
0.03012736 -0.00777187 0.21000001 164 87 107 0.000000
0.03076696 -0.00780888 0.21100001 166 89 109 0.000000
0.03126311 -0.00780888 0.21100001 162 86 108 0.000000
0.03175925 -0.00780888 0.21100001 165 89 111 0.000000
0.03240827 -0.00784589 0.21200001 163 87 109 0.000000
0.03290676 -0.00784589 0.21200001 162 86 108 0.000000
0.03356283 -0.00788290 0.21300001 163 86 108 0.000000
0.03406368 -0.00788290 0.21300001 162 85 107 0.000000
0.03472680 -0.00791991 0.21400002 161 84 106 0.000000
0.03539462 -0.00795692 0.21500000 166 89 111 0.000000
0.03590017 -0.00795692 0.21500000 165 89 109 0.000000
0.03657505 -0.00799393 0.21600001 162 86 106 0.000000
0.03708295 -0.00799393 0.21600001 160 84 104 0.000000
0.03759085 -0.00799393 0.21600001 158 82 102 0.000000
0.03827514 -0.00803093 0.21700001 159 79 102 0.000000
0.03878539 -0.00803093 0.21700001 159 79 102 0.000000
0.03947673 -0.00806794 0.21800001 162 82 105 0.000000
0.03998933 -0.00806794 0.21800001 162 82 105 0.000000
0.04050194 -0.00806794 0.21800001 155 87 106 0.000000
0.04101454 -0.00806794 0.21800001 161 93 112 0.000000
0.06499969 -0.01232397 0.33300000 71 64 58 0.000000
-0.03323563 -0.00731274 0.21100001 70 39 39 0.000000
-0.03273949 -0.00731274 0.21100001 71 34 43 0.000000
-0.03209053 -0.00727808 0.21000001 97 60 69 0.000000
-0.03159674 -0.00727808 0.21000001 128 90 107 0.000000
-0.03110295 -0.00727808 0.21000001 115 77 94 0.000000
-0.03075491 -0.00731274 0.21100001 36 25 58 0.000000
-0.03025877 -0.00731274 0.21100001 48 37 70 0.000000
-0.02976262 -0.00731274 0.21100001 21 67 114 0.000000
-0.02940518 -0.00734739 0.21200001 21 67 114 0.000000
-0.02890669 -0.00734739 0.21200001 1 78 133 0.000000
-0.02840819 -0.00734739 0.21200001 0 83 138 0.000000
-0.02790970 -0.00734739 0.21200001 0 83 138 0.000000
-0.02741120 -0.00734739 0.21200001 1 84 141 0.000000
-0.02691271 -0.00734739 0.21200001 1 84 141 0.000000
-0.02641421 -0.00734739 0.21200001 0 84 140 0.000000
-0.02591572 -0.00734739 0.21200001 0 85 141 0.000000
-0.02541722 -0.00734739 0.21200001 0 84 140 0.000000
-0.02503626 -0.00738205 0.21300001 0 86 142 0.000000
-0.02453542 -0.00738205 0.21300001 1 87 143 0.000000
-0.02403457 -0.00738205 0.21300001 1 87 143 0.000000
-0.02353372 -0.00738205 0.21300001 0 84 143 0.000000
-0.02303288 -0.00738205 0.21300001 0 85 144 0.000000
-0.02253203 -0.00738205 0.21300001 0 88 148 0.000000
-0.02203118 -0.00738205 0.21300001 0 88 148 0.000000
-0.02153034 -0.00738205 0.21300001 0 88 151 0.000000
-0.02102949 -0.00738205 0.21300001 0 87 150 0.000000
-0.02052864 -0.00738205 0.21300001 0 86 149 0.000000
-0.02002779 -0.00738205 0.21300001 0 86 149 0.000000
-0.01952695 -0.00738205 0.21300001 0 86 149 0.000000
-0.01902610 -0.00738205 0.21300001 0 85 148 0.000000
-0.01852525 -0.00738205 0.21300001 0 85 148 0.000000
-0.01802441 -0.00738205 0.21300001 0 85 148 0.000000
-0.01752356 -0.00738205 0.21300001 0 84 147 0.000000
-0.01702271 -0.00738205 0.21300001 0 83 146 0.000000
-0.01652187 -0.00738205 0.21300001 0 82 142 0.000000
-0.01602102 -0.00738205 0.21300001 0 85 145 0.000000
-0.01552017 -0.00738205 0.21300001 0 86 142 0.000000
-0.01508984 -0.00741671 0.21400002 0 85 141 0.000000
-0.01455246 -0.00894164 0.25800002 67 22 27 0.000000
-0.01389175 -0.00890698 0.25700000 67 18 17 0.000000
-0.01328744 -0.00890698 0.25700000 65 16 15 0.000000
-0.01268313 -0.00890698 0.25700000 66 15 15 0.000000
-0.01203183 -0.00887232 0.25600001 67 16 16 0.000000
-0.01142987 -0.00887232 0.25600001 65 14 16 0.000000
-0.01082791 -0.00887232 0.25600001 65 14 16 0.000000
-0.01022596 -0.00887232 0.25600001 63 12 12 0.000000
-0.00962400 -0.00887232 0.25600001 62 11 11 0.000000
-0.00902204 -0.00887232 0.25600001 62 11 11 0.000000
-0.00845298 -0.00890698 0.25700000 65 14 14 0.000000
-0.00784867 -0.00890698 0.25700000 65 14 14 0.000000
-0.00724436 -0.00890698 0.25700000 67 16 16 0.000000
-0.00664005 -0.00890698 0.25700000 67 16 18 0.000000
-0.00603574 -0.00890698 0.25700000 66 15 17 0.000000
-0.00545257 -0.00894164 0.25800002 66 15 17 0.000000
-0.00484591 -0.00894164 0.25800002 67 16 18 0.000000
-0.00423925 -0.00894164 0.25800002 67 16 18 0.000000
-0.00363259 -0.00894164 0.25800002 65 14 16 0.000000
-0.00302593 -0.00894164 0.25800002 67 16 18 0.000000
-0.00240989 -0.00890698 0.25700000 68 17 17 0.000000
-0.00180558 -0.00890698 0.25700000 69 18 18 0.000000
-0.00120128 -0.00890698 0.25700000 68 17 17 0.000000
-0.00059697 -0.00890698 0.25700000 68 17 17 0.000000
0.00000734 -0.00890698 0.25700000 69 15 16 0.000000
0.00060927 -0.00887232 0.25600001 70 16 17 0.000000
0.00121123 -0.00887232 0.25600001 71 17 18 0.000000
0.00181318 -0.00887232 0.25600001 72 18 19 0.000000
0.00241514 -0.00887232 0.25600001 72 18 19 0.000000
0.00301710 -0.00887232 0.25600001 72 18 19 0.000000
0.00361905 -0.00887232 0.25600001 74 21 19 0.000000
0.00422101 -0.00887232 0.25600001 74 21 19 0.000000
0.00482297 -0.00887232 0.25600001 74 20 21 0.000000
0.00542492 -0.00887232 0.25600001 72 18 19 0.000000
0.00602688 -0.00887232 0.25600001 72 18 19 0.000000
0.00660294 -0.00883767 0.25500003 72 18 19 0.000000
0.00723079 -0.00887232 0.25600001 74 20 21 0.000000
0.00783275 -0.00887232 0.25600001 72 18 19 0.000000
0.00843471 -0.00887232 0.25600001 75 20 19 0.000000
0.00903667 -0.00887232 0.25600001 77 22 21 0.000000
0.00963862 -0.00887232 0.25600001 77 22 19 0.000000
0.01024058 -0.00887232 0.25600001 76 21 18 0.000000
0.01084254 -0.00887232 0.25600001 76 21 16 0.000000
0.01144449 -0.00887232 0.25600001 77 22 17 0.000000
0.01204645 -0.00887232 0.25600001 78 20 16 0.000000
0.01264841 -0.00887232 0.25600001 78 20 16 0.000000
0.01319860 -0.00883767 0.25500003 78 20 18 0.000000
0.01379821 -0.00883767 0.25500003 80 22 20 0.000000
0.01434135 -0.00880301 0.25400001 80 22 22 0.000000
0.01493861 -0.00880301 0.25400001 80 22 22 0.000000
0.01547470 -0.00876835 0.25300002 80 22 22 0.000000
0.01606960 -0.00876835 0.25300002 80 22 22 0.000000
0.01659863 -0.00873369 0.25200000 82 22 22 0.000000
0.01712297 -0.00869904 0.25100002 82 22 22 0.000000
0.01764259 -0.00866438 0.25000000 83 21 22 0.000000
0.01815752 -0.00862972 0.24900001 82 20 21 0.000000
0.01866775 -0.00859506 0.24800001 83 21 22 0.000000
0.01925089 -0.00859506 0.24800001 82 20 21 0.000000
0.01975406 -0.00856041 0.24700001 83 18 20 0.000000
0.02025253 -0.00852575 0.24600001 84 19 21 0.000000
0.02083097 -0.00852575 0.24600001 86 20 25 0.000000
0.02132238 -0.00849109 0.24500000 86 20 25 0.000000
0.02180910 -0.00845643 0.24400002 84 19 21 0.000000
0.02238283 -0.00845643 0.24400002 86 19 22 0.000000
0.02286249 -0.00842178 0.24300002 86 19 22 0.000000
0.02343388 -0.00842178 0.24300002 87 20 23 0.000000
0.02390648 -0.00838712 0.24200001 90 23 26 0.000000
0.02447552 -0.00838712 0.24200001 92 25 28 0.000000
0.02494107 -0.00835246 0.24100001 93 26 29 0.000000
0.02540191 -0.00831780 0.24000001 98 25 30 0.000000
0.02596625 -0.00831780 0.24000001 102 29 34 0.000000
0.02642004 -0.00828315 0.23900001 110 30 40 0.000000
0.02675623 -0.00821383 0.23700002 110 30 40 0.000000
0.02817145 -0.00783260 0.22600001 128 42 54 0.000000
0.02882248 -0.00745137 0.21500000 114 30 48 0.000000
0.02905521 -0.00738205 0.21300001 139 55 73 0.000000
0.02941729 -0.00734739 0.21200001 168 91 113 0.000000
0.02991579 -0.00734739 0.21200001 164 87 109 0.000000
0.03041429 -0.00734739 0.21200001 165 89 111 0.000000
0.03091278 -0.00734739 0.21200001 163 87 109 0.000000
0.03141128 -0.00734739 0.21200001 163 87 109 0.000000
0.03206029 -0.00738205 0.21300001 162 86 108 0.000000
0.03256114 -0.00738205 0.21300001 163 87 109 0.000000
0.03306198 -0.00738205 0.21300001 163 87 109 0.000000
0.03372040 -0.00741671 0.21400002 164 87 109 0.000000
0.03422360 -0.00741671 0.21400002 164 87 109 0.000000
0.03488907 -0.00745137 0.21500000 164 87 109 0.000000
0.03539462 -0.00745137 0.21500000 164 87 109 0.000000
0.03606715 -0.00748602 0.21600001 164 87 109 0.000000
0.03657505 -0.00748602 0.21600001 164 87 109 0.000000
0.03708295 -0.00748602 0.21600001 161 84 106 0.000000
0.03776488 -0.00752068 0.21700001 159 82 104 0.000000
0.03827514 -0.00752068 0.21700001 162 82 105 0.000000
0.03878539 -0.00752068 0.21700001 161 81 104 0.000000
0.03929564 -0.00752068 0.21700001 162 82 105 0.000000
0.03998933 -0.00755534 0.21800001 163 83 106 0.000000
0.04050194 -0.00755534 0.21800001 154 89 107 0.000000
0.04101454 -0.00755534 0.21800001 152 87 105 0.000000
0.06519489 -0.01157561 0.33400002 70 66 57 0.000000
-0.03421137 -0.00691351 0.21400002 68 34 42 0.000000
-0.03307812 -0.00678429 0.21000001 69 35 43 0.000000
-0.03258432 -0.00678429 0.21000001 73 34 43 0.000000
-0.03209053 -0.00678429 0.21000001 121 82 91 0.000000
-0.03159674 -0.00678429 0.21000001 127 89 106 0.000000
-0.03125106 -0.00681659 0.21100001 101 63 80 0.000000
-0.03075491 -0.00681659 0.21100001 33 28 61 0.000000
-0.03025877 -0.00681659 0.21100001 48 43 76 0.000000
-0.02990368 -0.00684890 0.21200001 18 68 116 0.000000
-0.02940518 -0.00684890 0.21200001 18 68 116 0.000000
-0.02890669 -0.00684890 0.21200001 0 77 132 0.000000
-0.02840819 -0.00684890 0.21200001 0 83 138 0.000000
-0.02790970 -0.00684890 0.21200001 0 83 138 0.000000
-0.02741120 -0.00684890 0.21200001 1 84 141 0.000000
-0.02691271 -0.00684890 0.21200001 0 83 140 0.000000
-0.02641421 -0.00684890 0.21200001 0 82 138 0.000000
-0.02603796 -0.00688120 0.21300001 0 85 141 0.000000
-0.02553711 -0.00688120 0.21300001 0 84 140 0.000000
-0.02503626 -0.00688120 0.21300001 0 85 141 0.000000
-0.02453542 -0.00688120 0.21300001 0 85 144 0.000000
-0.02403457 -0.00688120 0.21300001 0 85 144 0.000000
-0.02353372 -0.00688120 0.21300001 0 86 146 0.000000
-0.02303288 -0.00688120 0.21300001 0 87 147 0.000000
-0.02253203 -0.00688120 0.21300001 0 88 151 0.000000
-0.02203118 -0.00688120 0.21300001 0 88 151 0.000000
-0.02153034 -0.00688120 0.21300001 0 90 153 0.000000
-0.02102949 -0.00688120 0.21300001 0 90 153 0.000000
-0.02052864 -0.00688120 0.21300001 0 89 152 0.000000
-0.02002779 -0.00688120 0.21300001 0 89 152 0.000000
-0.01952695 -0.00688120 0.21300001 0 89 150 0.000000
-0.01902610 -0.00688120 0.21300001 0 89 150 0.000000
-0.01852525 -0.00688120 0.21300001 0 89 150 0.000000
-0.01802441 -0.00688120 0.21300001 0 87 148 0.000000
-0.01752356 -0.00688120 0.21300001 0 86 148 0.000000
-0.01702271 -0.00688120 0.21300001 0 86 148 0.000000
-0.01652187 -0.00688120 0.21300001 0 83 146 0.000000
-0.01609624 -0.00691351 0.21400002 0 85 148 0.000000
-0.01559304 -0.00691351 0.21400002 1 87 143 0.000000
-0.01508984 -0.00691351 0.21400002 0 86 142 0.000000
-0.01515912 -0.00833498 0.25800002 71 23 27 0.000000
-0.01455246 -0.00833498 0.25800002 69 21 25 0.000000
-0.01389175 -0.00830267 0.25700000 71 22 21 0.000000
-0.01328744 -0.00830267 0.25700000 69 20 19 0.000000
-0.01268313 -0.00830267 0.25700000 68 17 17 0.000000
-0.01207883 -0.00830267 0.25700000 68 17 17 0.000000
-0.01147452 -0.00830267 0.25700000 69 18 18 0.000000
-0.01087021 -0.00830267 0.25700000 67 16 16 0.000000
-0.01026590 -0.00830267 0.25700000 66 15 15 0.000000
-0.00966159 -0.00830267 0.25700000 63 12 12 0.000000
-0.00905728 -0.00830267 0.25700000 62 11 11 0.000000
-0.00845298 -0.00830267 0.25700000 65 14 14 0.000000
-0.00784867 -0.00830267 0.25700000 65 14 14 0.000000
-0.00724436 -0.00830267 0.25700000 66 15 15 0.000000
-0.00664005 -0.00830267 0.25700000 67 16 16 0.000000
-0.00603574 -0.00830267 0.25700000 65 14 14 0.000000
-0.00543143 -0.00830267 0.25700000 65 14 16 0.000000
-0.00482713 -0.00830267 0.25700000 65 14 16 0.000000
-0.00422282 -0.00830267 0.25700000 67 16 18 0.000000
-0.00361851 -0.00830267 0.25700000 67 16 16 0.000000
-0.00301420 -0.00830267 0.25700000 66 15 15 0.000000
-0.00240989 -0.00830267 0.25700000 67 16 16 0.000000
-0.00179856 -0.00827037 0.25600001 68 17 17 0.000000
-0.00119660 -0.00827037 0.25600001 69 18 18 0.000000
-0.00059465 -0.00827037 0.25600001 70 19 19 0.000000
0.00000731 -0.00827037 0.25600001 69 18 18 0.000000
0.00060927 -0.00827037 0.25600001 68 17 17 0.000000
0.00121123 -0.00827037 0.25600001 69 18 18 0.000000
0.00181318 -0.00827037 0.25600001 70 19 19 0.000000
0.00241514 -0.00827037 0.25600001 69 18 18 0.000000
0.00301710 -0.00827037 0.25600001 69 18 18 0.000000
0.00361905 -0.00827037 0.25600001 72 19 17 0.000000
0.00422101 -0.00827037 0.25600001 71 18 16 0.000000
0.00482297 -0.00827037 0.25600001 71 18 16 0.000000
0.00542492 -0.00827037 0.25600001 72 19 17 0.000000
0.00602688 -0.00827037 0.25600001 72 18 19 0.000000
0.00662884 -0.00827037 0.25600001 72 18 19 0.000000
0.00723079 -0.00827037 0.25600001 75 21 22 0.000000
0.00783275 -0.00827037 0.25600001 74 20 21 0.000000
0.00843471 -0.00827037 0.25600001 75 22 20 0.000000
0.00907196 -0.00830267 0.25700000 74 21 19 0.000000
0.00967627 -0.00830267 0.25700000 74 21 17 0.000000
0.01024058 -0.00827037 0.25600001 76 23 19 0.000000
0.01084254 -0.00827037 0.25600001 76 23 19 0.000000
0.01144449 -0.00827037 0.25600001 77 24 20 0.000000
0.01204645 -0.00827037 0.25600001 78 23 20 0.000000
0.01264841 -0.00827037 0.25600001 77 22 19 0.000000
0.01319860 -0.00823806 0.25500003 77 22 19 0.000000
0.01374410 -0.00820576 0.25400001 79 24 21 0.000000
0.01428489 -0.00817345 0.25300002 79 24 23 0.000000
0.01487979 -0.00817345 0.25300002 77 22 21 0.000000
0.01541353 -0.00814114 0.25200000 79 21 21 0.000000
0.01594257 -0.00810884 0.25100002 80 22 22 0.000000
0.01646690 -0.00807653 0.25000000 83 23 23 0.000000
0.01705475 -0.00807653 0.25000000 82 22 22 0.000000
0.01757202 -0.00804423 0.24900001 82 22 22 0.000000
0.01808460 -0.00801192 0.24800001 80 20 20 0.000000
0.01859247 -0.00797961 0.24700001 82 22 22 0.000000
0.01909564 -0.00794731 0.24600001 80 20 20 0.000000
0.01959411 -0.00791500 0.24500000 82 20 21 0.000000
0.02017020 -0.00791500 0.24500000 83 21 22 0.000000
0.02066161 -0.00788269 0.24400002 84 21 25 0.000000
0.02114833 -0.00785039 0.24300002 83 20 24 0.000000
0.02171971 -0.00785039 0.24300002 82 19 23 0.000000
