-0.06096562 -0.05330693 0.12900001 254 254 254 0.000000
-0.06113254 -0.05372016 0.13000001 254 255 251 0.000000
-0.06098672 -0.05413339 0.13100001 254 255 251 0.000000
-0.06097961 -0.05495985 0.13300000 254 255 251 0.000000
-0.06066687 -0.05495985 0.13300000 254 255 251 0.000000
-0.05807573 -0.05372016 0.13000001 254 211 234 0.000000
-0.05732566 -0.05330693 0.12900001 249 206 229 0.000000
-0.05658029 -0.05289369 0.12800001 249 180 207 0.000000
-0.05627932 -0.05289369 0.12800001 248 179 206 0.000000
-0.05597834 -0.05289369 0.12800001 252 169 199 0.000000
-0.05567736 -0.05289369 0.12800001 249 166 196 0.000000
-0.05537638 -0.05289369 0.12800001 250 156 184 0.000000
-0.05507540 -0.05289369 0.12800001 249 155 183 0.000000
-0.05447344 -0.05289369 0.12800001 248 147 175 0.000000
-0.05417246 -0.05289369 0.12800001 250 145 170 0.000000
-0.05387149 -0.05289369 0.12800001 247 142 167 0.000000
-0.05357051 -0.05289369 0.12800001 246 136 158 0.000000
-0.05326953 -0.05289369 0.12800001 240 130 152 0.000000
-0.05296855 -0.05289369 0.12800001 237 128 143 0.000000
-0.05266757 -0.05289369 0.12800001 240 131 146 0.000000
-0.05236660 -0.05289369 0.12800001 237 131 145 0.000000
-0.05206561 -0.05289369 0.12800001 233 127 141 0.000000
-0.05176464 -0.05289369 0.12800001 231 125 137 0.000000
-0.05146366 -0.05289369 0.12800001 227 121 133 0.000000
-0.05116268 -0.05289369 0.12800001 221 119 127 0.000000
-0.05086171 -0.05289369 0.12800001 221 119 127 0.000000
-0.05056072 -0.05289369 0.12800001 216 114 122 0.000000
-0.05025975 -0.05289369 0.12800001 217 115 123 0.000000
-0.04995877 -0.05289369 0.12800001 215 113 121 0.000000
-0.04965779 -0.05289369 0.12800001 213 111 119 0.000000
-0.04935681 -0.05289369 0.12800001 212 111 121 0.000000
-0.04905583 -0.05289369 0.12800001 210 109 119 0.000000
-0.04875486 -0.05289369 0.12800001 206 108 117 0.000000
-0.04845387 -0.05289369 0.12800001 206 108 117 0.000000
-0.04815289 -0.05289369 0.12800001 204 106 115 0.000000
-0.04822576 -0.05330693 0.12900001 203 105 114 0.000000
-0.04829393 -0.05372016 0.13000001 198 101 110 0.000000
-0.04798824 -0.05372016 0.13000001 202 105 114 0.000000
-0.04804935 -0.05413339 0.13100001 201 107 115 0.000000
-0.04774132 -0.05413339 0.13100001 198 104 112 0.000000
-0.04779537 -0.05454662 0.13200000 192 101 108 0.000000
-0.04748499 -0.05454662 0.13200000 192 101 108 0.000000
-0.04717460 -0.05454662 0.13200000 192 101 110 0.000000
-0.04721925 -0.05495985 0.13300000 195 104 113 0.000000
-0.04690651 -0.05495985 0.13300000 193 104 112 0.000000
-0.04659378 -0.05495985 0.13300000 192 103 111 0.000000
-0.04628104 -0.05495985 0.13300000 191 102 110 0.000000
-0.04596831 -0.05495985 0.13300000 191 102 110 0.000000
-0.04565557 -0.05495985 0.13300000 185 99 108 0.000000
-0.04534284 -0.05495985 0.13300000 190 104 113 0.000000
-0.04503010 -0.05495985 0.13300000 188 102 114 0.000000
-0.04438115 -0.05454662 0.13200000 192 106 118 0.000000
-0.04407076 -0.05454662 0.13200000 192 109 120 0.000000
-0.04376037 -0.05454662 0.13200000 189 106 117 0.000000
-0.04344999 -0.05454662 0.13200000 193 113 125 0.000000
-0.04281280 -0.05413339 0.13100001 188 108 120 0.000000
-0.03978156 -0.05826571 0.14100000 151 89 99 0.000000
-0.03945002 -0.05826571 0.14100000 151 89 99 0.000000
-0.03906201 -0.05867894 0.14200000 148 86 94 0.000000
-0.03845537 -0.05826571 0.14100000 152 90 98 0.000000
-0.03812383 -0.05826571 0.14100000 148 86 94 0.000000
-0.03779228 -0.05826571 0.14100000 147 85 93 0.000000
-0.03746074 -0.05826571 0.14100000 151 89 97 0.000000
-0.03712919 -0.05826571 0.14100000 151 91 99 0.000000
-0.03679764 -0.05826571 0.14100000 149 89 97 0.000000
-0.03646610 -0.05826571 0.14100000 148 88 96 0.000000
-0.03587827 -0.05785248 0.14000000 148 88 96 0.000000
-0.03554908 -0.05785248 0.14000000 144 87 94 0.000000
-0.03521989 -0.05785248 0.14000000 144 87 94 0.000000
-0.03489069 -0.05785248 0.14000000 147 90 97 0.000000
-0.03456150 -0.05785248 0.14000000 144 87 94 0.000000
-0.03423230 -0.05785248 0.14000000 146 89 96 0.000000
-0.03390310 -0.05785248 0.14000000 146 89 96 0.000000
-0.03357391 -0.05785248 0.14000000 143 88 94 0.000000
-0.03324471 -0.05785248 0.14000000 143 88 94 0.000000
-0.03291552 -0.05785248 0.14000000 138 86 91 0.000000
-0.03230619 -0.06239803 0.15100001 140 92 96 0.000000
-0.03195113 -0.06239803 0.15100001 136 91 94 0.000000
-0.03159608 -0.06239803 0.15100001 136 91 94 0.000000
-0.03124101 -0.06239803 0.15100001 138 93 96 0.000000
-0.03088595 -0.06239803 0.15100001 133 88 91 0.000000
-0.03053089 -0.06239803 0.15100001 132 87 90 0.000000
-0.03017583 -0.06239803 0.15100001 138 93 96 0.000000
-0.02982077 -0.06239803 0.15100001 136 92 92 0.000000
-0.08443196 -0.06122120 0.14900000 0 201 248 0.000000
-0.08408160 -0.06122120 0.14900000 9 215 255 0.000000
-0.08373124 -0.06122120 0.14900000 5 211 252 0.000000
-0.08338088 -0.06122120 0.14900000 75 194 214 0.000000
-0.08303052 -0.06122120 0.14900000 166 255 255 0.000000
-0.08212526 -0.06081032 0.14800000 231 248 255 0.000000
-0.08177726 -0.06081032 0.14800000 232 249 255 0.000000
-0.08142926 -0.06081032 0.14800000 255 247 253 0.000000
-0.07964226 -0.05998857 0.14600001 248 233 234 0.000000
-0.07929895 -0.05998857 0.14600001 244 229 230 0.000000
-0.07841485 -0.05957768 0.14500001 252 224 233 0.000000
-0.07807391 -0.05957768 0.14500001 251 223 232 0.000000
-0.07719687 -0.05916680 0.14400001 250 217 230 0.000000
-0.07685826 -0.05916680 0.14400001 248 215 228 0.000000
-0.07651966 -0.05916680 0.14400001 249 214 228 0.000000
-0.07618105 -0.05916680 0.14400001 251 216 230 0.000000
-0.07531577 -0.05875592 0.14300001 248 213 227 0.000000
-0.07497952 -0.05875592 0.14300001 254 219 233 0.000000
-0.07464328 -0.05875592 0.14300001 255 220 234 0.000000
-0.06653132 -0.05382536 0.13100001 241 218 230 0.000000
-0.06622328 -0.05382536 0.13100001 253 230 242 0.000000
-0.06510639 -0.05341448 0.13000001 255 253 254 0.000000
-0.06480071 -0.05341448 0.13000001 254 254 254 0.000000
-0.06449503 -0.05341448 0.13000001 254 254 254 0.000000
-0.06418935 -0.05341448 0.13000001 254 254 254 0.000000
-0.06388367 -0.05341448 0.13000001 254 254 254 0.000000
-0.06357799 -0.05341448 0.13000001 254 254 254 0.000000
-0.06278560 -0.05300360 0.12900001 254 254 254 0.000000
-0.06248226 -0.05300360 0.12900001 254 254 254 0.000000
-0.06217894 -0.05300360 0.12900001 254 254 254 0.000000
-0.06187561 -0.05300360 0.12900001 254 254 254 0.000000
-0.06157228 -0.05300360 0.12900001 254 254 254 0.000000
-0.06126894 -0.05300360 0.12900001 254 254 254 0.000000
-0.06096562 -0.05300360 0.12900001 254 254 254 0.000000
-0.06066228 -0.05300360 0.12900001 254 255 251 0.000000
-0.06082685 -0.05341448 0.13000001 254 255 251 0.000000
-0.06098672 -0.05382536 0.13100001 254 255 251 0.000000
-0.05762899 -0.05300360 0.12900001 255 214 236 0.000000
-0.05732566 -0.05300360 0.12900001 241 195 217 0.000000
-0.05658029 -0.05259271 0.12800001 251 185 211 0.000000
-0.05627932 -0.05259271 0.12800001 243 177 203 0.000000
-0.05597834 -0.05259271 0.12800001 251 168 198 0.000000
-0.05567736 -0.05259271 0.12800001 245 162 192 0.000000
-0.05537638 -0.05259271 0.12800001 248 153 185 0.000000
-0.05507540 -0.05259271 0.12800001 246 151 183 0.000000
-0.05434650 -0.05218183 0.12700000 249 148 176 0.000000
-0.05387149 -0.05259271 0.12800001 248 140 168 0.000000
-0.05357051 -0.05259271 0.12800001 247 135 158 0.000000
-0.05326953 -0.05259271 0.12800001 244 132 155 0.000000
-0.05296855 -0.05259271 0.12800001 248 137 155 0.000000
-0.05266757 -0.05259271 0.12800001 238 127 145 0.000000
-0.05236660 -0.05259271 0.12800001 236 127 142 0.000000
-0.05206561 -0.05259271 0.12800001 235 126 141 0.000000
-0.05176464 -0.05259271 0.12800001 231 125 139 0.000000
-0.05146366 -0.05259271 0.12800001 230 124 138 0.000000
-0.05116268 -0.05259271 0.12800001 219 118 128 0.000000
-0.05086171 -0.05259271 0.12800001 216 115 125 0.000000
-0.05056072 -0.05259271 0.12800001 215 115 122 0.000000
-0.05025975 -0.05259271 0.12800001 216 116 123 0.000000
-0.04995877 -0.05259271 0.12800001 219 119 126 0.000000
-0.04965779 -0.05259271 0.12800001 214 114 121 0.000000
-0.04935681 -0.05259271 0.12800001 211 113 122 0.000000
-0.04905583 -0.05259271 0.12800001 208 110 119 0.000000
-0.04815289 -0.05259271 0.12800001 206 108 117 0.000000
-0.04822576 -0.05300360 0.12900001 205 107 116 0.000000
-0.04792243 -0.05300360 0.12900001 204 107 116 0.000000
-0.04798824 -0.05341448 0.13000001 200 103 112 0.000000
-0.04768256 -0.05341448 0.13000001 197 103 111 0.000000
-0.04774132 -0.05382536 0.13100001 196 102 110 0.000000
-0.04743329 -0.05382536 0.13100001 192 101 108 0.000000
-0.04748499 -0.05423623 0.13200000 192 101 108 0.000000
-0.04717460 -0.05423623 0.13200000 195 104 113 0.000000
-0.04686422 -0.05423623 0.13200000 194 103 112 0.000000
-0.04690651 -0.05464711 0.13300000 193 102 111 0.000000
-0.04659378 -0.05464711 0.13300000 192 101 110 0.000000
-0.04628104 -0.05464711 0.13300000 190 101 109 0.000000
-0.04596831 -0.05464711 0.13300000 190 101 109 0.000000
-0.04531230 -0.05423623 0.13200000 188 102 111 0.000000
-0.04500191 -0.05423623 0.13200000 188 102 111 0.000000
-0.04469153 -0.05423623 0.13200000 196 109 121 0.000000
-0.04438115 -0.05423623 0.13200000 192 105 117 0.000000
-0.04407076 -0.05423623 0.13200000 195 108 120 0.000000
-0.04376037 -0.05423623 0.13200000 190 103 115 0.000000
-0.04312083 -0.05382536 0.13100001 191 105 119 0.000000
-0.04281280 -0.05382536 0.13100001 194 108 122 0.000000
-0.04250477 -0.05382536 0.13100001 187 104 117 0.000000
-0.04219673 -0.05382536 0.13100001 185 102 115 0.000000
-0.04188870 -0.05382536 0.13100001 175 97 108 0.000000
-0.04188855 -0.05587976 0.13600001 164 93 102 0.000000
-0.03945002 -0.05793416 0.14100000 144 82 90 0.000000
-0.03911847 -0.05793416 0.14100000 147 85 95 0.000000
-0.03878692 -0.05793416 0.14100000 151 89 99 0.000000
-0.03845537 -0.05793416 0.14100000 151 91 101 0.000000
-0.03779228 -0.05793416 0.14100000 148 88 98 0.000000
-0.03746074 -0.05793416 0.14100000 150 90 100 0.000000
-0.03712919 -0.05793416 0.14100000 151 91 101 0.000000
-0.03679764 -0.05793416 0.14100000 149 89 99 0.000000
-0.03646610 -0.05793416 0.14100000 143 86 95 0.000000
-0.03587827 -0.05752328 0.14000000 144 87 96 0.000000
-0.03554908 -0.05752328 0.14000000 148 91 100 0.000000
-0.03521989 -0.05752328 0.14000000 146 89 98 0.000000
-0.03489069 -0.05752328 0.14000000 146 89 96 0.000000
-0.03456150 -0.05752328 0.14000000 141 84 91 0.000000
-0.03423230 -0.05752328 0.14000000 144 87 94 0.000000
-0.03390310 -0.05752328 0.14000000 143 86 93 0.000000
-0.03357391 -0.05752328 0.14000000 146 91 97 0.000000
-0.03324471 -0.05752328 0.14000000 143 88 94 0.000000
-0.03266126 -0.06204297 0.15100001 142 94 98 0.000000
-0.03230619 -0.06204297 0.15100001 142 94 98 0.000000
-0.03195113 -0.06204297 0.15100001 135 92 94 0.000000
-0.03159608 -0.06204297 0.15100001 139 96 98 0.000000
-0.03124101 -0.06204297 0.15100001 139 96 98 0.000000
-0.03088595 -0.06204297 0.15100001 138 95 97 0.000000
-0.03053089 -0.06204297 0.15100001 139 96 98 0.000000
-0.03017583 -0.06204297 0.15100001 134 91 93 0.000000
-0.02982077 -0.06204297 0.15100001 131 89 88 0.000000
-0.02946571 -0.06204297 0.15100001 127 85 84 0.000000
-0.02911065 -0.06204297 0.15100001 129 83 77 0.000000
-0.02875559 -0.06204297 0.15100001 128 82 76 0.000000
-0.02840053 -0.06204297 0.15100001 129 79 74 0.000000
-0.08443196 -0.06087085 0.14900000 2 213 255 0.000000
-0.08408160 -0.06087085 0.14900000 9 219 254 0.000000
-0.08373124 -0.06087085 0.14900000 3 213 248 0.000000
-0.08338088 -0.06087085 0.14900000 74 195 215 0.000000
-0.08303052 -0.06087085 0.14900000 160 255 255 0.000000
-0.08268017 -0.06087085 0.14900000 229 246 255 0.000000
-0.08177726 -0.06046232 0.14800000 227 244 255 0.000000
-0.08142926 -0.06046232 0.14800000 255 247 255 0.000000
-0.08053340 -0.06005379 0.14700000 255 247 255 0.000000
-0.07964226 -0.05964526 0.14600001 255 240 247 0.000000
-0.07929895 -0.05964526 0.14600001 243 227 234 0.000000
-0.07841485 -0.05923673 0.14500001 248 225 237 0.000000
-0.07807391 -0.05923673 0.14500001 244 221 233 0.000000
-0.07719687 -0.05882820 0.14400001 249 218 235 0.000000
-0.07685826 -0.05882820 0.14400001 249 218 235 0.000000
-0.07651966 -0.05882820 0.14400001 253 220 235 0.000000
-0.07618105 -0.05882820 0.14400001 254 221 236 0.000000
-0.07531577 -0.05841967 0.14300001 253 218 234 0.000000
-0.07054497 -0.05596850 0.13700001 255 224 239 0.000000
-0.06653132 -0.05351733 0.13100001 243 227 234 0.000000
-0.06622328 -0.05351733 0.13100001 255 242 249 0.000000
-0.06591525 -0.05351733 0.13100001 253 252 252 0.000000
-0.06510639 -0.05310880 0.13000001 255 254 254 0.000000
-0.06480071 -0.05310880 0.13000001 254 254 254 0.000000
-0.06449503 -0.05310880 0.13000001 254 254 254 0.000000
-0.06418935 -0.05310880 0.13000001 254 254 254 0.000000
-0.06388367 -0.05310880 0.13000001 254 254 254 0.000000
-0.06357799 -0.05310880 0.13000001 254 254 254 0.000000
-0.06278560 -0.05270027 0.12900001 254 254 254 0.000000
-0.06248226 -0.05270027 0.12900001 254 254 254 0.000000
-0.06217894 -0.05270027 0.12900001 254 254 254 0.000000
-0.06187561 -0.05270027 0.12900001 254 255 251 0.000000
-0.06157228 -0.05270027 0.12900001 254 255 251 0.000000
-0.06126894 -0.05270027 0.12900001 254 255 251 0.000000
-0.06096562 -0.05270027 0.12900001 254 255 251 0.000000
-0.06066228 -0.05270027 0.12900001 254 255 251 0.000000
-0.06082685 -0.05310880 0.13000001 254 255 251 0.000000
-0.06052118 -0.05310880 0.13000001 254 255 251 0.000000
-0.06037066 -0.05351733 0.13100001 254 255 251 0.000000
-0.05944656 -0.05351733 0.13100001 247 243 244 0.000000
-0.05762899 -0.05270027 0.12900001 255 215 235 0.000000
-0.05688127 -0.05229174 0.12800001 246 199 219 0.000000
-0.05658029 -0.05229174 0.12800001 254 188 214 0.000000
-0.05627932 -0.05229174 0.12800001 243 177 203 0.000000
-0.05597834 -0.05229174 0.12800001 250 164 195 0.000000
-0.05567736 -0.05229174 0.12800001 244 158 189 0.000000
-0.05537638 -0.05229174 0.12800001 248 153 185 0.000000
-0.05464512 -0.05188321 0.12700000 248 153 185 0.000000
-0.05357051 -0.05229174 0.12800001 248 132 156 0.000000
-0.05326953 -0.05229174 0.12800001 247 131 155 0.000000
-0.05296855 -0.05229174 0.12800001 245 130 147 0.000000
-0.05266757 -0.05229174 0.12800001 239 124 141 0.000000
-0.05236660 -0.05229174 0.12800001 239 126 140 0.000000
-0.05206561 -0.05229174 0.12800001 236 123 137 0.000000
-0.05176464 -0.05229174 0.12800001 230 121 134 0.000000
-0.05146366 -0.05229174 0.12800001 229 120 133 0.000000
-0.05116268 -0.05229174 0.12800001 223 120 133 0.000000
-0.05086171 -0.05229174 0.12800001 220 117 130 0.000000
-0.05056072 -0.05229174 0.12800001 221 118 129 0.000000
-0.05025975 -0.05229174 0.12800001 217 114 125 0.000000
-0.04926984 -0.05188321 0.12700000 214 111 122 0.000000
-0.04935681 -0.05229174 0.12800001 210 109 119 0.000000
-0.04905583 -0.05229174 0.12800001 208 107 117 0.000000
-0.04712526 -0.05351733 0.13100001 197 103 111 0.000000
-0.04717460 -0.05392585 0.13200000 195 104 113 0.000000
-0.04686422 -0.05392585 0.13200000 193 102 111 0.000000
-0.04655383 -0.05392585 0.13200000 192 101 112 0.000000
-0.04624345 -0.05392585 0.13200000 193 102 113 0.000000
-0.04593306 -0.05392585 0.13200000 190 101 111 0.000000
-0.04562268 -0.05392585 0.13200000 186 97 107 0.000000
-0.04531230 -0.05392585 0.13200000 195 106 116 0.000000
-0.04500191 -0.05392585 0.13200000 188 99 109 0.000000
-0.04469153 -0.05392585 0.13200000 189 102 114 0.000000
-0.04438115 -0.05392585 0.13200000 191 104 116 0.000000
-0.04373689 -0.05351733 0.13100001 195 108 122 0.000000
-0.04342886 -0.05351733 0.13100001 192 105 119 0.000000
-0.04312083 -0.05351733 0.13100001 190 103 117 0.000000
-0.04281280 -0.05351733 0.13100001 192 105 119 0.000000
-0.04250477 -0.05351733 0.13100001 192 105 119 0.000000
-0.04219673 -0.05351733 0.13100001 191 104 118 0.000000
-0.04188870 -0.05351733 0.13100001 180 100 110 0.000000
-0.04158067 -0.05351733 0.13100001 178 98 108 0.000000
-0.03945002 -0.05760261 0.14100000 147 85 93 0.000000
-0.03911847 -0.05760261 0.14100000 151 89 99 0.000000
-0.03878692 -0.05760261 0.14100000 150 88 98 0.000000
-0.03845537 -0.05760261 0.14100000 146 86 96 0.000000
-0.03779228 -0.05760261 0.14100000 149 89 101 0.000000
-0.03746074 -0.05760261 0.14100000 148 88 100 0.000000
-0.03712919 -0.05760261 0.14100000 150 90 102 0.000000
-0.03679764 -0.05760261 0.14100000 151 91 103 0.000000
-0.03646610 -0.05760261 0.14100000 149 89 99 0.000000
-0.03587827 -0.05719408 0.14000000 148 88 98 0.000000
-0.03554908 -0.05719408 0.14000000 148 91 100 0.000000
-0.03521989 -0.05719408 0.14000000 147 90 99 0.000000
-0.03489069 -0.05719408 0.14000000 147 90 99 0.000000
-0.03456150 -0.05719408 0.14000000 141 84 93 0.000000
-0.03423230 -0.05719408 0.14000000 141 86 92 0.000000
-0.03390310 -0.05719408 0.14000000 142 87 93 0.000000
-0.03357391 -0.05719408 0.14000000 145 93 100 0.000000
-0.03266126 -0.06168791 0.15100001 136 91 94 0.000000
-0.03230619 -0.06168791 0.15100001 138 93 96 0.000000
-0.03195113 -0.06168791 0.15100001 138 95 97 0.000000
-0.03159608 -0.06168791 0.15100001 135 92 94 0.000000
-0.03124101 -0.06168791 0.15100001 133 90 92 0.000000
-0.03088595 -0.06168791 0.15100001 135 92 94 0.000000
-0.03053089 -0.06168791 0.15100001 135 92 94 0.000000
-0.03017583 -0.06168791 0.15100001 134 91 93 0.000000
-0.02982077 -0.06168791 0.15100001 134 90 88 0.000000
-0.02946571 -0.06168791 0.15100001 127 83 81 0.000000
-0.02911065 -0.06168791 0.15100001 131 83 79 0.000000
-0.02875559 -0.06168791 0.15100001 131 83 79 0.000000
-0.02840053 -0.06168791 0.15100001 129 81 73 0.000000
-0.02804547 -0.06168791 0.15100001 129 81 73 0.000000
-0.02769041 -0.06168791 0.15100001 131 81 76 0.000000
-0.08443196 -0.06052049 0.14900000 2 217 255 0.000000
-0.08408160 -0.06052049 0.14900000 3 217 251 0.000000
-0.08373124 -0.06052049 0.14900000 0 212 246 0.000000
-0.08338088 -0.06052049 0.14900000 70 196 216 0.000000
-0.08303052 -0.06052049 0.14900000 153 255 255 0.000000
-0.08268017 -0.06052049 0.14900000 225 245 255 0.000000
-0.08177726 -0.06011431 0.14800000 222 242 255 0.000000
-0.08142926 -0.06011431 0.14800000 246 236 250 0.000000
-0.08053340 -0.05970813 0.14700000 255 245 255 0.000000
-0.08018775 -0.05970813 0.14700000 255 245 255 0.000000
-0.07929895 -0.05930196 0.14600001 244 232 243 0.000000
-0.07841485 -0.05889579 0.14500001 247 231 240 0.000000
-0.07807391 -0.05889579 0.14500001 243 227 236 0.000000
-0.07719687 -0.05848961 0.14400001 247 224 236 0.000000
-0.07685826 -0.05848961 0.14400001 246 223 235 0.000000
-0.07651966 -0.05848961 0.14400001 251 223 236 0.000000
-0.07618105 -0.05848961 0.14400001 251 223 236 0.000000
-0.07531577 -0.05808343 0.14300001 250 222 235 0.000000
-0.07497952 -0.05808343 0.14300001 250 222 235 0.000000
-0.07412130 -0.05767725 0.14200000 255 226 240 0.000000
-0.06734956 -0.05361547 0.13200000 255 235 246 0.000000
-0.06703918 -0.05361547 0.13200000 255 252 255 0.000000
-0.06622328 -0.05320929 0.13100001 255 253 255 0.000000
-0.06560721 -0.05320929 0.13100001 254 254 254 0.000000
-0.06480071 -0.05280312 0.13000001 254 254 254 0.000000
-0.06449503 -0.05280312 0.13000001 254 254 254 0.000000
-0.06418935 -0.05280312 0.13000001 254 254 254 0.000000
-0.06388367 -0.05280312 0.13000001 254 254 254 0.000000
-0.06357799 -0.05280312 0.13000001 254 254 254 0.000000
-0.06278560 -0.05239694 0.12900001 254 254 254 0.000000
-0.06248226 -0.05239694 0.12900001 254 254 254 0.000000
-0.06217894 -0.05239694 0.12900001 254 254 254 0.000000
-0.06187561 -0.05239694 0.12900001 254 254 254 0.000000
-0.06157228 -0.05239694 0.12900001 254 254 254 0.000000
-0.06126894 -0.05239694 0.12900001 254 254 254 0.000000
-0.06096562 -0.05239694 0.12900001 254 254 254 0.000000
-0.06066228 -0.05239694 0.12900001 254 254 254 0.000000
-0.06035896 -0.05239694 0.12900001 254 254 254 0.000000
-0.05975459 -0.05320929 0.13100001 255 254 254 0.000000
-0.05944656 -0.05320929 0.13100001 241 240 240 0.000000
-0.05762899 -0.05239694 0.12900001 255 208 229 0.000000
-0.05732566 -0.05239694 0.12900001 251 201 222 0.000000
-0.05658029 -0.05199076 0.12800001 255 188 215 0.000000
-0.05627932 -0.05199076 0.12800001 247 178 205 0.000000
-0.05597834 -0.05199076 0.12800001 252 166 197 0.000000
-0.05567736 -0.05199076 0.12800001 246 160 191 0.000000
-0.05537638 -0.05199076 0.12800001 252 155 184 0.000000
-0.05464512 -0.05158458 0.12700000 251 154 183 0.000000
-0.05285336 -0.05158458 0.12700000 246 128 148 0.000000
-0.05255473 -0.05158458 0.12700000 245 127 143 0.000000
-0.05266757 -0.05199076 0.12800001 243 125 141 0.000000
-0.05195748 -0.05158458 0.12700000 242 124 140 0.000000
-0.05206561 -0.05199076 0.12800001 241 123 139 0.000000
-0.05176464 -0.05199076 0.12800001 231 120 134 0.000000
-0.05106160 -0.05158458 0.12700000 227 116 130 0.000000
-0.05076297 -0.05158458 0.12700000 224 118 132 0.000000
-0.05046435 -0.05158458 0.12700000 222 116 130 0.000000
-0.05016572 -0.05158458 0.12700000 219 113 127 0.000000
-0.04986709 -0.05158458 0.12700000 218 112 126 0.000000
-0.04593306 -0.05361547 0.13200000 187 98 108 0.000000
-0.04562268 -0.05361547 0.13200000 188 99 109 0.000000
-0.04531230 -0.05361547 0.13200000 193 106 120 0.000000
-0.04500191 -0.05361547 0.13200000 188 101 115 0.000000
-0.04469153 -0.05361547 0.13200000 189 102 116 0.000000
-0.04404493 -0.05320929 0.13100001 190 103 117 0.000000
-0.04373689 -0.05320929 0.13100001 190 103 117 0.000000
-0.04342886 -0.05320929 0.13100001 188 101 115 0.000000
-0.04312083 -0.05320929 0.13100001 188 100 117 0.000000
-0.04281280 -0.05320929 0.13100001 189 101 118 0.000000
-0.04250477 -0.05320929 0.13100001 191 104 118 0.000000
-0.04219673 -0.05320929 0.13100001 193 106 120 0.000000
-0.04188870 -0.05320929 0.13100001 191 105 119 0.000000
-0.04158067 -0.05320929 0.13100001 189 103 117 0.000000
-0.04127727 -0.05402165 0.13300000 159 85 95 0.000000
-0.04156877 -0.05524018 0.13600001 159 91 99 0.000000
-0.03917023 -0.05686489 0.14000000 148 84 93 0.000000
-0.03878692 -0.05727107 0.14100000 147 85 93 0.000000
-0.03845537 -0.05727107 0.14100000 147 85 93 0.000000
-0.03812383 -0.05727107 0.14100000 150 88 96 0.000000
-0.03779228 -0.05727107 0.14100000 147 85 95 0.000000
-0.03746074 -0.05727107 0.14100000 147 85 95 0.000000
-0.03712919 -0.05727107 0.14100000 150 88 98 0.000000
-0.03679764 -0.05727107 0.14100000 152 90 100 0.000000
-0.03646610 -0.05727107 0.14100000 150 90 100 0.000000
-0.03613455 -0.05727107 0.14100000 146 86 96 0.000000
-0.03266126 -0.06133285 0.15100001 135 90 95 0.000000
-0.03230619 -0.06133285 0.15100001 136 91 96 0.000000
-0.03195113 -0.06133285 0.15100001 135 92 96 0.000000
-0.03159608 -0.06133285 0.15100001 134 91 95 0.000000
-0.03124101 -0.06133285 0.15100001 132 89 93 0.000000
-0.03088595 -0.06133285 0.15100001 131 88 92 0.000000
-0.03053089 -0.06133285 0.15100001 131 88 92 0.000000
-0.03017583 -0.06133285 0.15100001 128 85 89 0.000000
-0.02982077 -0.06133285 0.15100001 126 82 82 0.000000
-0.02946571 -0.06133285 0.15100001 124 80 80 0.000000
-0.02911065 -0.06133285 0.15100001 131 82 81 0.000000
-0.02875559 -0.06133285 0.15100001 130 81 80 0.000000
-0.02840053 -0.06133285 0.15100001 131 81 76 0.000000
-0.02804547 -0.06133285 0.15100001 131 81 76 0.000000
-0.02769041 -0.06133285 0.15100001 132 79 77 0.000000
-0.02733535 -0.06133285 0.15100001 131 78 76 0.000000
-0.02698029 -0.06133285 0.15100001 131 78 76 0.000000
-0.08443196 -0.06017013 0.14900000 8 221 255 0.000000
-0.08408160 -0.06017013 0.14900000 9 221 255 0.000000
-0.08373124 -0.06017013 0.14900000 3 215 251 0.000000
-0.08338088 -0.06017013 0.14900000 61 189 211 0.000000
-0.08303052 -0.06017013 0.14900000 148 255 255 0.000000
-0.08268017 -0.06017013 0.14900000 222 245 255 0.000000
-0.08232981 -0.06017013 0.14900000 224 247 255 0.000000
-0.08142926 -0.05976631 0.14800000 250 240 254 0.000000
-0.08053340 -0.05936248 0.14700000 253 243 255 0.000000
-0.08018775 -0.05936248 0.14700000 255 246 253 0.000000
-0.07929895 -0.05895866 0.14600001 251 242 249 0.000000
-0.07841485 -0.05855483 0.14500001 251 238 244 0.000000
-0.07807391 -0.05855483 0.14500001 249 236 242 0.000000
-0.07719687 -0.05815100 0.14400001 252 234 242 0.000000
-0.07685826 -0.05815100 0.14400001 244 226 234 0.000000
-0.07651966 -0.05815100 0.14400001 252 231 240 0.000000
-0.07565202 -0.05774717 0.14300001 247 226 235 0.000000
-0.07531577 -0.05774717 0.14300001 246 223 233 0.000000
-0.07445519 -0.05734335 0.14200000 245 222 232 0.000000
-0.07359932 -0.05693952 0.14100000 247 224 236 0.000000
-0.06703918 -0.05330508 0.13200000 253 253 253 0.000000
-0.06591525 -0.05290126 0.13100001 254 254 254 0.000000
-0.06560721 -0.05290126 0.13100001 254 254 254 0.000000
-0.06480071 -0.05249744 0.13000001 254 254 254 0.000000
-0.06449503 -0.05249744 0.13000001 254 254 254 0.000000
-0.06418935 -0.05249744 0.13000001 254 254 254 0.000000
-0.06388367 -0.05249744 0.13000001 254 254 254 0.000000
-0.06357799 -0.05249744 0.13000001 254 254 254 0.000000
-0.06278560 -0.05209361 0.12900001 254 254 254 0.000000
-0.06248226 -0.05209361 0.12900001 254 254 254 0.000000
-0.06217894 -0.05209361 0.12900001 254 254 254 0.000000
-0.06187561 -0.05209361 0.12900001 254 254 254 0.000000
-0.06157228 -0.05209361 0.12900001 254 254 254 0.000000
-0.06126894 -0.05209361 0.12900001 254 254 254 0.000000
-0.06096562 -0.05209361 0.12900001 254 254 254 0.000000
-0.06066228 -0.05209361 0.12900001 254 254 254 0.000000
-0.06035896 -0.05209361 0.12900001 254 254 254 0.000000
-0.06005563 -0.05209361 0.12900001 254 254 254 0.000000
-0.05929845 -0.05249744 0.13000001 255 252 255 0.000000
-0.05868709 -0.05249744 0.13000001 253 230 240 0.000000
-0.05762899 -0.05209361 0.12900001 247 202 221 0.000000
-0.05732566 -0.05209361 0.12900001 244 199 218 0.000000
-0.05658029 -0.05168978 0.12800001 255 191 216 0.000000
-0.05627932 -0.05168978 0.12800001 245 176 201 0.000000
-0.05597834 -0.05168978 0.12800001 247 161 190 0.000000
-0.05567736 -0.05168978 0.12800001 245 159 188 0.000000
-0.05537638 -0.05168978 0.12800001 250 153 180 0.000000
-0.05507540 -0.05168978 0.12800001 248 151 178 0.000000
-0.05255473 -0.05128595 0.12700000 248 131 144 0.000000
-0.05225611 -0.05128595 0.12700000 245 128 141 0.000000
-0.05195748 -0.05128595 0.12700000 241 124 137 0.000000
-0.05165885 -0.05128595 0.12700000 240 123 136 0.000000
-0.05136023 -0.05128595 0.12700000 235 122 140 0.000000
-0.05106160 -0.05128595 0.12700000 229 116 134 0.000000
-0.05076297 -0.05128595 0.12700000 225 115 135 0.000000
-0.05046435 -0.05128595 0.12700000 222 112 132 0.000000
-0.05016572 -0.05128595 0.12700000 225 116 133 0.000000
-0.04986709 -0.05128595 0.12700000 224 115 132 0.000000
-0.04527706 -0.05290126 0.13100001 186 99 113 0.000000
-0.04496903 -0.05290126 0.13100001 186 99 113 0.000000
-0.04466099 -0.05290126 0.13100001 189 102 116 0.000000
-0.04435296 -0.05290126 0.13100001 190 103 117 0.000000
-0.04404493 -0.05290126 0.13100001 189 102 116 0.000000
-0.04373689 -0.05290126 0.13100001 184 98 112 0.000000
-0.04342886 -0.05290126 0.13100001 184 98 112 0.000000
-0.04312083 -0.05290126 0.13100001 185 98 115 0.000000
-0.04281280 -0.05290126 0.13100001 188 101 118 0.000000
-0.04250477 -0.05290126 0.13100001 188 101 118 0.000000
-0.04219673 -0.05290126 0.13100001 191 104 121 0.000000
-0.04188870 -0.05290126 0.13100001 192 109 122 0.000000
-0.04158067 -0.05290126 0.13100001 193 110 123 0.000000
-0.04158769 -0.05330508 0.13200000 185 107 118 0.000000
-0.04127730 -0.05330508 0.13200000 184 106 117 0.000000
-0.04127727 -0.05370891 0.13300000 175 101 111 0.000000
-0.04088210 -0.05572804 0.13800001 154 90 101 0.000000
-0.04055761 -0.05572804 0.13800001 154 90 101 0.000000
-0.03917023 -0.05653569 0.14000000 145 82 88 0.000000
-0.03845537 -0.05693952 0.14100000 147 86 91 0.000000
-0.03812383 -0.05693952 0.14100000 148 87 92 0.000000
-0.03779228 -0.05693952 0.14100000 145 83 91 0.000000
-0.03712919 -0.05693952 0.14100000 146 84 92 0.000000
-0.03679764 -0.05693952 0.14100000 146 84 92 0.000000
-0.03266126 -0.06097779 0.15100001 138 95 99 0.000000
-0.03230619 -0.06097779 0.15100001 139 96 100 0.000000
-0.03195113 -0.06097779 0.15100001 136 96 99 0.000000
-0.03159608 -0.06097779 0.15100001 131 91 94 0.000000
-0.03124101 -0.06097779 0.15100001 129 89 92 0.000000
-0.03088595 -0.06097779 0.15100001 129 89 92 0.000000
-0.03053089 -0.06097779 0.15100001 132 89 93 0.000000
-0.03017583 -0.06097779 0.15100001 131 88 92 0.000000
-0.02982077 -0.06097779 0.15100001 134 86 90 0.000000
-0.02946571 -0.06097779 0.15100001 129 81 85 0.000000
-0.02911065 -0.06097779 0.15100001 126 74 79 0.000000
-0.02875559 -0.06097779 0.15100001 127 75 80 0.000000
-0.02840053 -0.06097779 0.15100001 131 80 80 0.000000
-0.02804547 -0.06097779 0.15100001 132 81 81 0.000000
-0.02769041 -0.06097779 0.15100001 135 81 82 0.000000
-0.02733535 -0.06097779 0.15100001 128 74 75 0.000000
-0.02698029 -0.06097779 0.15100001 126 73 71 0.000000
-0.08464590 -0.06022125 0.15000001 11 214 255 0.000000
-0.08373124 -0.05981977 0.14900000 8 211 253 0.000000
-0.08338088 -0.05981977 0.14900000 65 192 219 0.000000
-0.08303052 -0.05981977 0.14900000 147 255 255 0.000000
-0.08268017 -0.05981977 0.14900000 225 244 255 0.000000
-0.08232981 -0.05981977 0.14900000 223 242 255 0.000000
-0.08142926 -0.05941830 0.14800000 246 231 249 0.000000
-0.08053340 -0.05901682 0.14700000 255 240 255 0.000000
-0.08018775 -0.05901682 0.14700000 250 238 249 0.000000
-0.07929895 -0.05861535 0.14600001 253 241 252 0.000000
-0.07841485 -0.05821388 0.14500001 248 235 241 0.000000
-0.07807391 -0.05821388 0.14500001 249 236 242 0.000000
-0.07719687 -0.05781240 0.14400001 252 234 242 0.000000
-0.07685826 -0.05781240 0.14400001 244 226 234 0.000000
-0.07598827 -0.05741093 0.14300001 247 226 235 0.000000
-0.07565202 -0.05741093 0.14300001 253 232 241 0.000000
-0.07531577 -0.05741093 0.14300001 254 231 241 0.000000
-0.07445519 -0.05700945 0.14200000 250 227 237 0.000000
-0.07307733 -0.05620650 0.14000000 250 227 239 0.000000
-0.06672879 -0.05299470 0.13200000 255 254 254 0.000000
-0.06560721 -0.05259323 0.13100001 254 254 254 0.000000
-0.06529918 -0.05259323 0.13100001 254 254 254 0.000000
-0.06449503 -0.05219175 0.13000001 254 254 254 0.000000
-0.06418935 -0.05219175 0.13000001 254 254 254 0.000000
-0.06388367 -0.05219175 0.13000001 254 254 254 0.000000
-0.06357799 -0.05219175 0.13000001 254 254 254 0.000000
-0.06278560 -0.05179027 0.12900001 254 254 254 0.000000
-0.06248226 -0.05179027 0.12900001 254 254 254 0.000000
-0.06217894 -0.05179027 0.12900001 254 254 254 0.000000
-0.06187561 -0.05179027 0.12900001 254 254 254 0.000000
-0.06157228 -0.05179027 0.12900001 254 254 254 0.000000
-0.06126894 -0.05179027 0.12900001 254 254 254 0.000000
-0.06096562 -0.05179027 0.12900001 254 254 254 0.000000
-0.06066228 -0.05179027 0.12900001 254 254 254 0.000000
-0.06035896 -0.05179027 0.12900001 254 254 254 0.000000
-0.06052118 -0.05219175 0.13000001 254 254 254 0.000000
-0.05960413 -0.05219175 0.13000001 250 250 250 0.000000
-0.05899277 -0.05219175 0.13000001 245 241 244 0.000000
-0.05823565 -0.05179027 0.12900001 254 231 243 0.000000
-0.05793232 -0.05179027 0.12900001 250 227 239 0.000000
-0.05762899 -0.05179027 0.12900001 251 204 224 0.000000
-0.05732566 -0.05179027 0.12900001 247 200 220 0.000000
-0.05658029 -0.05138880 0.12800001 255 185 211 0.000000
-0.05627932 -0.05138880 0.12800001 243 172 198 0.000000
-0.05597834 -0.05138880 0.12800001 253 165 191 0.000000
-0.05567736 -0.05138880 0.12800001 251 163 189 0.000000
-0.05537638 -0.05138880 0.12800001 249 150 175 0.000000
-0.05507540 -0.05138880 0.12800001 252 153 178 0.000000
-0.05374924 -0.05098733 0.12700000 253 137 159 0.000000
-0.05345062 -0.05098733 0.12700000 247 131 153 0.000000
-0.05255473 -0.05098733 0.12700000 245 128 139 0.000000
-0.05225611 -0.05098733 0.12700000 241 124 135 0.000000
-0.05195748 -0.05098733 0.12700000 237 123 133 0.000000
-0.05165885 -0.05098733 0.12700000 237 123 133 0.000000
-0.05136023 -0.05098733 0.12700000 237 122 139 0.000000
-0.05106160 -0.05098733 0.12700000 232 117 134 0.000000
-0.05076297 -0.05098733 0.12700000 222 110 131 0.000000
-0.05046435 -0.05098733 0.12700000 223 111 132 0.000000
-0.05016572 -0.05098733 0.12700000 221 109 130 0.000000
-0.04527706 -0.05259323 0.13100001 192 102 115 0.000000
-0.04496903 -0.05259323 0.13100001 186 99 111 0.000000
-0.04466099 -0.05259323 0.13100001 185 98 110 0.000000
-0.04435296 -0.05259323 0.13100001 186 99 111 0.000000
-0.04404493 -0.05259323 0.13100001 191 104 116 0.000000
-0.04373689 -0.05259323 0.13100001 189 103 117 0.000000
-0.04342886 -0.05259323 0.13100001 189 103 117 0.000000
-0.04312083 -0.05259323 0.13100001 191 104 121 0.000000
-0.04281280 -0.05259323 0.13100001 189 102 119 0.000000
-0.04250477 -0.05259323 0.13100001 186 102 120 0.000000
-0.04219673 -0.05259323 0.13100001 188 104 122 0.000000
-0.04188870 -0.05259323 0.13100001 187 106 123 0.000000
-0.04158067 -0.05259323 0.13100001 192 111 128 0.000000
-0.04158769 -0.05299470 0.13200000 186 107 123 0.000000
-0.04127730 -0.05299470 0.13200000 189 110 126 0.000000
-0.04096692 -0.05299470 0.13200000 180 109 118 0.000000
-0.04096454 -0.05339617 0.13300000 178 107 116 0.000000
-0.04095746 -0.05379765 0.13400000 164 97 107 0.000000
-0.04092918 -0.05460060 0.13600001 161 97 108 0.000000
-0.04090800 -0.05500207 0.13700001 158 94 105 0.000000
-0.04058585 -0.05500207 0.13700001 154 90 101 0.000000
-0.04055761 -0.05540355 0.13800001 153 89 100 0.000000
-0.04023312 -0.05540355 0.13800001 155 88 98 0.000000
-0.04019782 -0.05580503 0.13900001 154 87 97 0.000000
-0.03987097 -0.05580503 0.13900001 149 83 88 0.000000
-0.03982862 -0.05620650 0.14000000 147 81 86 0.000000
-0.03949942 -0.05620650 0.14000000 147 84 88 0.000000
-0.03917023 -0.05620650 0.14000000 147 84 88 0.000000
-0.03884103 -0.05620650 0.14000000 146 83 87 0.000000
-0.03851184 -0.05620650 0.14000000 147 84 88 0.000000
-0.03845537 -0.05660797 0.14100000 148 87 92 0.000000
-0.03812383 -0.05660797 0.14100000 151 90 95 0.000000
-0.03779228 -0.05660797 0.14100000 144 82 90 0.000000
-0.03746074 -0.05660797 0.14100000 146 84 92 0.000000
-0.03712919 -0.05660797 0.14100000 146 84 92 0.000000
-0.03679764 -0.05660797 0.14100000 148 86 94 0.000000
-0.03287756 -0.06102420 0.15200001 134 91 95 0.000000
-0.03230619 -0.06062273 0.15100001 134 91 95 0.000000
-0.03195113 -0.06062273 0.15100001 135 95 98 0.000000
-0.03159608 -0.06062273 0.15100001 132 92 95 0.000000
-0.03124101 -0.06062273 0.15100001 129 89 92 0.000000
-0.03088595 -0.06062273 0.15100001 126 86 89 0.000000
-0.03053089 -0.06062273 0.15100001 128 83 88 0.000000
-0.03017583 -0.06062273 0.15100001 128 83 88 0.000000
-0.02982077 -0.06062273 0.15100001 131 83 87 0.000000
-0.02946571 -0.06062273 0.15100001 129 81 85 0.000000
-0.02911065 -0.06062273 0.15100001 127 75 80 0.000000
-0.02875559 -0.06062273 0.15100001 127 75 80 0.000000
-0.02840053 -0.06062273 0.15100001 132 77 83 0.000000
-0.02804547 -0.06062273 0.15100001 131 76 82 0.000000
-0.02769041 -0.06062273 0.15100001 132 77 83 0.000000
-0.02733535 -0.06062273 0.15100001 131 76 82 0.000000
-0.02698029 -0.06062273 0.15100001 132 78 81 0.000000
-0.02662523 -0.06062273 0.15100001 131 77 80 0.000000
-0.08464590 -0.05986854 0.15000001 19 209 255 0.000000
-0.08429319 -0.05986854 0.15000001 20 210 255 0.000000
-0.08338088 -0.05946942 0.14900000 67 185 222 0.000000
-0.08303052 -0.05946942 0.14900000 145 255 255 0.000000
-0.08268017 -0.05946942 0.14900000 232 245 255 0.000000
-0.08232981 -0.05946942 0.14900000 223 236 255 0.000000
-0.08142926 -0.05907030 0.14800000 246 228 249 0.000000
-0.08053340 -0.05867117 0.14700000 253 235 255 0.000000
-0.07964226 -0.05827205 0.14600001 255 247 255 0.000000
-0.07929895 -0.05827205 0.14600001 255 242 253 0.000000
-0.07841485 -0.05787293 0.14500001 249 238 242 0.000000
-0.07753547 -0.05747380 0.14400001 247 236 240 0.000000
-0.07719687 -0.05747380 0.14400001 250 235 236 0.000000
-0.07632452 -0.05707468 0.14300001 246 231 232 0.000000
-0.07598827 -0.05707468 0.14300001 250 232 238 0.000000
-0.07565202 -0.05707468 0.14300001 251 233 239 0.000000
-0.06900018 -0.05348257 0.13400000 255 241 251 0.000000
-0.06868509 -0.05348257 0.13400000 251 242 247 0.000000
-0.06785978 -0.05308344 0.13300000 255 248 253 0.000000
-0.06591525 -0.05228520 0.13100001 255 254 254 0.000000
-0.06560721 -0.05228520 0.13100001 255 254 254 0.000000
-0.06529918 -0.05228520 0.13100001 254 254 254 0.000000
-0.06449503 -0.05188607 0.13000001 254 254 254 0.000000
-0.06418935 -0.05188607 0.13000001 254 254 254 0.000000
-0.06388367 -0.05188607 0.13000001 254 254 254 0.000000
-0.06357799 -0.05188607 0.13000001 254 254 254 0.000000
-0.06327230 -0.05188607 0.13000001 254 254 254 0.000000
-0.06248226 -0.05148695 0.12900001 254 254 254 0.000000
-0.06217894 -0.05148695 0.12900001 254 254 254 0.000000
-0.06187561 -0.05148695 0.12900001 254 254 254 0.000000
-0.06157228 -0.05148695 0.12900001 254 254 254 0.000000
-0.06126894 -0.05148695 0.12900001 254 254 254 0.000000
-0.06096562 -0.05148695 0.12900001 254 254 254 0.000000
-0.06066228 -0.05148695 0.12900001 254 255 251 0.000000
-0.06082685 -0.05188607 0.13000001 254 255 251 0.000000
-0.05990981 -0.05188607 0.13000001 254 255 251 0.000000
-0.06006263 -0.05228520 0.13100001 251 252 248 0.000000
-0.05868709 -0.05188607 0.13000001 246 221 233 0.000000
-0.05793232 -0.05148695 0.12900001 239 214 226 0.000000
-0.05762899 -0.05148695 0.12900001 249 199 218 0.000000
-0.05732566 -0.05148695 0.12900001 251 201 220 0.000000
-0.05702233 -0.05148695 0.12900001 255 186 207 0.000000
-0.05627932 -0.05108782 0.12800001 242 169 190 0.000000
-0.05597834 -0.05108782 0.12800001 253 165 186 0.000000
-0.05567736 -0.05108782 0.12800001 248 160 181 0.000000
-0.05537638 -0.05108782 0.12800001 250 150 173 0.000000
-0.05507540 -0.05108782 0.12800001 250 150 173 0.000000
-0.05374924 -0.05068870 0.12700000 245 129 151 0.000000
-0.05345062 -0.05068870 0.12700000 244 128 150 0.000000
-0.05214091 -0.05028958 0.12600000 248 128 140 0.000000
-0.05225611 -0.05068870 0.12700000 245 125 137 0.000000
-0.05195748 -0.05068870 0.12700000 239 122 133 0.000000
-0.05165885 -0.05068870 0.12700000 238 121 132 0.000000
-0.05136023 -0.05068870 0.12700000 234 119 134 0.000000
-0.05106160 -0.05068870 0.12700000 230 115 130 0.000000
-0.05076297 -0.05068870 0.12700000 225 112 130 0.000000
-0.05046435 -0.05068870 0.12700000 229 116 134 0.000000
-0.05016572 -0.05068870 0.12700000 228 115 133 0.000000
-0.04986709 -0.05068870 0.12700000 225 112 130 0.000000
-0.04527706 -0.05228520 0.13100001 192 102 115 0.000000
-0.04496903 -0.05228520 0.13100001 190 100 113 0.000000
-0.04466099 -0.05228520 0.13100001 190 100 113 0.000000
-0.04435296 -0.05228520 0.13100001 186 99 111 0.000000
-0.04404493 -0.05228520 0.13100001 188 101 113 0.000000
-0.04373689 -0.05228520 0.13100001 187 101 115 0.000000
-0.04342886 -0.05228520 0.13100001 188 102 116 0.000000
-0.04312083 -0.05228520 0.13100001 190 104 118 0.000000
-0.04281280 -0.05228520 0.13100001 190 104 118 0.000000
-0.04158067 -0.05228520 0.13100001 188 104 122 0.000000
-0.04158769 -0.05268431 0.13200000 188 107 124 0.000000
-0.04127730 -0.05268431 0.13200000 190 109 126 0.000000
-0.04096692 -0.05268431 0.13200000 190 111 125 0.000000
-0.04065181 -0.05308344 0.13300000 165 97 105 0.000000
-0.04064237 -0.05348257 0.13400000 164 96 104 0.000000
-0.04062824 -0.05388169 0.13500001 161 94 104 0.000000
-0.04060940 -0.05428081 0.13600001 160 93 103 0.000000
-0.04028961 -0.05428081 0.13600001 160 93 105 0.000000
-0.04026371 -0.05467994 0.13700001 156 89 101 0.000000
-0.03994157 -0.05467994 0.13700001 153 87 94 0.000000
-0.03990863 -0.05507906 0.13800001 155 89 96 0.000000
-0.03987097 -0.05547819 0.13900001 149 84 86 0.000000
-0.03954413 -0.05547819 0.13900001 149 84 86 0.000000
-0.03949942 -0.05587731 0.14000000 149 87 88 0.000000
-0.03917023 -0.05587731 0.14000000 151 89 90 0.000000
-0.03884103 -0.05587731 0.14000000 148 87 90 0.000000
-0.03851184 -0.05587731 0.14000000 151 90 93 0.000000
-0.03845537 -0.05627643 0.14100000 150 89 92 0.000000
-0.03812383 -0.05627643 0.14100000 148 87 90 0.000000
-0.03779228 -0.05627643 0.14100000 145 84 87 0.000000
-0.03746074 -0.05627643 0.14100000 146 85 88 0.000000
-0.03712919 -0.05627643 0.14100000 145 84 89 0.000000
-0.03679764 -0.05627643 0.14100000 145 84 89 0.000000
-0.03646610 -0.05627643 0.14100000 146 85 90 0.000000
-0.03216273 -0.06066679 0.15200001 132 92 95 0.000000
-0.03180532 -0.06066679 0.15200001 130 90 93 0.000000
-0.03144791 -0.06066679 0.15200001 127 84 88 0.000000
-0.03088595 -0.06026767 0.15100001 127 84 88 0.000000
-0.03053089 -0.06026767 0.15100001 128 80 86 0.000000
-0.03017583 -0.06026767 0.15100001 133 85 91 0.000000
-0.02982077 -0.06026767 0.15100001 132 82 88 0.000000
-0.02946571 -0.06026767 0.15100001 129 79 85 0.000000
-0.02911065 -0.06026767 0.15100001 131 76 82 0.000000
-0.02875559 -0.06026767 0.15100001 129 74 80 0.000000
-0.02840053 -0.06026767 0.15100001 128 73 79 0.000000
-0.02804547 -0.06026767 0.15100001 131 76 82 0.000000
-0.02769041 -0.06026767 0.15100001 133 78 84 0.000000
-0.02698029 -0.06026767 0.15100001 133 78 84 0.000000
-0.02662523 -0.06026767 0.15100001 132 77 83 0.000000
-0.08429319 -0.05951583 0.15000001 0 178 243 0.000000
-0.08338088 -0.05911906 0.14900000 49 162 207 0.000000
-0.08303052 -0.05911906 0.14900000 142 255 255 0.000000
-0.08268017 -0.05911906 0.14900000 239 252 255 0.000000
-0.08232981 -0.05911906 0.14900000 220 233 255 0.000000
-0.08142926 -0.05872229 0.14800000 245 225 247 0.000000
-0.08053340 -0.05832551 0.14700000 243 223 245 0.000000
-0.07964226 -0.05792875 0.14600001 255 247 255 0.000000
-0.07929895 -0.05792875 0.14600001 254 242 253 0.000000
-0.07841485 -0.05753198 0.14500001 252 241 245 0.000000
-0.07753547 -0.05713520 0.14400001 254 243 247 0.000000
-0.07666077 -0.05673843 0.14300001 252 242 242 0.000000
-0.07632452 -0.05673843 0.14300001 250 240 240 0.000000
-0.07598827 -0.05673843 0.14300001 248 233 234 0.000000
-0.07512298 -0.05634166 0.14200000 248 233 234 0.000000
-0.07086711 -0.05435780 0.13700001 251 240 246 0.000000
-0.06951511 -0.05356425 0.13500001 255 245 251 0.000000
-0.06868509 -0.05316748 0.13400000 253 249 250 0.000000
-0.06785978 -0.05277070 0.13300000 255 252 253 0.000000
-0.06703918 -0.05237393 0.13200000 255 254 254 0.000000
-0.06672879 -0.05237393 0.13200000 255 254 254 0.000000
-0.06641841 -0.05237393 0.13200000 254 254 254 0.000000
-0.06560721 -0.05197717 0.13100001 254 254 254 0.000000
-0.06529918 -0.05197717 0.13100001 254 254 254 0.000000
-0.06499115 -0.05197717 0.13100001 254 254 254 0.000000
-0.06418935 -0.05158039 0.13000001 254 254 254 0.000000
-0.06388367 -0.05158039 0.13000001 254 254 254 0.000000
-0.06357799 -0.05158039 0.13000001 254 254 254 0.000000
-0.06327230 -0.05158039 0.13000001 254 254 254 0.000000
-0.06296662 -0.05158039 0.13000001 254 254 254 0.000000
-0.06266095 -0.05158039 0.13000001 254 254 254 0.000000
-0.06187561 -0.05118362 0.12900001 254 254 254 0.000000
-0.06157228 -0.05118362 0.12900001 254 254 254 0.000000
-0.06126894 -0.05118362 0.12900001 254 254 254 0.000000
-0.06143822 -0.05158039 0.13000001 254 254 254 0.000000
-0.06113254 -0.05158039 0.13000001 254 254 254 0.000000
-0.06082685 -0.05158039 0.13000001 254 254 254 0.000000
-0.06052118 -0.05158039 0.13000001 254 254 254 0.000000
-0.06037066 -0.05197717 0.13100001 254 254 254 0.000000
-0.06006263 -0.05197717 0.13100001 254 254 254 0.000000
-0.05929845 -0.05158039 0.13000001 251 242 247 0.000000
-0.05899277 -0.05158039 0.13000001 248 239 244 0.000000
-0.05868709 -0.05158039 0.13000001 255 234 251 0.000000
-0.05793232 -0.05118362 0.12900001 255 227 244 0.000000
-0.05762899 -0.05118362 0.12900001 255 207 228 0.000000
-0.05732566 -0.05118362 0.12900001 245 193 214 0.000000
-0.05702233 -0.05118362 0.12900001 255 178 198 0.000000
-0.05671900 -0.05118362 0.12900001 246 169 189 0.000000
-0.05597834 -0.05078685 0.12800001 251 158 179 0.000000
-0.05567736 -0.05078685 0.12800001 246 153 174 0.000000
-0.05537638 -0.05078685 0.12800001 249 146 168 0.000000
-0.05374924 -0.05039007 0.12700000 248 129 154 0.000000
-0.05302975 -0.04999330 0.12600000 247 128 153 0.000000
-0.05273347 -0.04999330 0.12600000 249 128 149 0.000000
-0.05243719 -0.04999330 0.12600000 248 127 148 0.000000
-0.05214091 -0.04999330 0.12600000 240 122 138 0.000000
-0.05184464 -0.04999330 0.12600000 239 121 137 0.000000
-0.05154837 -0.04999330 0.12600000 236 122 134 0.000000
-0.05165885 -0.05039007 0.12700000 236 122 134 0.000000
-0.05136023 -0.05039007 0.12700000 236 121 136 0.000000
-0.05106160 -0.05039007 0.12700000 232 117 132 0.000000
-0.05076297 -0.05039007 0.12700000 227 114 132 0.000000
-0.05046435 -0.05039007 0.12700000 225 112 130 0.000000
-0.05016572 -0.05039007 0.12700000 219 108 126 0.000000
-0.04523711 -0.05158039 0.13000001 187 95 109 0.000000
-0.04493143 -0.05158039 0.13000001 188 96 110 0.000000
-0.04496903 -0.05197717 0.13100001 187 97 110 0.000000
-0.04466099 -0.05197717 0.13100001 192 102 115 0.000000
-0.04435296 -0.05197717 0.13100001 186 99 111 0.000000
-0.04404493 -0.05197717 0.13100001 186 99 111 0.000000
-0.04373689 -0.05197717 0.13100001 185 99 111 0.000000
-0.04342886 -0.05197717 0.13100001 192 106 118 0.000000
-0.04312083 -0.05197717 0.13100001 191 105 119 0.000000
-0.04281280 -0.05197717 0.13100001 191 105 119 0.000000
-0.04250477 -0.05197717 0.13100001 191 104 121 0.000000
-0.04219673 -0.05197717 0.13100001 191 104 121 0.000000
-0.04188870 -0.05197717 0.13100001 188 104 120 0.000000
-0.04158067 -0.05197717 0.13100001 188 104 120 0.000000
-0.04158769 -0.05237393 0.13200000 192 109 122 0.000000
-0.04127730 -0.05237393 0.13200000 189 106 119 0.000000
-0.04096692 -0.05237393 0.13200000 193 113 125 0.000000
-0.04065181 -0.05277070 0.13300000 183 109 114 0.000000
-0.04064237 -0.05316748 0.13400000 177 103 108 0.000000
-0.04032728 -0.05316748 0.13400000 164 93 100 0.000000
-0.04031080 -0.05356425 0.13500001 165 94 101 0.000000
-0.04028961 -0.05396102 0.13600001 170 99 108 0.000000
-0.03996982 -0.05396102 0.13600001 161 90 99 0.000000
-0.03994157 -0.05435780 0.13700001 151 86 86 0.000000
-0.03961943 -0.05435780 0.13700001 151 86 86 0.000000
-0.03958413 -0.05475457 0.13800001 147 85 84 0.000000
-0.03954413 -0.05515134 0.13900001 147 85 84 0.000000
-0.03921729 -0.05515134 0.13900001 147 87 87 0.000000
-0.03917023 -0.05554811 0.14000000 150 90 90 0.000000
-0.03884103 -0.05554811 0.14000000 151 90 93 0.000000
-0.03851184 -0.05554811 0.14000000 152 91 94 0.000000
-0.03818264 -0.05554811 0.14000000 148 87 90 0.000000
-0.03785345 -0.05554811 0.14000000 151 90 93 0.000000
-0.03752425 -0.05554811 0.14000000 150 89 92 0.000000
-0.03746074 -0.05594488 0.14100000 148 87 90 0.000000
-0.03180532 -0.06030938 0.15200001 128 85 89 0.000000
-0.03144791 -0.06030938 0.15200001 125 80 83 0.000000
-0.03088595 -0.05991261 0.15100001 126 81 84 0.000000
-0.03053089 -0.05991261 0.15100001 125 75 79 0.000000
-0.03017583 -0.05991261 0.15100001 126 76 80 0.000000
-0.02982077 -0.05991261 0.15100001 126 74 79 0.000000
-0.02946571 -0.05991261 0.15100001 125 73 78 0.000000
-0.02911065 -0.05991261 0.15100001 126 71 77 0.000000
-0.02875559 -0.05991261 0.15100001 129 74 80 0.000000
-0.02840053 -0.05991261 0.15100001 129 72 79 0.000000
-0.02804547 -0.05991261 0.15100001 127 70 77 0.000000
-0.02769041 -0.05991261 0.15100001 130 73 80 0.000000
-0.08394048 -0.05916312 0.15000001 37 148 203 0.000000
-0.08303052 -0.05876870 0.14900000 132 243 255 0.000000
-0.08268017 -0.05876870 0.14900000 239 254 255 0.000000
-0.08232981 -0.05876870 0.14900000 220 235 255 0.000000
-0.08142926 -0.05837428 0.14800000 244 226 245 0.000000
-0.08053340 -0.05797986 0.14700000 240 222 241 0.000000
-0.07964226 -0.05758544 0.14600001 255 245 255 0.000000
-0.07929895 -0.05758544 0.14600001 255 245 255 0.000000
-0.07841485 -0.05719102 0.14500001 253 244 249 0.000000
-0.07753547 -0.05679660 0.14400001 252 243 248 0.000000
-0.07579079 -0.05600775 0.14200000 252 244 241 0.000000
-0.07545689 -0.05600775 0.14200000 246 236 234 0.000000
-0.07512298 -0.05600775 0.14200000 246 236 234 0.000000
-0.07426240 -0.05561334 0.14100000 245 233 233 0.000000
-0.07086711 -0.05403565 0.13700001 253 247 249 0.000000
