-0.10118053 -0.03976085 0.16300000 63 49 83 0.000000
-0.10079726 -0.03976085 0.16300000 161 147 181 0.000000
-0.10041398 -0.03976085 0.16300000 255 234 255 0.000000
-0.09941702 -0.03951692 0.16200000 255 226 252 0.000000
-0.09903609 -0.03951692 0.16200000 255 195 205 0.000000
-0.10143168 -0.04366376 0.17900001 246 126 156 0.000000
-0.10101078 -0.04366376 0.17900001 245 122 155 0.000000
-0.10016898 -0.04366376 0.17900001 251 123 160 0.000000
-0.02912872 -0.04317589 0.17700000 105 40 42 0.000000
-0.02871252 -0.04317589 0.17700000 106 41 43 0.000000
-0.02829632 -0.04317589 0.17700000 105 42 46 0.000000
-0.02788013 -0.04317589 0.17700000 108 45 49 0.000000
-0.02746393 -0.04317589 0.17700000 109 46 52 0.000000
-0.02704773 -0.04317589 0.17700000 98 35 41 0.000000
-0.02663154 -0.04317589 0.17700000 113 42 49 0.000000
-0.02621534 -0.04317589 0.17700000 186 115 122 0.000000
-0.02594490 -0.04341982 0.17800000 183 108 116 0.000000
-0.02552635 -0.04341982 0.17800000 164 89 97 0.000000
-0.02440706 -0.04366376 0.17900001 155 81 86 0.000000
-0.10604319 -0.03961915 0.16400000 23 52 53 0.000000
-0.10565756 -0.03961915 0.16400000 22 52 57 0.000000
-0.10527194 -0.03961915 0.16400000 20 50 55 0.000000
-0.10488631 -0.03961915 0.16400000 25 57 64 0.000000
-0.10450067 -0.03961915 0.16400000 18 50 57 0.000000
-0.10474990 -0.03986073 0.16500001 20 54 62 0.000000
-0.10436191 -0.03986073 0.16500001 23 57 65 0.000000
-0.10334379 -0.03961915 0.16400000 27 56 66 0.000000
-0.10295817 -0.03961915 0.16400000 27 56 66 0.000000
-0.10257254 -0.03961915 0.16400000 38 53 70 0.000000
-0.10156381 -0.03937757 0.16300000 35 50 67 0.000000
-0.10118053 -0.03937757 0.16300000 58 44 78 0.000000
-0.10079726 -0.03937757 0.16300000 145 131 165 0.000000
-0.10041398 -0.03937757 0.16300000 255 227 255 0.000000
-0.09941702 -0.03913599 0.16200000 255 232 255 0.000000
-0.10185258 -0.04324285 0.17900001 250 125 155 0.000000
-0.10143168 -0.04324285 0.17900001 250 125 155 0.000000
-0.10101078 -0.04324285 0.17900001 253 126 160 0.000000
-0.02912872 -0.04275969 0.17700000 107 41 48 0.000000
-0.02871252 -0.04275969 0.17700000 107 41 48 0.000000
-0.02829632 -0.04275969 0.17700000 104 42 50 0.000000
-0.02788013 -0.04275969 0.17700000 104 42 50 0.000000
-0.02746393 -0.04275969 0.17700000 105 41 50 0.000000
-0.02704773 -0.04275969 0.17700000 101 37 46 0.000000
-0.02663154 -0.04275969 0.17700000 116 48 56 0.000000
-0.02621534 -0.04275969 0.17700000 186 118 126 0.000000
-0.02594490 -0.04300128 0.17800000 181 106 116 0.000000
-0.02552635 -0.04300128 0.17800000 167 92 102 0.000000
-0.02510780 -0.04300128 0.17800000 162 84 93 0.000000
-0.02482796 -0.04324285 0.17900001 162 84 93 0.000000
-0.02454342 -0.04348443 0.18000001 158 81 87 0.000000
-0.10565756 -0.03923352 0.16400000 28 54 54 0.000000
-0.10488631 -0.03923352 0.16400000 32 60 64 0.000000
-0.10450067 -0.03923352 0.16400000 20 48 52 0.000000
-0.10411505 -0.03923352 0.16400000 35 63 69 0.000000
-0.10372941 -0.03923352 0.16400000 35 63 69 0.000000
-0.10334379 -0.03923352 0.16400000 33 63 68 0.000000
-0.10295817 -0.03923352 0.16400000 33 63 68 0.000000
-0.10194709 -0.03899429 0.16300000 38 58 69 0.000000
-0.10156381 -0.03899429 0.16300000 37 57 68 0.000000
-0.10118053 -0.03899429 0.16300000 60 46 80 0.000000
-0.10079726 -0.03899429 0.16300000 122 108 142 0.000000
-0.09979794 -0.03875507 0.16200000 255 218 253 0.000000
-0.09941702 -0.03875507 0.16200000 255 231 255 0.000000
-0.09903609 -0.03875507 0.16200000 254 188 210 0.000000
-0.10185258 -0.04282195 0.17900001 252 123 154 0.000000
-0.02929329 -0.04258273 0.17800000 106 39 49 0.000000
-0.02871252 -0.04234350 0.17700000 105 38 48 0.000000
-0.02829632 -0.04234350 0.17700000 98 34 43 0.000000
-0.02788013 -0.04234350 0.17700000 99 35 44 0.000000
-0.02746393 -0.04234350 0.17700000 101 37 48 0.000000
-0.02704773 -0.04234350 0.17700000 96 32 43 0.000000
-0.02663154 -0.04234350 0.17700000 142 73 84 0.000000
-0.02636345 -0.04258273 0.17800000 191 122 133 0.000000
-0.02594490 -0.04258273 0.17800000 181 105 118 0.000000
-0.02552635 -0.04258273 0.17800000 171 95 108 0.000000
-0.02524886 -0.04282195 0.17900001 170 90 102 0.000000
-0.02496666 -0.04306119 0.18000001 163 83 95 0.000000
-0.10411505 -0.03884790 0.16400000 41 65 65 0.000000
-0.10372941 -0.03884790 0.16400000 38 62 62 0.000000
-0.10334379 -0.03884790 0.16400000 36 62 64 0.000000
-0.10233037 -0.03861102 0.16300000 39 65 67 0.000000
-0.10194709 -0.03861102 0.16300000 44 67 72 0.000000
-0.10156381 -0.03861102 0.16300000 43 66 71 0.000000
-0.10118053 -0.03861102 0.16300000 61 53 80 0.000000
-0.10017887 -0.03837414 0.16200000 96 88 115 0.000000
-0.09979794 -0.03837414 0.16200000 236 198 229 0.000000
-0.09941702 -0.03837414 0.16200000 255 227 255 0.000000
-0.02971184 -0.04216418 0.17800000 104 40 49 0.000000
-0.02929329 -0.04216418 0.17800000 104 40 49 0.000000
-0.02871252 -0.04192730 0.17700000 103 39 48 0.000000
-0.02829632 -0.04192730 0.17700000 101 34 44 0.000000
-0.02788013 -0.04192730 0.17700000 99 32 42 0.000000
-0.02746393 -0.04192730 0.17700000 99 32 44 0.000000
-0.02704773 -0.04192730 0.17700000 98 31 43 0.000000
-0.02663154 -0.04192730 0.17700000 172 105 119 0.000000
-0.02636345 -0.04216418 0.17800000 192 125 139 0.000000
-0.02594490 -0.04216418 0.17800000 180 99 114 0.000000
-0.02566976 -0.04240106 0.17900001 173 92 107 0.000000
-0.02524886 -0.04240106 0.17900001 171 88 99 0.000000
-0.02496666 -0.04263794 0.18000001 167 84 95 0.000000
-0.10233037 -0.03822774 0.16300000 39 64 59 0.000000
-0.10156381 -0.03822774 0.16300000 49 71 74 0.000000
-0.10055979 -0.03799322 0.16200000 57 54 77 0.000000
-0.10017887 -0.03799322 0.16200000 77 74 97 0.000000
-0.09979794 -0.03799322 0.16200000 205 173 199 0.000000
-0.09941702 -0.03799322 0.16200000 255 225 251 0.000000
-0.09842477 -0.03775869 0.16100001 255 189 201 0.000000
-0.02971184 -0.04174563 0.17800000 103 39 48 0.000000
-0.02929329 -0.04174563 0.17800000 102 38 47 0.000000
-0.02871252 -0.04151110 0.17700000 99 35 44 0.000000
-0.02829632 -0.04151110 0.17700000 99 35 44 0.000000
-0.02788013 -0.04151110 0.17700000 101 37 46 0.000000
-0.02746393 -0.04151110 0.17700000 99 35 46 0.000000
-0.02704773 -0.04151110 0.17700000 99 35 46 0.000000
-0.02663154 -0.04151110 0.17700000 184 116 133 0.000000
-0.02636345 -0.04174563 0.17800000 192 124 141 0.000000
-0.02594490 -0.04174563 0.17800000 183 99 115 0.000000
-0.02566976 -0.04198016 0.17900001 175 91 107 0.000000
-0.02538992 -0.04221468 0.18000001 171 84 96 0.000000
-0.02510537 -0.04244921 0.18100001 171 84 96 0.000000
-0.10348020 -0.03784446 0.16300000 46 66 61 0.000000
-0.10233037 -0.03784446 0.16300000 45 68 62 0.000000
-0.10094072 -0.03761229 0.16200000 51 70 72 0.000000
-0.10055979 -0.03761229 0.16200000 49 54 72 0.000000
-0.10017887 -0.03761229 0.16200000 62 67 85 0.000000
-0.09979794 -0.03761229 0.16200000 164 137 161 0.000000
-0.09941702 -0.03761229 0.16200000 255 229 253 0.000000
-0.09842477 -0.03738012 0.16100001 255 193 207 0.000000
-0.10227347 -0.04155926 0.17900001 250 120 144 0.000000
-0.10185258 -0.04155926 0.17900001 247 116 143 0.000000
-0.10143168 -0.04155926 0.17900001 246 115 142 0.000000
-0.02971184 -0.04132708 0.17800000 104 38 45 0.000000
-0.02912872 -0.04109491 0.17700000 105 39 46 0.000000
-0.02871252 -0.04109491 0.17700000 101 35 42 0.000000
-0.02829632 -0.04109491 0.17700000 100 34 41 0.000000
-0.02788013 -0.04109491 0.17700000 104 38 45 0.000000
-0.02746393 -0.04109491 0.17700000 94 27 39 0.000000
-0.02704773 -0.04109491 0.17700000 117 50 62 0.000000
-0.02663154 -0.04109491 0.17700000 195 120 137 0.000000
-0.02636345 -0.04132708 0.17800000 195 120 137 0.000000
-0.02594490 -0.04132708 0.17800000 184 97 114 0.000000
-0.02566976 -0.04155926 0.17900001 173 86 103 0.000000
-0.02538992 -0.04179143 0.18000001 171 80 91 0.000000
-0.02510537 -0.04202361 0.18100001 173 82 93 0.000000
-0.02481612 -0.04225578 0.18200001 164 79 88 0.000000
-0.02465617 -0.04272014 0.18400002 164 79 88 0.000000
-0.02469594 -0.04434536 0.19100001 147 73 83 0.000000
-0.10386348 -0.03746118 0.16300000 40 60 55 0.000000
-0.10348020 -0.03746118 0.16300000 39 59 54 0.000000
-0.10309692 -0.03746118 0.16300000 41 61 56 0.000000
-0.10271365 -0.03746118 0.16300000 38 58 51 0.000000
-0.10170258 -0.03723136 0.16200000 38 58 51 0.000000
-0.10132165 -0.03723136 0.16200000 45 63 59 0.000000
-0.10094072 -0.03723136 0.16200000 47 65 61 0.000000
-0.10055979 -0.03723136 0.16200000 47 55 70 0.000000
-0.10017887 -0.03723136 0.16200000 57 65 80 0.000000
-0.09918191 -0.03700154 0.16100001 135 112 135 0.000000
-0.09880334 -0.03700154 0.16100001 252 229 252 0.000000
-0.09842477 -0.03700154 0.16100001 255 196 213 0.000000
-0.09804619 -0.03700154 0.16100001 222 154 171 0.000000
-0.10311528 -0.04113836 0.17900001 249 119 143 0.000000
-0.10269438 -0.04113836 0.17900001 249 119 143 0.000000
-0.10128357 -0.04090853 0.17800000 251 118 143 0.000000
-0.02971184 -0.04090853 0.17800000 94 27 37 0.000000
-0.02912872 -0.04067871 0.17700000 99 33 40 0.000000
-0.02871252 -0.04067871 0.17700000 99 33 40 0.000000
-0.02829632 -0.04067871 0.17700000 100 34 41 0.000000
-0.02788013 -0.04067871 0.17700000 103 37 44 0.000000
-0.02746393 -0.04067871 0.17700000 91 24 34 0.000000
-0.02704773 -0.04067871 0.17700000 133 66 76 0.000000
-0.02663154 -0.04067871 0.17700000 202 121 138 0.000000
-0.02636345 -0.04090853 0.17800000 193 112 129 0.000000
-0.02594490 -0.04090853 0.17800000 189 102 116 0.000000
-0.02566976 -0.04113836 0.17900001 175 88 102 0.000000
-0.02538992 -0.04136818 0.18000001 171 82 90 0.000000
-0.02510537 -0.04159800 0.18100001 172 83 91 0.000000
-0.02481612 -0.04182783 0.18200001 160 78 84 0.000000
-0.02465617 -0.04228748 0.18400002 164 82 88 0.000000
-0.02475011 -0.04320677 0.18800001 154 76 85 0.000000
-0.02469594 -0.04389624 0.19100001 148 73 86 0.000000
-0.10565756 -0.03730538 0.16400000 39 63 51 0.000000
-0.10488631 -0.03730538 0.16400000 35 58 50 0.000000
-0.10386348 -0.03707791 0.16300000 37 60 52 0.000000
-0.10348020 -0.03707791 0.16300000 38 61 53 0.000000
-0.10309692 -0.03707791 0.16300000 36 59 51 0.000000
-0.10208350 -0.03685044 0.16200000 45 65 58 0.000000
-0.10170258 -0.03685044 0.16200000 47 67 60 0.000000
-0.10132165 -0.03685044 0.16200000 48 66 60 0.000000
-0.10031763 -0.03662297 0.16100001 43 61 55 0.000000
-0.09993906 -0.03662297 0.16100001 63 74 83 0.000000
-0.09956048 -0.03662297 0.16100001 52 63 72 0.000000
-0.09918191 -0.03662297 0.16100001 122 102 124 0.000000
-0.09880334 -0.03662297 0.16100001 243 223 245 0.000000
-0.09842477 -0.03662297 0.16100001 255 194 211 0.000000
-0.09804619 -0.03662297 0.16100001 227 159 176 0.000000
-0.09766761 -0.03662297 0.16100001 244 142 161 0.000000
-0.02871252 -0.04026251 0.17700000 99 35 46 0.000000
-0.02829632 -0.04026251 0.17700000 98 34 43 0.000000
-0.02788013 -0.04026251 0.17700000 97 33 42 0.000000
-0.02746393 -0.04026251 0.17700000 91 22 35 0.000000
-0.02704773 -0.04026251 0.17700000 149 80 93 0.000000
-0.02663154 -0.04026251 0.17700000 206 122 140 0.000000
-0.02636345 -0.04048999 0.17800000 192 108 126 0.000000
-0.02594490 -0.04048999 0.17800000 190 103 117 0.000000
-0.02566976 -0.04071746 0.17900001 181 94 108 0.000000
-0.02538992 -0.04094493 0.18000001 175 89 96 0.000000
-0.02510537 -0.04117240 0.18100001 172 86 93 0.000000
-0.02495247 -0.04162735 0.18300001 164 85 90 0.000000
-0.02479017 -0.04208229 0.18500000 163 84 89 0.000000
-0.02475011 -0.04276470 0.18800001 154 80 85 0.000000
-0.02469594 -0.04344712 0.19100001 144 76 84 0.000000
-0.10386348 -0.03669463 0.16300000 35 60 43 0.000000
-0.10348020 -0.03669463 0.16300000 42 66 54 0.000000
-0.10246442 -0.03646951 0.16200000 44 68 56 0.000000
-0.10208350 -0.03646951 0.16200000 52 71 61 0.000000
-0.10170258 -0.03646951 0.16200000 55 74 64 0.000000
-0.10069621 -0.03624439 0.16100001 54 70 61 0.000000
-0.10031763 -0.03624439 0.16100001 48 64 55 0.000000
-0.09993906 -0.03624439 0.16100001 52 64 70 0.000000
-0.09956048 -0.03624439 0.16100001 46 58 64 0.000000
-0.09918191 -0.03624439 0.16100001 116 93 116 0.000000
-0.09880334 -0.03624439 0.16100001 240 217 240 0.000000
-0.09842477 -0.03624439 0.16100001 255 190 208 0.000000
-0.09804619 -0.03624439 0.16100001 232 162 180 0.000000
-0.09766761 -0.03624439 0.16100001 249 147 166 0.000000
-0.02871252 -0.03984632 0.17700000 98 33 49 0.000000
-0.02829632 -0.03984632 0.17700000 99 35 48 0.000000
-0.02788013 -0.03984632 0.17700000 98 34 47 0.000000
-0.02730877 -0.03962120 0.17600001 94 25 38 0.000000
-0.02704773 -0.03984632 0.17700000 169 100 113 0.000000
-0.02663154 -0.03984632 0.17700000 205 124 139 0.000000
-0.02621534 -0.03984632 0.17700000 190 109 124 0.000000
-0.02594490 -0.04007144 0.17800000 184 97 111 0.000000
-0.02566976 -0.04029656 0.17900001 177 90 104 0.000000
-0.02553097 -0.04074680 0.18100001 169 84 93 0.000000
-0.02510537 -0.04074680 0.18100001 173 88 97 0.000000
-0.02495247 -0.04119704 0.18300001 158 79 82 0.000000
-0.02479017 -0.04164728 0.18500000 160 81 84 0.000000
-0.02475011 -0.04232264 0.18800001 156 82 85 0.000000
-0.02469594 -0.04299801 0.19100001 147 81 88 0.000000
-0.10322627 -0.03608859 0.16200000 38 63 44 0.000000
-0.10284535 -0.03608859 0.16200000 39 63 49 0.000000
-0.10246442 -0.03608859 0.16200000 36 60 46 0.000000
-0.10107479 -0.03586582 0.16100001 39 60 49 0.000000
-0.10069621 -0.03586582 0.16100001 42 61 51 0.000000
-0.10031763 -0.03586582 0.16100001 36 55 45 0.000000
-0.09993906 -0.03586582 0.16100001 42 55 64 0.000000
-0.09956048 -0.03586582 0.16100001 37 50 59 0.000000
-0.09918191 -0.03586582 0.16100001 106 81 105 0.000000
-0.09880334 -0.03586582 0.16100001 232 207 231 0.000000
-0.09842477 -0.03586582 0.16100001 255 186 208 0.000000
-0.09804619 -0.03586582 0.16100001 244 168 190 0.000000
-0.09766761 -0.03586582 0.16100001 250 148 167 0.000000
-0.08704837 -0.03853904 0.17300001 241 181 193 0.000000
-0.02813646 -0.03920735 0.17600001 96 33 48 0.000000
-0.02772261 -0.03920735 0.17600001 90 27 42 0.000000
-0.02730877 -0.03920735 0.17600001 103 30 49 0.000000
-0.02689492 -0.03920735 0.17600001 195 122 141 0.000000
-0.02663154 -0.03943012 0.17700000 209 128 143 0.000000
-0.02621534 -0.03943012 0.17700000 191 110 125 0.000000
-0.02594490 -0.03965289 0.17800000 188 101 115 0.000000
-0.02581317 -0.04009843 0.18000001 181 94 108 0.000000
-0.02553097 -0.04032120 0.18100001 173 88 97 0.000000
-0.02524407 -0.04054397 0.18200001 173 88 97 0.000000
-0.02495247 -0.04076674 0.18300001 163 84 87 0.000000
-0.02479017 -0.04121227 0.18500000 162 83 86 0.000000
-0.02475011 -0.04188058 0.18800001 161 84 90 0.000000
-0.10463003 -0.03592808 0.16300000 20 47 38 0.000000
-0.10360720 -0.03570766 0.16200000 21 47 34 0.000000
-0.10322627 -0.03570766 0.16200000 15 41 28 0.000000
-0.10284535 -0.03570766 0.16200000 23 48 39 0.000000
-0.10246442 -0.03570766 0.16200000 30 55 46 0.000000
-0.10145336 -0.03548725 0.16100001 35 58 52 0.000000
-0.10107479 -0.03548725 0.16100001 30 53 47 0.000000
-0.10069621 -0.03548725 0.16100001 32 52 47 0.000000
-0.10031763 -0.03548725 0.16100001 20 40 35 0.000000
-0.09993906 -0.03548725 0.16100001 32 43 54 0.000000
-0.09956048 -0.03548725 0.16100001 31 42 53 0.000000
-0.09918191 -0.03548725 0.16100001 97 69 96 0.000000
-0.09880334 -0.03548725 0.16100001 221 193 220 0.000000
-0.09842477 -0.03548725 0.16100001 255 184 210 0.000000
-0.09804619 -0.03548725 0.16100001 247 169 195 0.000000
-0.09766761 -0.03548725 0.16100001 236 133 155 0.000000
-0.02813646 -0.03879351 0.17600001 94 30 43 0.000000
-0.02772261 -0.03879351 0.17600001 87 23 36 0.000000
-0.02730877 -0.03879351 0.17600001 124 48 68 0.000000
-0.02689492 -0.03879351 0.17600001 208 132 152 0.000000
-0.02663154 -0.03901392 0.17700000 214 130 146 0.000000
-0.02621534 -0.03901392 0.17700000 193 109 125 0.000000
-0.02594490 -0.03923434 0.17800000 194 104 117 0.000000
-0.02581317 -0.03967518 0.18000001 179 89 102 0.000000
-0.02553097 -0.03989560 0.18100001 173 91 99 0.000000
-0.02524407 -0.04011602 0.18200001 168 86 94 0.000000
-0.02495247 -0.04033643 0.18300001 163 84 91 0.000000
-0.02479017 -0.04077727 0.18500000 159 80 87 0.000000
-0.02488176 -0.04165894 0.18900001 155 78 84 0.000000
-0.10398813 -0.03532673 0.16200000 20 45 40 0.000000
-0.10360720 -0.03532673 0.16200000 14 37 31 0.000000
-0.10322627 -0.03532673 0.16200000 15 38 32 0.000000
-0.10221051 -0.03510867 0.16100001 19 41 40 0.000000
-0.10183193 -0.03510867 0.16100001 23 45 44 0.000000
-0.10145336 -0.03510867 0.16100001 21 43 44 0.000000
-0.10107479 -0.03510867 0.16100001 24 46 47 0.000000
-0.10069621 -0.03510867 0.16100001 27 46 46 0.000000
-0.10031763 -0.03510867 0.16100001 24 43 43 0.000000
-0.09931832 -0.03489060 0.16000001 32 41 53 0.000000
-0.09956048 -0.03510867 0.16100001 29 38 50 0.000000
-0.09918191 -0.03510867 0.16100001 80 54 83 0.000000
-0.09880334 -0.03510867 0.16100001 202 176 205 0.000000
-0.09842477 -0.03510867 0.16100001 255 187 215 0.000000
-0.09804619 -0.03510867 0.16100001 244 173 201 0.000000
-0.09766761 -0.03510867 0.16100001 238 139 164 0.000000
-0.02813646 -0.03837966 0.17600001 91 27 40 0.000000
-0.02772261 -0.03837966 0.17600001 82 18 31 0.000000
-0.02730877 -0.03837966 0.17600001 167 90 110 0.000000
-0.02689492 -0.03837966 0.17600001 213 136 156 0.000000
-0.02663154 -0.03859773 0.17700000 212 124 141 0.000000
-0.02621534 -0.03859773 0.17700000 195 107 124 0.000000
-0.02594490 -0.03881579 0.17800000 197 108 118 0.000000
-0.02566976 -0.03903386 0.17900001 178 89 99 0.000000
-0.02553097 -0.03946999 0.18100001 172 90 98 0.000000
-0.02495247 -0.03990613 0.18300001 165 88 94 0.000000
-0.02492417 -0.04056032 0.18600000 156 79 85 0.000000
-0.02488176 -0.04121452 0.18900001 154 77 83 0.000000
-0.10258909 -0.03473010 0.16100001 18 42 40 0.000000
-0.10221051 -0.03473010 0.16100001 20 44 44 0.000000
-0.10183193 -0.03473010 0.16100001 25 49 49 0.000000
-0.10145336 -0.03473010 0.16100001 23 47 47 0.000000
-0.10107479 -0.03473010 0.16100001 21 45 45 0.000000
-0.10007077 -0.03451438 0.16000001 23 45 46 0.000000
-0.09969454 -0.03451438 0.16000001 22 44 45 0.000000
-0.09931832 -0.03451438 0.16000001 30 41 50 0.000000
-0.09894209 -0.03451438 0.16000001 23 34 43 0.000000
-0.09856587 -0.03451438 0.16000001 63 42 67 0.000000
-0.09818966 -0.03451438 0.16000001 169 148 173 0.000000
-0.09842477 -0.03473010 0.16100001 255 196 222 0.000000
-0.09804619 -0.03473010 0.16100001 247 181 207 0.000000
-0.09766761 -0.03473010 0.16100001 249 150 175 0.000000
-0.02813646 -0.03796582 0.17600001 93 26 40 0.000000
-0.02772261 -0.03796582 0.17600001 89 22 36 0.000000
-0.02730877 -0.03796582 0.17600001 198 117 134 0.000000
-0.02689492 -0.03796582 0.17600001 216 135 152 0.000000
-0.02663154 -0.03818153 0.17700000 207 115 129 0.000000
-0.02621534 -0.03818153 0.17700000 189 97 111 0.000000
-0.02594490 -0.03839725 0.17800000 183 94 102 0.000000
-0.02566976 -0.03861296 0.17900001 180 91 99 0.000000
-0.02553097 -0.03904439 0.18100001 171 89 95 0.000000
-0.02495247 -0.03947582 0.18300001 159 85 90 0.000000
-0.02492417 -0.04012296 0.18600000 155 81 86 0.000000
-0.10296766 -0.03435152 0.16100001 18 41 37 0.000000
-0.10258909 -0.03435152 0.16100001 21 44 40 0.000000
-0.10221051 -0.03435152 0.16100001 21 45 45 0.000000
-0.10119943 -0.03413816 0.16000001 23 47 47 0.000000
-0.10082322 -0.03413816 0.16000001 21 45 47 0.000000
-0.10044699 -0.03413816 0.16000001 23 47 49 0.000000
-0.10007077 -0.03413816 0.16000001 21 44 49 0.000000
-0.09969454 -0.03413816 0.16000001 23 46 51 0.000000
-0.09931832 -0.03413816 0.16000001 27 43 51 0.000000
-0.09894209 -0.03413816 0.16000001 22 38 46 0.000000
-0.09856587 -0.03413816 0.16000001 45 31 54 0.000000
-0.09818966 -0.03413816 0.16000001 126 112 135 0.000000
-0.09781343 -0.03413816 0.16000001 255 205 228 0.000000
-0.09804619 -0.03435152 0.16100001 245 188 211 0.000000
-0.09766761 -0.03435152 0.16100001 242 149 170 0.000000
-0.09320174 -0.03861879 0.18100001 255 148 171 0.000000
-0.04764549 -0.04117915 0.19300000 129 97 104 0.000000
-0.04719167 -0.04117915 0.19300000 127 95 102 0.000000
-0.02797659 -0.03733861 0.17500001 90 21 34 0.000000
-0.02772261 -0.03755197 0.17600001 107 38 51 0.000000
-0.02730877 -0.03755197 0.17600001 216 135 150 0.000000
-0.02689492 -0.03755197 0.17600001 217 136 151 0.000000
-0.02648108 -0.03755197 0.17600001 217 120 133 0.000000
-0.02621534 -0.03776534 0.17700000 189 92 105 0.000000
-0.02594490 -0.03797870 0.17800000 182 92 96 0.000000
-0.02566976 -0.03819206 0.17900001 181 91 95 0.000000
-0.02553097 -0.03861879 0.18100001 169 88 89 0.000000
-0.02524407 -0.03883215 0.18200001 169 88 89 0.000000
-0.02495247 -0.03904552 0.18300001 159 86 89 0.000000
-0.02505817 -0.03989897 0.18700001 154 81 84 0.000000
-0.02501341 -0.04053906 0.19000001 152 79 84 0.000000
-0.10232811 -0.03376193 0.16000001 20 45 40 0.000000
-0.10195188 -0.03376193 0.16000001 21 46 41 0.000000
-0.10157566 -0.03376193 0.16000001 15 40 47 0.000000
-0.10119943 -0.03376193 0.16000001 18 43 50 0.000000
-0.10082322 -0.03376193 0.16000001 21 46 53 0.000000
-0.10044699 -0.03376193 0.16000001 22 47 54 0.000000
-0.10007077 -0.03376193 0.16000001 18 43 50 0.000000
-0.09969454 -0.03376193 0.16000001 21 46 53 0.000000
-0.09931832 -0.03376193 0.16000001 24 45 53 0.000000
-0.09894209 -0.03376193 0.16000001 19 40 48 0.000000
-0.09856587 -0.03376193 0.16000001 35 28 50 0.000000
-0.09818966 -0.03376193 0.16000001 74 67 89 0.000000
-0.09781343 -0.03376193 0.16000001 232 179 207 0.000000
-0.09743721 -0.03376193 0.16000001 251 198 226 0.000000
-0.09766761 -0.03397295 0.16100001 247 156 174 0.000000
-0.02797659 -0.03692712 0.17500001 85 21 30 0.000000
-0.02756510 -0.03692712 0.17500001 135 71 80 0.000000
-0.02730877 -0.03713813 0.17600001 227 146 161 0.000000
-0.02689492 -0.03713813 0.17600001 221 140 155 0.000000
-0.02648108 -0.03713813 0.17600001 208 110 119 0.000000
-0.02621534 -0.03734913 0.17700000 189 91 100 0.000000
-0.02594490 -0.03756015 0.17800000 184 94 98 0.000000
-0.02524407 -0.03840420 0.18200001 167 82 87 0.000000
-0.02508883 -0.03882622 0.18400002 159 85 88 0.000000
-0.02519217 -0.03967027 0.18800001 154 80 83 0.000000
-0.02501341 -0.04009230 0.19000001 137 67 69 0.000000
-0.10243630 -0.03317705 0.15900001 21 44 40 0.000000
-0.10270433 -0.03338571 0.16000001 24 47 43 0.000000
-0.10232811 -0.03338571 0.16000001 23 47 45 0.000000
-0.10195188 -0.03338571 0.16000001 21 45 43 0.000000
-0.10094081 -0.03317705 0.15900001 19 44 49 0.000000
-0.10119943 -0.03338571 0.16000001 21 46 51 0.000000
-0.10082322 -0.03338571 0.16000001 20 48 54 0.000000
-0.10044699 -0.03338571 0.16000001 18 46 52 0.000000
-0.10007077 -0.03338571 0.16000001 14 41 50 0.000000
-0.09969454 -0.03338571 0.16000001 17 44 53 0.000000
-0.09931832 -0.03338571 0.16000001 21 45 55 0.000000
-0.09894209 -0.03338571 0.16000001 21 45 55 0.000000
-0.09856587 -0.03338571 0.16000001 26 29 50 0.000000
-0.09818966 -0.03338571 0.16000001 49 52 73 0.000000
-0.09781343 -0.03338571 0.16000001 179 136 170 0.000000
-0.09743721 -0.03338571 0.16000001 242 199 233 0.000000
-0.09706099 -0.03338571 0.16000001 255 173 196 0.000000
-0.09728904 -0.03359437 0.16100001 245 160 183 0.000000
-0.02838809 -0.03651562 0.17500001 77 19 17 0.000000
-0.02797659 -0.03651562 0.17500001 90 23 33 0.000000
-0.02756510 -0.03651562 0.17500001 167 100 110 0.000000
-0.02715361 -0.03651562 0.17500001 230 147 160 0.000000
-0.02689492 -0.03672428 0.17600001 216 133 146 0.000000
-0.02648108 -0.03672428 0.17600001 185 88 97 0.000000
-0.02621534 -0.03693294 0.17700000 186 89 98 0.000000
-0.02594490 -0.03714160 0.17800000 183 90 95 0.000000
-0.02524407 -0.03797625 0.18200001 162 76 81 0.000000
-0.02522518 -0.03860223 0.18500000 149 70 75 0.000000
-0.02532617 -0.03943687 0.18900001 146 67 72 0.000000
-0.02514506 -0.03985419 0.19100001 137 64 67 0.000000
-0.02508383 -0.04048017 0.19400001 122 57 55 0.000000
-0.10179204 -0.03259687 0.15800001 20 44 42 0.000000
-0.10206243 -0.03280318 0.15900001 21 45 43 0.000000
-0.10168856 -0.03280318 0.15900001 25 49 49 0.000000
-0.10131468 -0.03280318 0.15900001 24 48 48 0.000000
-0.10094081 -0.03280318 0.15900001 18 46 50 0.000000
-0.10056694 -0.03280318 0.15900001 17 45 49 0.000000
-0.10019308 -0.03280318 0.15900001 17 47 52 0.000000
-0.09981920 -0.03280318 0.15900001 15 45 50 0.000000
-0.09944533 -0.03280318 0.15900001 14 47 51 0.000000
-0.09907145 -0.03280318 0.15900001 16 49 53 0.000000
-0.09869758 -0.03280318 0.15900001 16 46 51 0.000000
-0.09894209 -0.03300949 0.16000001 20 50 55 0.000000
-0.09856587 -0.03300949 0.16000001 35 47 63 0.000000
-0.09818966 -0.03300949 0.16000001 35 47 63 0.000000
-0.09781343 -0.03300949 0.16000001 103 74 108 0.000000
-0.09743721 -0.03300949 0.16000001 214 185 219 0.000000
-0.09706099 -0.03300949 0.16000001 255 183 211 0.000000
-0.09728904 -0.03321580 0.16100001 240 162 190 0.000000
-0.09362735 -0.03734198 0.18100001 244 135 148 0.000000
-0.02838809 -0.03610413 0.17500001 72 16 18 0.000000
-0.02797659 -0.03610413 0.17500001 103 36 46 0.000000
-0.02756510 -0.03610413 0.17500001 196 129 139 0.000000
-0.02715361 -0.03610413 0.17500001 232 146 160 0.000000
-0.02674211 -0.03610413 0.17500001 216 130 144 0.000000
-0.02648108 -0.03631044 0.17600001 182 91 100 0.000000
-0.02621534 -0.03651674 0.17700000 186 95 104 0.000000
-0.02594490 -0.03672305 0.17800000 177 88 94 0.000000
-0.02553097 -0.03734198 0.18100001 168 83 92 0.000000
-0.02538278 -0.03775460 0.18300001 167 82 91 0.000000
-0.02536153 -0.03837353 0.18600000 149 70 77 0.000000
-0.02546017 -0.03919877 0.19000001 145 66 73 0.000000
-0.02527671 -0.03961138 0.19200000 139 66 67 0.000000
-0.02508383 -0.04002400 0.19400001 120 56 51 0.000000
-0.10179204 -0.03222535 0.15800001 22 47 52 0.000000
-0.10142052 -0.03222535 0.15800001 22 47 52 0.000000
-0.10168856 -0.03242930 0.15900001 29 54 59 0.000000
-0.10131468 -0.03242930 0.15900001 32 57 62 0.000000
-0.10094081 -0.03242930 0.15900001 25 55 60 0.000000
-0.10056694 -0.03242930 0.15900001 22 52 57 0.000000
-0.10019308 -0.03242930 0.15900001 10 46 52 0.000000
-0.09981920 -0.03242930 0.15900001 11 47 53 0.000000
-0.09944533 -0.03242930 0.15900001 14 48 54 0.000000
-0.09907145 -0.03242930 0.15900001 20 54 60 0.000000
-0.09869758 -0.03242930 0.15900001 17 45 51 0.000000
-0.09894209 -0.03263326 0.16000001 20 48 54 0.000000
-0.09856587 -0.03263326 0.16000001 33 46 57 0.000000
-0.09818966 -0.03263326 0.16000001 24 37 48 0.000000
-0.09781343 -0.03263326 0.16000001 65 51 76 0.000000
-0.09743721 -0.03263326 0.16000001 151 137 162 0.000000
-0.09706099 -0.03263326 0.16000001 255 194 222 0.000000
-0.09668476 -0.03263326 0.16000001 240 175 203 0.000000
-0.08970069 -0.03569263 0.17500001 255 164 176 0.000000
-0.02822587 -0.03548867 0.17400001 72 13 18 0.000000
-0.02797659 -0.03569263 0.17500001 129 62 74 0.000000
-0.02756510 -0.03569263 0.17500001 211 144 156 0.000000
-0.02715361 -0.03569263 0.17500001 231 145 157 0.000000
-0.02674211 -0.03569263 0.17500001 213 127 139 0.000000
-0.02648108 -0.03589659 0.17600001 184 93 100 0.000000
-0.02621534 -0.03610055 0.17700000 184 93 100 0.000000
-0.02609066 -0.03650846 0.17900001 176 87 95 0.000000
-0.02581317 -0.03671242 0.18000001 172 83 91 0.000000
-0.02552148 -0.03752825 0.18400002 159 74 83 0.000000
-0.02549788 -0.03814013 0.18700001 141 64 70 0.000000
-0.02559417 -0.03895596 0.19100001 142 65 71 0.000000
-0.10142052 -0.03185383 0.15800001 32 61 71 0.000000
-0.10104901 -0.03185383 0.15800001 25 54 64 0.000000
-0.10131468 -0.03205543 0.15900001 27 56 66 0.000000
-0.10094081 -0.03205543 0.15900001 24 56 63 0.000000
-0.10056694 -0.03205543 0.15900001 16 48 55 0.000000
-0.10019308 -0.03205543 0.15900001 13 52 59 0.000000
-0.09981920 -0.03205543 0.15900001 12 51 58 0.000000
-0.09944533 -0.03205543 0.15900001 10 46 52 0.000000
-0.09907145 -0.03205543 0.15900001 18 54 60 0.000000
-0.09869758 -0.03205543 0.15900001 22 45 52 0.000000
-0.09894209 -0.03225704 0.16000001 23 46 53 0.000000
-0.09856587 -0.03225704 0.16000001 33 50 53 0.000000
-0.09818966 -0.03225704 0.16000001 18 35 38 0.000000
-0.09781343 -0.03225704 0.16000001 36 37 52 0.000000
-0.09743721 -0.03225704 0.16000001 65 66 81 0.000000
-0.09706099 -0.03225704 0.16000001 199 158 182 0.000000
-0.09728904 -0.03245865 0.16100001 238 197 221 0.000000
-0.09523612 -0.03346668 0.16600001 252 117 139 0.000000
-0.09484579 -0.03346668 0.16600001 247 112 134 0.000000
-0.09457258 -0.03669238 0.18200001 249 116 130 0.000000
-0.02863501 -0.03507953 0.17400001 75 15 25 0.000000
-0.02822587 -0.03507953 0.17400001 82 22 32 0.000000
-0.02797659 -0.03528114 0.17500001 178 109 122 0.000000
-0.02756510 -0.03528114 0.17500001 215 146 159 0.000000
-0.02715361 -0.03528114 0.17500001 230 140 153 0.000000
-0.02674211 -0.03528114 0.17500001 201 111 124 0.000000
-0.02621534 -0.03568435 0.17700000 174 83 92 0.000000
-0.02609066 -0.03608757 0.17900001 170 84 91 0.000000
-0.02567203 -0.03669238 0.18200001 152 70 78 0.000000
-0.02566018 -0.03729720 0.18500000 158 76 84 0.000000
-0.02577059 -0.03810363 0.18900001 139 65 70 0.000000
-0.02572817 -0.03870845 0.19200000 134 60 65 0.000000
-0.10142052 -0.03148231 0.15800001 27 59 70 0.000000
-0.10104901 -0.03148231 0.15800001 27 56 66 0.000000
-0.10067748 -0.03148231 0.15800001 31 60 70 0.000000
-0.10094081 -0.03168156 0.15900001 23 57 63 0.000000
-0.10056694 -0.03168156 0.15900001 19 53 59 0.000000
-0.10019308 -0.03168156 0.15900001 17 56 65 0.000000
-0.09981920 -0.03168156 0.15900001 13 52 61 0.000000
-0.09944533 -0.03168156 0.15900001 8 44 54 0.000000
-0.09907145 -0.03168156 0.15900001 19 55 65 0.000000
-0.09869758 -0.03168156 0.15900001 30 52 62 0.000000
-0.09894209 -0.03188082 0.16000001 22 44 54 0.000000
-0.09856587 -0.03188082 0.16000001 22 43 49 0.000000
-0.09818966 -0.03188082 0.16000001 21 42 48 0.000000
-0.09781343 -0.03188082 0.16000001 29 38 48 0.000000
-0.09743721 -0.03188082 0.16000001 29 38 48 0.000000
-0.09706099 -0.03188082 0.16000001 92 73 97 0.000000
-0.09728904 -0.03208007 0.16100001 196 177 201 0.000000
-0.09691046 -0.03208007 0.16100001 255 193 222 0.000000
-0.09653190 -0.03208007 0.16100001 234 160 189 0.000000
-0.09615332 -0.03208007 0.16100001 235 130 155 0.000000
-0.09523612 -0.03307635 0.16600001 248 123 145 0.000000
-0.09484579 -0.03307635 0.16600001 248 123 145 0.000000
-0.09353332 -0.03586592 0.18000001 253 118 132 0.000000
-0.02863501 -0.03467039 0.17400001 78 18 28 0.000000
-0.02822587 -0.03467039 0.17400001 102 42 52 0.000000
-0.02797659 -0.03486964 0.17500001 211 136 149 0.000000
-0.02756510 -0.03486964 0.17500001 218 143 156 0.000000
-0.02715361 -0.03486964 0.17500001 225 130 145 0.000000
-0.02674211 -0.03486964 0.17500001 182 87 102 0.000000
-0.02648108 -0.03506890 0.17600001 175 81 89 0.000000
-0.02621534 -0.03526815 0.17700000 176 82 90 0.000000
-0.02609066 -0.03566666 0.17900001 163 78 85 0.000000
-0.02581317 -0.03586592 0.18000001 166 81 88 0.000000
-0.02579889 -0.03706145 0.18600000 149 72 78 0.000000
-0.02590694 -0.03785847 0.19000001 137 64 69 0.000000
-0.02567166 -0.03885474 0.19500001 122 52 56 0.000000
-0.10142052 -0.03111079 0.15800001 23 55 66 0.000000
-0.10104901 -0.03111079 0.15800001 24 56 63 0.000000
-0.10067748 -0.03111079 0.15800001 28 60 67 0.000000
-0.10094081 -0.03130769 0.15900001 21 55 61 0.000000
-0.10056694 -0.03130769 0.15900001 17 51 57 0.000000
-0.10019308 -0.03130769 0.15900001 9 48 57 0.000000
-0.09981920 -0.03130769 0.15900001 15 54 63 0.000000
-0.09944533 -0.03130769 0.15900001 16 53 70 0.000000
-0.09907145 -0.03130769 0.15900001 18 55 72 0.000000
-0.09869758 -0.03130769 0.15900001 21 54 69 0.000000
-0.09832371 -0.03130769 0.15900001 19 52 67 0.000000
-0.09856587 -0.03150459 0.16000001 28 50 62 0.000000
-0.09818966 -0.03150459 0.16000001 25 47 59 0.000000
-0.09781343 -0.03150459 0.16000001 23 41 50 0.000000
-0.09743721 -0.03150459 0.16000001 23 41 50 0.000000
-0.09766761 -0.03170150 0.16100001 38 38 58 0.000000
-0.09728904 -0.03170150 0.16100001 103 103 123 0.000000
-0.09691046 -0.03170150 0.16100001 228 179 209 0.000000
-0.09653190 -0.03170150 0.16100001 246 197 227 0.000000
-0.09675054 -0.03189840 0.16200000 245 163 187 0.000000
-0.09636961 -0.03189840 0.16200000 236 154 178 0.000000
-0.09598868 -0.03189840 0.16200000 243 147 167 0.000000
-0.09524559 -0.03229221 0.16400000 247 143 163 0.000000
-0.09485996 -0.03229221 0.16400000 239 132 153 0.000000
-0.09500054 -0.03583648 0.18200001 249 114 128 0.000000
-0.02863501 -0.03426125 0.17400001 82 20 30 0.000000
-0.02822587 -0.03426125 0.17400001 154 92 102 0.000000
-0.02781673 -0.03426125 0.17400001 230 150 162 0.000000
-0.02756510 -0.03445815 0.17500001 226 146 158 0.000000
-0.02715361 -0.03445815 0.17500001 208 114 126 0.000000
-0.02648108 -0.03465505 0.17600001 178 89 97 0.000000
-0.02621534 -0.03485196 0.17700000 172 83 91 0.000000
-0.02581317 -0.03544267 0.18000001 157 75 81 0.000000
-0.02621500 -0.03721480 0.18900001 140 67 70 0.000000
-0.02613018 -0.03839622 0.19500001 126 59 62 0.000000
-0.10056694 -0.03093382 0.15900001 13 47 53 0.000000
-0.10019308 -0.03093382 0.15900001 11 49 63 0.000000
-0.09981920 -0.03093382 0.15900001 20 58 72 0.000000
-0.09944533 -0.03093382 0.15900001 23 60 81 0.000000
-0.09907145 -0.03093382 0.15900001 19 56 77 0.000000
-0.09869758 -0.03093382 0.15900001 12 49 66 0.000000
-0.09894209 -0.03112837 0.16000001 20 57 74 0.000000
-0.09856587 -0.03112837 0.16000001 23 56 69 0.000000
-0.09818966 -0.03112837 0.16000001 19 52 65 0.000000
-0.09781343 -0.03112837 0.16000001 24 52 67 0.000000
-0.09804619 -0.03132293 0.16100001 23 51 66 0.000000
-0.09766761 -0.03132293 0.16100001 21 37 56 0.000000
-0.09728904 -0.03132293 0.16100001 53 69 88 0.000000
-0.09691046 -0.03132293 0.16100001 160 133 167 0.000000
-0.09653190 -0.03132293 0.16100001 201 174 208 0.000000
-0.09675054 -0.03151748 0.16200000 255 191 217 0.000000
-0.09636961 -0.03151748 0.16200000 255 192 218 0.000000
-0.09598868 -0.03151748 0.16200000 255 183 196 0.000000
-0.09560776 -0.03151748 0.16200000 251 176 189 0.000000
-0.09522683 -0.03151748 0.16200000 235 152 165 0.000000
-0.09484591 -0.03151748 0.16200000 236 153 166 0.000000
-0.09504810 -0.03171203 0.16300000 241 155 169 0.000000
-0.09524559 -0.03190658 0.16400000 242 156 170 0.000000
-0.09485996 -0.03190658 0.16400000 245 161 179 0.000000
-0.09447433 -0.03190658 0.16400000 252 168 186 0.000000
-0.09408870 -0.03190658 0.16400000 248 167 186 0.000000
-0.09427443 -0.03210113 0.16500001 247 166 185 0.000000
-0.09388646 -0.03210113 0.16500001 248 167 186 0.000000
-0.09349848 -0.03210113 0.16500001 249 168 187 0.000000
-0.09311049 -0.03210113 0.16500001 251 172 190 0.000000
-0.09216056 -0.03190658 0.16400000 253 174 192 0.000000
-0.09138930 -0.03190658 0.16400000 250 168 190 0.000000
-0.02863501 -0.03385210 0.17400001 98 35 41 0.000000
-0.02822587 -0.03385210 0.17400001 190 127 133 0.000000
-0.02781673 -0.03385210 0.17400001 235 152 163 0.000000
-0.02756510 -0.03404666 0.17500001 222 139 150 0.000000
-0.02715361 -0.03404666 0.17500001 184 95 105 0.000000
-0.02674211 -0.03404666 0.17500001 174 85 95 0.000000
-0.02648108 -0.03424121 0.17600001 171 85 92 0.000000
-0.02621534 -0.03443576 0.17700000 162 76 83 0.000000
-0.02663111 -0.03735404 0.19200000 133 63 65 0.000000
-0.02658870 -0.03793770 0.19500001 128 66 67 0.000000
-0.10056694 -0.03055995 0.15900001 8 44 50 0.000000
-0.09944533 -0.03055995 0.15900001 18 57 73 0.000000
-0.09907145 -0.03055995 0.15900001 18 57 73 0.000000
-0.09869758 -0.03055995 0.15900001 22 61 79 0.000000
-0.09804619 -0.03094435 0.16100001 13 47 65 0.000000
-0.09766761 -0.03094435 0.16100001 21 47 65 0.000000
-0.09728904 -0.03094435 0.16100001 25 51 69 0.000000
-0.09691046 -0.03094435 0.16100001 64 59 90 0.000000
-0.09675054 -0.03113655 0.16200000 194 151 183 0.000000
-0.09636961 -0.03113655 0.16200000 236 193 225 0.000000
-0.09539617 -0.03094435 0.16100001 255 209 219 0.000000
-0.09501759 -0.03094435 0.16100001 255 209 219 0.000000
-0.09522683 -0.03113655 0.16200000 255 203 207 0.000000
-0.09484591 -0.03113655 0.16200000 255 203 207 0.000000
-0.09446499 -0.03113655 0.16200000 255 205 212 0.000000
-0.09466483 -0.03132875 0.16300000 255 208 215 0.000000
-0.09485996 -0.03152095 0.16400000 255 211 221 0.000000
-0.09447433 -0.03152095 0.16400000 255 205 215 0.000000
-0.09408870 -0.03152095 0.16400000 255 206 215 0.000000
-0.09370307 -0.03152095 0.16400000 255 210 219 0.000000
-0.09388646 -0.03171315 0.16500001 255 213 221 0.000000
-0.09349848 -0.03171315 0.16500001 255 212 220 0.000000
-0.09254619 -0.03152095 0.16400000 255 208 215 0.000000
-0.09216056 -0.03152095 0.16400000 255 205 212 0.000000
-0.09121533 -0.03132875 0.16300000 246 193 207 0.000000
-0.09083205 -0.03132875 0.16300000 236 183 197 0.000000
-0.09044877 -0.03132875 0.16300000 239 181 197 0.000000
-0.09006550 -0.03132875 0.16300000 243 185 201 0.000000
-0.08968222 -0.03132875 0.16300000 247 184 199 0.000000
-0.08897185 -0.03305856 0.17200001 239 114 132 0.000000
-0.02904416 -0.03344296 0.17400001 105 53 58 0.000000
-0.02863501 -0.03344296 0.17400001 142 71 80 0.000000
-0.02822587 -0.03344296 0.17400001 223 152 161 0.000000
-0.02781673 -0.03344296 0.17400001 231 149 157 0.000000
-0.02756510 -0.03363516 0.17500001 200 118 126 0.000000
-0.02715361 -0.03363516 0.17500001 174 88 97 0.000000
-0.02674211 -0.03363516 0.17500001 171 85 94 0.000000
-0.09728904 -0.03056578 0.16100001 9 35 53 0.000000
-0.09522683 -0.03075562 0.16200000 255 210 219 0.000000
-0.09484591 -0.03075562 0.16200000 255 217 226 0.000000
-0.09446499 -0.03075562 0.16200000 255 220 235 0.000000
-0.09466483 -0.03094547 0.16300000 255 225 240 0.000000
-0.09428155 -0.03094547 0.16300000 255 230 246 0.000000
-0.09389827 -0.03094547 0.16300000 255 233 249 0.000000
-0.09408870 -0.03113532 0.16400000 255 236 251 0.000000
-0.09370307 -0.03113532 0.16400000 255 236 251 0.000000
-0.09331745 -0.03113532 0.16400000 255 239 247 0.000000
-0.09293182 -0.03113532 0.16400000 255 239 247 0.000000
-0.09254619 -0.03113532 0.16400000 255 242 247 0.000000
-0.09216056 -0.03113532 0.16400000 255 242 247 0.000000
-0.09121533 -0.03094547 0.16300000 255 240 249 0.000000
-0.09083205 -0.03094547 0.16300000 255 237 246 0.000000
-0.09044877 -0.03094547 0.16300000 255 230 242 0.000000
-0.09006550 -0.03094547 0.16300000 255 224 236 0.000000
-0.08913202 -0.03075562 0.16200000 255 221 229 0.000000
-0.08875109 -0.03075562 0.16200000 255 222 230 0.000000
-0.08837017 -0.03075562 0.16200000 255 215 223 0.000000
-0.08760832 -0.03075562 0.16200000 251 196 202 0.000000
-0.08776584 -0.03094547 0.16300000 251 196 202 0.000000
-0.08738256 -0.03094547 0.16300000 255 190 195 0.000000
-0.08699928 -0.03094547 0.16300000 248 182 187 0.000000
-0.08821017 -0.03151502 0.16600001 254 179 187 0.000000
-0.08848286 -0.03189472 0.16800001 243 152 170 0.000000
-0.08793728 -0.03227442 0.17000000 236 134 151 0.000000
-0.08753754 -0.03227442 0.17000000 230 128 145 0.000000
-0.08713780 -0.03227442 0.17000000 231 129 146 0.000000
-0.08673806 -0.03227442 0.17000000 231 129 146 0.000000
-0.08633834 -0.03227442 0.17000000 219 140 158 0.000000
-0.08593860 -0.03227442 0.17000000 229 150 168 0.000000
-0.08503570 -0.03208457 0.16900001 234 193 203 0.000000
-0.08463831 -0.03208457 0.16900001 255 241 251 0.000000
-0.08374245 -0.03189472 0.16800001 255 253 251 0.000000
-0.08334742 -0.03189472 0.16800001 255 253 251 0.000000
-0.08295239 -0.03189472 0.16800001 254 255 251 0.000000
-0.08206594 -0.03170487 0.16700001 254 255 251 0.000000
-0.08167326 -0.03170487 0.16700001 254 255 251 0.000000
-0.08128057 -0.03170487 0.16700001 254 255 251 0.000000
-0.08040354 -0.03151502 0.16600001 254 255 251 0.000000
-0.08001321 -0.03151502 0.16600001 254 255 251 0.000000
-0.07875524 -0.03132517 0.16500001 254 255 251 0.000000
-0.07712104 -0.03113532 0.16400000 252 255 251 0.000000
-0.02986244 -0.03303382 0.17400001 110 71 67 0.000000
-0.02945330 -0.03303382 0.17400001 107 52 58 0.000000
-0.02904416 -0.03303382 0.17400001 142 87 93 0.000000
-0.02863501 -0.03303382 0.17400001 220 141 155 0.000000
-0.02822587 -0.03303382 0.17400001 233 154 168 0.000000
-0.02797659 -0.03322367 0.17500001 223 141 149 0.000000
-0.02674211 -0.03322367 0.17500001 168 86 94 0.000000
-0.09789331 -0.03037470 0.16200000 16 42 60 0.000000
-0.09751239 -0.03037470 0.16200000 24 41 57 0.000000
-0.09675054 -0.03037470 0.16200000 38 39 54 0.000000
-0.09501759 -0.03018720 0.16100001 90 66 85 0.000000
-0.09522683 -0.03037470 0.16200000 124 82 100 0.000000
-0.09484591 -0.03037470 0.16200000 150 108 126 0.000000
-0.09408405 -0.03037470 0.16200000 213 161 180 0.000000
-0.09485996 -0.03074969 0.16400000 228 174 192 0.000000
-0.09447433 -0.03074969 0.16400000 236 182 200 0.000000
-0.09408870 -0.03074969 0.16400000 247 190 213 0.000000
-0.09370307 -0.03074969 0.16400000 255 201 224 0.000000
-0.09388646 -0.03093719 0.16500001 255 208 222 0.000000
-0.09349848 -0.03093719 0.16500001 255 221 235 0.000000
-0.09311049 -0.03093719 0.16500001 255 234 245 0.000000
-0.09216056 -0.03074969 0.16400000 255 230 241 0.000000
-0.09121533 -0.03056219 0.16300000 255 231 240 0.000000
-0.09027480 -0.03037470 0.16200000 255 235 244 0.000000
-0.08989386 -0.03037470 0.16200000 255 242 253 0.000000
-0.08951295 -0.03037470 0.16200000 255 242 253 0.000000
-0.08913202 -0.03037470 0.16200000 255 246 250 0.000000
-0.08875109 -0.03037470 0.16200000 255 246 250 0.000000
-0.08837017 -0.03037470 0.16200000 255 247 250 0.000000
-0.08798924 -0.03037470 0.16200000 255 247 250 0.000000
-0.08760832 -0.03037470 0.16200000 255 245 247 0.000000
-0.08722740 -0.03037470 0.16200000 255 243 245 0.000000
-0.08684646 -0.03037470 0.16200000 255 229 229 0.000000
-0.08646554 -0.03037470 0.16200000 252 221 221 0.000000
-0.08608461 -0.03037470 0.16200000 255 221 224 0.000000
-0.08570369 -0.03037470 0.16200000 255 220 223 0.000000
-0.08532276 -0.03037470 0.16200000 255 203 213 0.000000
-0.08546616 -0.03056219 0.16300000 251 196 206 0.000000
-0.08560488 -0.03074969 0.16400000 250 190 198 0.000000
-0.08573887 -0.03093719 0.16500001 251 191 199 0.000000
-0.08586817 -0.03112469 0.16600001 253 189 198 0.000000
-0.08599277 -0.03131219 0.16700001 253 189 198 0.000000
-0.08662524 -0.03168719 0.16900001 255 186 197 0.000000
-0.08622785 -0.03168719 0.16900001 254 185 196 0.000000
-0.08583047 -0.03168719 0.16900001 246 188 202 0.000000
-0.08543309 -0.03168719 0.16900001 252 194 208 0.000000
-0.08503570 -0.03168719 0.16900001 252 207 222 0.000000
-0.08413749 -0.03149969 0.16800001 255 236 251 0.000000
-0.08374245 -0.03149969 0.16800001 255 246 254 0.000000
-0.08334742 -0.03149969 0.16800001 255 244 252 0.000000
-0.08245862 -0.03131219 0.16700001 255 249 252 0.000000
-0.08157453 -0.03112469 0.16600001 255 249 252 0.000000
-0.08118420 -0.03112469 0.16600001 255 250 252 0.000000
-0.08079387 -0.03112469 0.16600001 255 250 252 0.000000
-0.08040354 -0.03112469 0.16600001 255 251 249 0.000000
-0.07953120 -0.03093719 0.16500001 255 251 249 0.000000
-0.07914322 -0.03093719 0.16500001 255 253 250 0.000000
-0.07875524 -0.03093719 0.16500001 255 254 251 0.000000
-0.07789230 -0.03074969 0.16400000 255 255 251 0.000000
-0.07750668 -0.03074969 0.16400000 255 255 251 0.000000
-0.07712104 -0.03074969 0.16400000 255 255 249 0.000000
-0.07673541 -0.03074969 0.16400000 255 255 249 0.000000
-0.07634979 -0.03074969 0.16400000 254 255 249 0.000000
-0.07596416 -0.03074969 0.16400000 254 255 249 0.000000
-0.07557853 -0.03074969 0.16400000 254 255 249 0.000000
-0.07519290 -0.03074969 0.16400000 254 255 249 0.000000
-0.06630231 -0.03056219 0.16300000 254 255 247 0.000000
-0.06591903 -0.03056219 0.16300000 254 255 246 0.000000
-0.06553575 -0.03056219 0.16300000 255 255 247 0.000000
-0.06515247 -0.03056219 0.16300000 255 243 236 0.000000
-0.06476920 -0.03056219 0.16300000 237 212 205 0.000000
-0.06438592 -0.03056219 0.16300000 231 176 173 0.000000
-0.06400264 -0.03056219 0.16300000 233 178 175 0.000000
-0.06361937 -0.03056219 0.16300000 237 175 174 0.000000
-0.06323609 -0.03056219 0.16300000 250 188 187 0.000000
-0.06169590 -0.03074969 0.16400000 255 251 251 0.000000
-0.06131027 -0.03074969 0.16400000 249 239 239 0.000000
-0.06092464 -0.03074969 0.16400000 218 195 205 0.000000
-0.06053901 -0.03074969 0.16400000 200 177 187 0.000000
-0.06015338 -0.03074969 0.16400000 194 164 176 0.000000
-0.05976776 -0.03074969 0.16400000 188 158 170 0.000000
-0.05741633 -0.03093719 0.16500001 178 123 133 0.000000
-0.05702835 -0.03093719 0.16500001 213 158 168 0.000000
-0.03027158 -0.03262468 0.17400001 116 68 72 0.000000
-0.02986244 -0.03262468 0.17400001 114 66 70 0.000000
-0.02945330 -0.03262468 0.17400001 141 74 84 0.000000
-0.02904416 -0.03262468 0.17400001 199 132 142 0.000000
-0.02863501 -0.03262468 0.17400001 239 155 171 0.000000
-0.09865516 -0.02999377 0.16200000 17 48 64 0.000000
-0.09827424 -0.02999377 0.16200000 16 45 57 0.000000
-0.09789331 -0.02999377 0.16200000 17 46 58 0.000000
-0.09751239 -0.02999377 0.16200000 18 45 54 0.000000
-0.09675054 -0.02999377 0.16200000 32 54 64 0.000000
-0.09636961 -0.02999377 0.16200000 27 49 59 0.000000
-0.09598868 -0.02999377 0.16200000 33 41 56 0.000000
-0.09560776 -0.02999377 0.16200000 38 46 61 0.000000
-0.09522683 -0.02999377 0.16200000 59 44 62 0.000000
-0.09484591 -0.02999377 0.16200000 63 48 66 0.000000
-0.09446499 -0.02999377 0.16200000 80 48 72 0.000000
-0.09408405 -0.02999377 0.16200000 85 53 77 0.000000
-0.09428155 -0.03017892 0.16300000 91 51 80 0.000000
-0.09331745 -0.03036406 0.16400000 242 182 209 0.000000
-0.09293182 -0.03036406 0.16400000 233 173 200 0.000000
-0.09198188 -0.03017892 0.16300000 247 179 198 0.000000
-0.09159861 -0.03017892 0.16300000 249 181 200 0.000000
-0.09121533 -0.03017892 0.16300000 255 202 216 0.000000
-0.09027480 -0.02999377 0.16200000 255 226 240 0.000000
-0.08989386 -0.02999377 0.16200000 255 236 244 0.000000
-0.08951295 -0.02999377 0.16200000 255 238 246 0.000000
-0.08913202 -0.02999377 0.16200000 255 246 250 0.000000
-0.08820325 -0.02980863 0.16100001 255 245 249 0.000000
-0.08782468 -0.02980863 0.16100001 255 246 253 0.000000
-0.08744610 -0.02980863 0.16100001 255 247 254 0.000000
-0.08706753 -0.02980863 0.16100001 255 247 254 0.000000
-0.08668896 -0.02980863 0.16100001 255 247 254 0.000000
-0.08631039 -0.02980863 0.16100001 255 248 251 0.000000
-0.08593181 -0.02980863 0.16100001 255 247 250 0.000000
-0.08517466 -0.02980863 0.16100001 255 246 247 0.000000
-0.08479608 -0.02980863 0.16100001 255 240 239 0.000000
-0.08494183 -0.02999377 0.16200000 255 234 233 0.000000
-0.08456092 -0.02999377 0.16200000 255 233 233 0.000000
-0.08469962 -0.03017892 0.16300000 255 233 233 0.000000
-0.08444799 -0.03036406 0.16400000 255 225 226 0.000000
-0.08508751 -0.03073436 0.16600001 255 217 221 0.000000
-0.08520740 -0.03091951 0.16700001 246 203 207 0.000000
-0.08532260 -0.03110465 0.16800001 246 202 211 0.000000
-0.08543309 -0.03128980 0.16900001 248 204 213 0.000000
-0.08503570 -0.03128980 0.16900001 243 205 220 0.000000
-0.08413749 -0.03110465 0.16800001 251 213 228 0.000000
-0.08374245 -0.03110465 0.16800001 252 224 235 0.000000
-0.08334742 -0.03110465 0.16800001 254 226 237 0.000000
-0.08245862 -0.03091951 0.16700001 247 226 235 0.000000
-0.08157453 -0.03073436 0.16600001 249 228 237 0.000000
-0.08118420 -0.03073436 0.16600001 247 226 235 0.000000
-0.08030716 -0.03054921 0.16500001 251 230 239 0.000000
-0.07991917 -0.03054921 0.16500001 253 232 239 0.000000
-0.07953120 -0.03054921 0.16500001 255 237 244 0.000000
-0.07914322 -0.03054921 0.16500001 255 249 251 0.000000
-0.07875524 -0.03054921 0.16500001 255 249 251 0.000000
-0.07789230 -0.03036406 0.16400000 255 250 250 0.000000
-0.07750668 -0.03036406 0.16400000 255 250 250 0.000000
-0.07712104 -0.03036406 0.16400000 255 250 248 0.000000
-0.07673541 -0.03036406 0.16400000 255 250 248 0.000000
-0.07634979 -0.03036406 0.16400000 255 250 248 0.000000
-0.07596416 -0.03036406 0.16400000 255 250 248 0.000000
-0.07557853 -0.03036406 0.16400000 255 250 248 0.000000
-0.07519290 -0.03036406 0.16400000 255 250 248 0.000000
-0.07480727 -0.03036406 0.16400000 255 250 245 0.000000
-0.07442164 -0.03036406 0.16400000 255 252 247 0.000000
-0.07403602 -0.03036406 0.16400000 255 249 237 0.000000
-0.07365039 -0.03036406 0.16400000 245 230 218 0.000000
-0.07326476 -0.03036406 0.16400000 235 225 213 0.000000
