0.03807879984378815 0.0034187203273177147 0.17599999904632568 254 255 251
0.03849264606833458 0.0034187203273177147 0.17599999904632568 254 255 251
0.038906488567590714 0.0034187203273177147 0.17599999904632568 254 255 251
0.039320334792137146 0.0034187203273177147 0.17599999904632568 254 255 251
0.03973418101668358 0.0034187203273177147 0.17599999904632568 254 255 251
0.04037613794207573 0.0034381449222564697 0.1770000010728836 254 255 251
0.04079233482480049 0.0034381449222564697 0.1770000010728836 254 255 251
0.04144135117530823 0.003457569284364581 0.17800000309944153 254 255 251
0.04185989871621132 0.003457569284364581 0.17800000309944153 254 255 251
0.042515967041254044 0.003476993879303336 0.17900000512599945 254 255 251
0.042936865240335464 0.003476993879303336 0.17900000512599945 254 255 251
0.043357763439416885 0.003476993879303336 0.17900000512599945 254 255 251
0.043778665363788605 0.003476993879303336 0.17900000512599945 254 255 251
0.044199563562870026 0.003476993879303336 0.17900000512599945 254 255 251
0.044869739562273026 0.003496418474242091 0.18000000715255737 254 255 251
0.045292992144823074 0.003496418474242091 0.18000000715255737 254 255 251
0.045716241002082825 0.003496418474242091 0.18000000715255737 254 255 251
0.046139493584632874 0.003496418474242091 0.18000000715255737 254 255 251
0.046562742441892624 0.003496418474242091 0.18000000715255737 254 255 251
0.0472470261156559 0.003515843069180846 0.1809999942779541 254 255 251
0.04767262935638428 0.003515843069180846 0.1809999942779541 254 255 251
0.048098232597112656 0.003515843069180846 0.1809999942779541 254 255 251
0.048523835837841034 0.003515843069180846 0.1809999942779541 255 252 254
0.049219876527786255 0.0035352676641196012 0.18199999630451202 254 248 250
0.04964783042669296 0.0035352676641196012 0.18199999630451202 231 218 224
0.05035092309117317 0.0035546920262277126 0.18299999833106995 245 232 238
0.05078123137354851 0.0035546920262277126 0.18299999833106995 255 248 255
0.051491379737854004 0.0035741166211664677 0.18400000035762787 255 246 254
0.05192403495311737 0.0035741166211664677 0.18400000035762787 255 236 246
0.052641239017248154 0.0035935412161052227 0.1850000023841858 255 238 248
0.053363144397735596 0.0036129658110439777 0.1860000044107437 255 208 236
0.008089547976851463 0.004159204661846161 0.19099999964237213 254 255 188
0.008493958972394466 0.004137428943067789 0.1899999976158142 255 255 190
0.008940723724663258 0.004137428943067789 0.1899999976158142 254 255 203
0.009338080883026123 0.00411565275862813 0.1889999955892563 254 255 203
0.00973073486238718 0.004093877039849758 0.18799999356269836 253 255 229
0.010118686594069004 0.004072100855410099 0.18700000643730164 255 255 231
0.010558397509157658 0.004072100855410099 0.18700000643730164 254 255 247
0.010939294472336769 0.004050325136631727 0.1860000044107437 254 255 247
0.011376653797924519 0.004050325136631727 0.1860000044107437 254 255 249
0.011750496923923492 0.004028548952192068 0.1850000023841858 254 255 249
0.012185504660010338 0.004028548952192068 0.1850000023841858 254 255 251
0.012552293948829174 0.004006773233413696 0.18400000035762787 254 255 251
0.012984950095415115 0.004006773233413696 0.18400000035762787 254 255 251
0.013417607173323631 0.004006773233413696 0.18400000035762787 254 255 251
0.013774990104138851 0.003984997048974037 0.18299999833106995 254 255 249
0.014205295592546463 0.003984997048974037 0.18299999833106995 254 255 249
0.0146356001496315 0.003984997048974037 0.18299999833106995 254 255 249
0.015065905638039112 0.003984997048974037 0.18299999833106995 254 255 249
0.01549621019512415 0.003984997048974037 0.18299999833106995 254 255 251
0.01592651568353176 0.003984997048974037 0.18299999833106995 254 255 251
0.0163568202406168 0.003984997048974037 0.18299999833106995 254 255 251
0.01669539324939251 0.003963221330195665 0.18199999630451202 254 255 251
0.017123347148299217 0.003963221330195665 0.18199999630451202 254 255 251
0.017551301047205925 0.003963221330195665 0.18199999630451202 254 255 251
0.01788046769797802 0.003941445145756006 0.1809999942779541 254 255 251
0.01830606907606125 0.003941445145756006 0.1809999942779541 254 255 251
0.018628181889653206 0.003919669426977634 0.18000000715255737 254 255 251
0.019051432609558105 0.003919669426977634 0.18000000715255737 254 255 251
0.019366491585969925 0.003897893475368619 0.17900000512599945 254 255 251
0.019787389785051346 0.003897893475368619 0.17900000512599945 254 255 251
0.020095394924283028 0.0038761175237596035 0.17800000309944153 254 255 251
0.02051394246518612 0.0038761175237596035 0.17800000309944153 254 255 251
0.02093249000608921 0.0038761175237596035 0.17800000309944153 254 255 251
0.02135103940963745 0.0038761175237596035 0.17800000309944153 254 255 251
0.0220634825527668 0.003854341572150588 0.1770000010728836 254 255 251
0.022479679435491562 0.003854341572150588 0.1770000010728836 254 255 251
0.022895876318216324 0.003854341572150588 0.1770000010728836 254 255 251
0.023312073200941086 0.003854341572150588 0.1770000010728836 254 255 251
0.023728270083665848 0.003854341572150588 0.1770000010728836 254 255 251
0.02414446696639061 0.003854341572150588 0.1770000010728836 254 255 251
0.024421902373433113 0.0038325656205415726 0.17599999904632568 254 255 251
0.024835748597979546 0.0038325656205415726 0.17599999904632568 254 255 251
0.02524959295988083 0.0038325656205415726 0.17599999904632568 254 255 251
0.02566343918442726 0.0038325656205415726 0.17599999904632568 254 255 251
0.026077283546328545 0.0038325656205415726 0.17599999904632568 254 255 251
0.026491129770874977 0.0038325656205415726 0.17599999904632568 254 255 251
0.02690497413277626 0.0038325656205415726 0.17599999904632568 254 255 251
0.027318820357322693 0.0038325656205415726 0.17599999904632568 254 255 249
0.027732664719223976 0.0038325656205415726 0.17599999904632568 253 254 248
0.02814651094377041 0.0038325656205415726 0.17599999904632568 212 210 198
0.028560355305671692 0.0038325656205415726 0.17599999904632568 214 212 200
0.029138827696442604 0.003854341572150588 0.1770000010728836 255 255 245
0.029555024579167366 0.003854341572150588 0.1770000010728836 255 255 245
0.029971221461892128 0.003854341572150588 0.1770000010728836 254 255 247
0.03038741834461689 0.003854341572150588 0.1770000010728836 254 255 247
0.030803615227341652 0.003854341572150588 0.1770000010728836 254 255 249
0.031219812110066414 0.003854341572150588 0.1770000010728836 254 255 249
0.03163600713014603 0.003854341572150588 0.1770000010728836 254 255 251
0.03205220401287079 0.003854341572150588 0.1770000010728836 254 255 251
0.03246840089559555 0.003854341572150588 0.1770000010728836 254 255 251
0.03269881010055542 0.0038325656205415726 0.17599999904632568 254 255 251
0.03311265632510185 0.0038325656205415726 0.17599999904632568 254 255 251
0.033526498824357986 0.0038325656205415726 0.17599999904632568 254 255 251
0.03394034504890442 0.0038325656205415726 0.17599999904632568 254 255 251
0.03435419127345085 0.0038325656205415726 0.17599999904632568 254 255 251
0.03457048907876015 0.003810789668932557 0.17499999701976776 254 255 251
0.03498198464512825 0.003810789668932557 0.17499999701976776 254 255 251
0.03539348021149635 0.003810789668932557 0.17499999701976776 254 255 251
0.03580497205257416 0.003810789668932557 0.17499999701976776 254 255 251
0.03621646761894226 0.003810789668932557 0.17499999701976776 254 255 251
0.036627959460020065 0.003810789668932557 0.17499999701976776 249 250 246
0.03725110739469528 0.0038325656205415726 0.17599999904632568 251 252 248
0.037664953619241714 0.0038325656205415726 0.17599999904632568 254 255 251
0.03807879984378815 0.0038325656205415726 0.17599999904632568 254 255 251
0.03849264606833458 0.0038325656205415726 0.17599999904632568 254 255 251
0.038906488567590714 0.0038325656205415726 0.17599999904632568 254 255 251
0.039320334792137146 0.0038325656205415726 0.17599999904632568 254 255 251
0.03973418101668358 0.0038325656205415726 0.17599999904632568 254 255 251
0.04037613794207573 0.003854341572150588 0.1770000010728836 254 255 251
0.04079233482480049 0.003854341572150588 0.1770000010728836 254 255 251
0.04144135117530823 0.0038761175237596035 0.17800000309944153 254 255 251
0.04185989871621132 0.0038761175237596035 0.17800000309944153 254 255 251
0.04227844625711441 0.0038761175237596035 0.17800000309944153 254 255 251
0.042936865240335464 0.003897893475368619 0.17900000512599945 254 255 251
0.043357763439416885 0.003897893475368619 0.17900000512599945 254 255 251
0.043778665363788605 0.003897893475368619 0.17900000512599945 247 248 244
0.044199563562870026 0.003897893475368619 0.17900000512599945 254 255 251
0.04462046176195145 0.003897893475368619 0.17900000512599945 254 255 251
0.045292992144823074 0.003919669426977634 0.18000000715255737 254 255 251
0.045716241002082825 0.003919669426977634 0.18000000715255737 254 255 251
0.046139493584632874 0.003919669426977634 0.18000000715255737 254 255 251
0.046562742441892624 0.003919669426977634 0.18000000715255737 254 255 251
0.0472470261156559 0.003941445145756006 0.1809999942779541 254 255 251
0.04767262935638428 0.003941445145756006 0.1809999942779541 254 255 251
0.048098232597112656 0.003941445145756006 0.1809999942779541 254 255 251
0.048523835837841034 0.003941445145756006 0.1809999942779541 255 253 254
0.049219876527786255 0.003963221330195665 0.18199999630451202 241 237 238
0.04964783042669296 0.003963221330195665 0.18199999630451202 227 218 223
0.05035092309117317 0.003984997048974037 0.18299999833106995 242 233 238
0.05078123137354851 0.003984997048974037 0.18299999833106995 255 250 255
0.051491379737854004 0.004006773233413696 0.18400000035762787 255 250 255
0.05192403495311737 0.004006773233413696 0.18400000035762787 255 247 255
0.052641239017248154 0.004028548952192068 0.1850000023841858 255 246 255
0.053363144397735596 0.004050325136631727 0.1860000044107437 255 203 228
0.05380050465464592 0.004050325136631727 0.1860000044107437 215 151 176
0.008089547976851463 0.004608321003615856 0.19099999964237213 254 255 203
0.008493958972394466 0.00458419369533658 0.1899999976158142 255 255 204
0.008940723724663258 0.00458419369533658 0.1899999976158142 254 255 218
0.009338080883026123 0.004560066387057304 0.1889999955892563 254 255 218
0.00973073486238718 0.0045359390787780285 0.18799999356269836 253 255 236
0.010118686594069004 0.004511811770498753 0.18700000643730164 254 255 237
0.010558397509157658 0.004511811770498753 0.18700000643730164 254 255 247
0.010939294472336769 0.004487684462219477 0.1860000044107437 254 255 247
0.011376653797924519 0.004487684462219477 0.1860000044107437 254 255 249
0.011750496923923492 0.004463557153940201 0.1850000023841858 254 255 249
0.012185504660010338 0.004463557153940201 0.1850000023841858 254 255 249
0.012552293948829174 0.004439429845660925 0.18400000035762787 254 255 249
0.012984950095415115 0.004439429845660925 0.18400000035762787 254 255 247
0.013417607173323631 0.004439429845660925 0.18400000035762787 254 255 247
0.013774990104138851 0.004415302537381649 0.18299999833106995 254 255 243
0.014205295592546463 0.004415302537381649 0.18299999833106995 252 254 241
0.0146356001496315 0.004415302537381649 0.18299999833106995 254 255 245
0.015065905638039112 0.004415302537381649 0.18299999833106995 254 255 245
0.01549621019512415 0.004415302537381649 0.18299999833106995 252 255 249
0.01592651568353176 0.004415302537381649 0.18299999833106995 252 255 249
0.0162674393504858 0.004391175229102373 0.18199999630451202 252 255 249
0.01669539324939251 0.004391175229102373 0.18199999630451202 252 255 249
0.017123347148299217 0.004391175229102373 0.18199999630451202 252 255 251
0.01745486445724964 0.00436704745516181 0.1809999942779541 252 255 251
0.01788046769797802 0.00436704745516181 0.1809999942779541 252 255 251
0.01830606907606125 0.00436704745516181 0.1809999942779541 252 255 251
0.018628181889653206 0.004342920146882534 0.18000000715255737 252 255 251
0.019051432609558105 0.004342920146882534 0.18000000715255737 252 255 251
0.019366491585969925 0.004318792838603258 0.17900000512599945 252 255 249
0.019787389785051346 0.004318792838603258 0.17900000512599945 250 254 247
0.020095394924283028 0.004294665530323982 0.17800000309944153 250 254 247
0.02051394246518612 0.004294665530323982 0.17800000309944153 252 255 249
0.02093249000608921 0.004294665530323982 0.17800000309944153 252 255 249
0.021231088787317276 0.004270538222044706 0.1770000010728836 252 255 249
0.021647285670042038 0.004270538222044706 0.1770000010728836 252 255 249
0.0220634825527668 0.004270538222044706 0.1770000010728836 252 255 249
0.022479679435491562 0.004270538222044706 0.1770000010728836 252 255 249
0.022895876318216324 0.004270538222044706 0.1770000010728836 252 255 249
0.023180365562438965 0.0042464109137654305 0.17599999904632568 252 255 249
0.023594211786985397 0.0042464109137654305 0.17599999904632568 252 255 249
0.02400805801153183 0.0042464109137654305 0.17599999904632568 252 255 249
0.024421902373433113 0.0042464109137654305 0.17599999904632568 252 255 249
0.024835748597979546 0.0042464109137654305 0.17599999904632568 252 255 249
0.02524959295988083 0.0042464109137654305 0.17599999904632568 252 255 249
0.02566343918442726 0.0042464109137654305 0.17599999904632568 252 255 249
0.026077283546328545 0.0042464109137654305 0.17599999904632568 252 255 249
0.026491129770874977 0.0042464109137654305 0.17599999904632568 252 255 249
0.02690497413277626 0.0042464109137654305 0.17599999904632568 252 255 249
0.027318820357322693 0.0042464109137654305 0.17599999904632568 254 255 249
0.027732664719223976 0.0042464109137654305 0.17599999904632568 254 255 249
0.02814651094377041 0.0042464109137654305 0.17599999904632568 183 180 166
0.028560355305671692 0.0042464109137654305 0.17599999904632568 180 177 163
0.028974201530218124 0.0042464109137654305 0.17599999904632568 254 252 240
0.029388045892119408 0.0042464109137654305 0.17599999904632568 255 255 243
0.029971221461892128 0.004270538222044706 0.1770000010728836 254 255 245
0.03038741834461689 0.004270538222044706 0.1770000010728836 254 255 245
0.030803615227341652 0.004270538222044706 0.1770000010728836 254 255 249
0.031219812110066414 0.004270538222044706 0.1770000010728836 254 255 249
0.03163600713014603 0.004270538222044706 0.1770000010728836 254 255 249
0.03205220401287079 0.004270538222044706 0.1770000010728836 254 255 249
0.03246840089559555 0.004270538222044706 0.1770000010728836 254 255 251
0.03269881010055542 0.0042464109137654305 0.17599999904632568 254 255 251
0.03311265632510185 0.0042464109137654305 0.17599999904632568 254 255 251
0.033526498824357986 0.0042464109137654305 0.17599999904632568 254 255 251
0.03394034504890442 0.0042464109137654305 0.17599999904632568 254 255 251
0.03415899723768234 0.0042222836054861546 0.17499999701976776 254 255 251
0.03457048907876015 0.0042222836054861546 0.17499999701976776 254 255 251
0.03498198464512825 0.0042222836054861546 0.17499999701976776 254 255 251
0.03539348021149635 0.0042222836054861546 0.17499999701976776 254 255 251
0.03580497205257416 0.0042222836054861546 0.17499999701976776 254 255 251
0.03621646761894226 0.0042222836054861546 0.17499999701976776 254 255 251
0.036627959460020065 0.0042222836054861546 0.17499999701976776 247 248 244
0.03725110739469528 0.0042464109137654305 0.17599999904632568 246 246 240
0.037664953619241714 0.0042464109137654305 0.17599999904632568 255 255 249
0.03807879984378815 0.0042464109137654305 0.17599999904632568 254 255 249
0.03849264606833458 0.0042464109137654305 0.17599999904632568 254 255 249
0.038906488567590714 0.0042464109137654305 0.17599999904632568 254 255 249
0.039320334792137146 0.0042464109137654305 0.17599999904632568 254 255 249
0.03973418101668358 0.0042464109137654305 0.17599999904632568 254 255 251
0.04037613794207573 0.004270538222044706 0.1770000010728836 254 255 251
0.04079233482480049 0.004270538222044706 0.1770000010728836 254 255 251
0.04120853170752525 0.004270538222044706 0.1770000010728836 254 255 251
0.04185989871621132 0.004294665530323982 0.17800000309944153 254 255 251
0.04227844625711441 0.004294665530323982 0.17800000309944153 254 255 251
0.042936865240335464 0.004318792838603258 0.17900000512599945 254 255 251
0.043357763439416885 0.004318792838603258 0.17900000512599945 254 255 251
0.043778665363788605 0.004318792838603258 0.17900000512599945 252 253 247
0.044199563562870026 0.004318792838603258 0.17900000512599945 254 255 249
0.04462046176195145 0.004318792838603258 0.17900000512599945 255 255 251
0.045041363686323166 0.004318792838603258 0.17900000512599945 255 255 251
0.045716241002082825 0.004342920146882534 0.18000000715255737 254 255 251
0.046139493584632874 0.004342920146882534 0.18000000715255737 254 255 251
0.046562742441892624 0.004342920146882534 0.18000000715255737 254 255 251
0.0472470261156559 0.00436704745516181 0.1809999942779541 254 255 251
0.04767262935638428 0.00436704745516181 0.1809999942779541 254 255 251
0.048098232597112656 0.00436704745516181 0.1809999942779541 254 255 251
0.048523835837841034 0.00436704745516181 0.1809999942779541 255 253 255
0.049219876527786255 0.004391175229102373 0.18199999630451202 243 239 242
0.04964783042669296 0.004391175229102373 0.18199999630451202 223 214 221
0.05035092309117317 0.004415302537381649 0.18299999833106995 244 235 242
0.05078123137354851 0.004415302537381649 0.18299999833106995 255 251 255
0.051491379737854004 0.004439429845660925 0.18400000035762787 255 251 255
0.05192403495311737 0.004439429845660925 0.18400000035762787 255 247 254
0.052641239017248154 0.004463557153940201 0.1850000023841858 255 246 253
0.053363144397735596 0.004487684462219477 0.1860000044107437 255 210 233
0.054089754819869995 0.004511811770498753 0.18700000643730164 216 154 177
0.007304267957806587 0.005136873573064804 0.1940000057220459 255 255 187
0.007720435969531536 0.005110394675284624 0.19300000369548798 255 255 186
0.008089547976851463 0.0050574373453855515 0.19099999964237213 255 255 215
0.008493958972394466 0.0050309584476053715 0.1899999976158142 255 255 215
0.008940723724663258 0.0050309584476053715 0.1899999976158142 254 255 230
0.009338080883026123 0.005004480015486479 0.1889999955892563 254 255 230
0.00973073486238718 0.004978001117706299 0.18799999356269836 254 255 239
0.010118686594069004 0.004951522219926119 0.18700000643730164 254 255 239
0.010558397509157658 0.004951522219926119 0.18700000643730164 254 255 245
0.010939294472336769 0.004925043787807226 0.1860000044107437 254 255 245
0.011376653797924519 0.004925043787807226 0.1860000044107437 254 255 249
0.011750496923923492 0.004898564890027046 0.1850000023841858 254 255 249
0.012185504660010338 0.004898564890027046 0.1850000023841858 254 255 249
0.012552293948829174 0.004872085992246866 0.18400000035762787 254 255 249
0.012984950095415115 0.004872085992246866 0.18400000035762787 255 255 243
0.013417607173323631 0.004872085992246866 0.18400000035762787 255 255 243
0.013774990104138851 0.0048456075601279736 0.18299999833106995 247 230 214
0.014205295592546463 0.0048456075601279736 0.18299999833106995 215 198 182
0.0146356001496315 0.0048456075601279736 0.18299999833106995 254 253 236
0.015065905638039112 0.0048456075601279736 0.18299999833106995 255 255 239
0.01549621019512415 0.0048456075601279736 0.18299999833106995 254 255 247
0.01592651568353176 0.0048456075601279736 0.18299999833106995 254 255 247
0.0162674393504858 0.004819128662347794 0.18199999630451202 254 255 249
0.01669539324939251 0.004819128662347794 0.18199999630451202 254 255 249
0.017123347148299217 0.004819128662347794 0.18199999630451202 254 255 249
0.01745486445724964 0.004792650230228901 0.1809999942779541 254 255 249
0.01788046769797802 0.004792650230228901 0.1809999942779541 254 255 251
0.018204931169748306 0.004766171332448721 0.18000000715255737 254 255 251
0.018628181889653206 0.004766171332448721 0.18000000715255737 254 255 249
0.019051432609558105 0.004766171332448721 0.18000000715255737 254 255 249
0.019366491585969925 0.004739692434668541 0.17900000512599945 255 253 245
0.019787389785051346 0.004739692434668541 0.17900000512599945 243 236 228
0.020095394924283028 0.004713214002549648 0.17800000309944153 246 244 236
0.02051394246518612 0.004713214002549648 0.17800000309944153 255 255 247
0.02093249000608921 0.004713214002549648 0.17800000309944153 254 255 247
0.021231088787317276 0.004686735104769468 0.1770000010728836 254 255 247
0.021647285670042038 0.004686735104769468 0.1770000010728836 254 255 249
0.0220634825527668 0.004686735104769468 0.1770000010728836 254 255 249
0.022479679435491562 0.004686735104769468 0.1770000010728836 254 255 249
0.02276652120053768 0.004660256206989288 0.17599999904632568 254 255 249
0.023180365562438965 0.004660256206989288 0.17599999904632568 254 255 249
0.023594211786985397 0.004660256206989288 0.17599999904632568 254 255 249
0.02400805801153183 0.004660256206989288 0.17599999904632568 254 255 251
0.024421902373433113 0.004660256206989288 0.17599999904632568 254 255 251
0.024835748597979546 0.004660256206989288 0.17599999904632568 254 255 251
0.02524959295988083 0.004660256206989288 0.17599999904632568 254 255 251
0.02566343918442726 0.004660256206989288 0.17599999904632568 254 255 251
0.026077283546328545 0.004660256206989288 0.17599999904632568 254 255 251
0.026491129770874977 0.004660256206989288 0.17599999904632568 254 255 249
0.02690497413277626 0.004660256206989288 0.17599999904632568 254 255 249
0.027318820357322693 0.004660256206989288 0.17599999904632568 254 255 247
0.027732664719223976 0.004660256206989288 0.17599999904632568 254 255 247
0.02814651094377041 0.004660256206989288 0.17599999904632568 163 153 141
0.028560355305671692 0.004660256206989288 0.17599999904632568 153 143 131
0.028974201530218124 0.004660256206989288 0.17599999904632568 254 246 234
0.029388045892119408 0.004660256206989288 0.17599999904632568 255 253 241
0.02980189211666584 0.004660256206989288 0.17599999904632568 254 255 243
0.03038741834461689 0.004686735104769468 0.1770000010728836 254 255 243
0.030803615227341652 0.004686735104769468 0.1770000010728836 254 255 249
0.031219812110066414 0.004686735104769468 0.1770000010728836 254 255 249
0.03163600713014603 0.004686735104769468 0.1770000010728836 254 255 249
0.03205220401287079 0.004686735104769468 0.1770000010728836 254 255 249
0.03246840089559555 0.004686735104769468 0.1770000010728836 254 255 251
0.03269881010055542 0.004660256206989288 0.17599999904632568 254 255 251
0.03311265632510185 0.004660256206989288 0.17599999904632568 254 255 251
0.033526498824357986 0.004660256206989288 0.17599999904632568 254 255 251
0.03394034504890442 0.004660256206989288 0.17599999904632568 254 255 251
0.03415899723768234 0.004633777774870396 0.17499999701976776 254 255 251
0.03457048907876015 0.004633777774870396 0.17499999701976776 254 255 251
0.03498198464512825 0.004633777774870396 0.17499999701976776 254 255 251
0.03539348021149635 0.004633777774870396 0.17499999701976776 254 255 251
0.03580497205257416 0.004633777774870396 0.17499999701976776 254 255 251
0.03621646761894226 0.004633777774870396 0.17499999701976776 254 255 247
0.036627959460020065 0.004633777774870396 0.17499999701976776 250 252 243
0.03703945502638817 0.004633777774870396 0.17499999701976776 251 247 238
0.03745094686746597 0.004633777774870396 0.17499999701976776 255 254 245
0.03807879984378815 0.004660256206989288 0.17599999904632568 255 254 245
0.03849264606833458 0.004660256206989288 0.17599999904632568 255 254 245
0.038906488567590714 0.004660256206989288 0.17599999904632568 254 255 247
0.039320334792137146 0.004660256206989288 0.17599999904632568 254 255 247
0.03973418101668358 0.004660256206989288 0.17599999904632568 254 255 249
0.04037613794207573 0.004686735104769468 0.1770000010728836 254 255 249
0.04079233482480049 0.004686735104769468 0.1770000010728836 254 255 251
0.04120853170752525 0.004686735104769468 0.1770000010728836 254 255 251
0.04185989871621132 0.004713214002549648 0.17800000309944153 254 255 251
0.04227844625711441 0.004713214002549648 0.17800000309944153 254 255 251
0.042936865240335464 0.004739692434668541 0.17900000512599945 255 254 251
0.043357763439416885 0.004739692434668541 0.17900000512599945 243 240 237
0.043778665363788605 0.004739692434668541 0.17900000512599945 228 214 210
0.044199563562870026 0.004739692434668541 0.17900000512599945 248 234 230
0.04462046176195145 0.004739692434668541 0.17900000512599945 255 249 244
0.045041363686323166 0.004739692434668541 0.17900000512599945 255 251 246
0.045716241002082825 0.004766171332448721 0.18000000715255737 254 255 249
0.046139493584632874 0.004766171332448721 0.18000000715255737 254 255 249
0.046562742441892624 0.004766171332448721 0.18000000715255737 254 255 251
0.0472470261156559 0.004792650230228901 0.1809999942779541 254 255 251
0.04767262935638428 0.004792650230228901 0.1809999942779541 254 255 251
0.048098232597112656 0.004792650230228901 0.1809999942779541 254 255 251
0.048523835837841034 0.004792650230228901 0.1809999942779541 255 251 255
0.049219876527786255 0.004819128662347794 0.18199999630451202 233 227 231
0.04964783042669296 0.004819128662347794 0.18199999630451202 210 201 208
0.05035092309117317 0.0048456075601279736 0.18299999833106995 236 227 234
0.05078123137354851 0.0048456075601279736 0.18299999833106995 255 252 255
0.051491379737854004 0.004872085992246866 0.18400000035762787 255 252 255
0.05220623314380646 0.004898564890027046 0.1850000023841858 255 245 250
0.052641239017248154 0.004898564890027046 0.1850000023841858 255 245 250
0.053363144397735596 0.004925043787807226 0.1860000044107437 255 213 234
0.054089754819869995 0.004951522219926119 0.18700000643730164 218 161 182
0.007304267957806587 0.005593043752014637 0.1940000057220459 255 255 191
0.007720435969531536 0.00556421373039484 0.19300000369548798 255 255 193
0.008089547976851463 0.005506553687155247 0.19099999964237213 254 255 222
0.008493958972394466 0.00547772366553545 0.1899999976158142 254 255 222
0.008940723724663258 0.00547772366553545 0.1899999976158142 255 255 233
0.009338080883026123 0.005448893178254366 0.1889999955892563 254 255 232
0.00973073486238718 0.005420063156634569 0.18799999356269836 254 255 237
0.010118686594069004 0.005391233135014772 0.18700000643730164 254 255 237
0.010558397509157658 0.005391233135014772 0.18700000643730164 254 255 245
0.010939294472336769 0.005362403113394976 0.1860000044107437 254 255 245
0.011376653797924519 0.005362403113394976 0.1860000044107437 254 255 249
0.011750496923923492 0.005333572626113892 0.1850000023841858 254 255 249
0.012185504660010338 0.005333572626113892 0.1850000023841858 254 255 247
0.012552293948829174 0.005304742604494095 0.18400000035762787 254 255 247
0.012984950095415115 0.005304742604494095 0.18400000035762787 255 254 237
0.013417607173323631 0.005304742604494095 0.18400000035762787 247 238 221
0.013774990104138851 0.005275912582874298 0.18299999833106995 200 155 132
0.014205295592546463 0.005275912582874298 0.18299999833106995 182 137 114
0.0146356001496315 0.005275912582874298 0.18299999833106995 255 243 221
0.015065905638039112 0.005275912582874298 0.18299999833106995 255 251 229
0.01549621019512415 0.005275912582874298 0.18299999833106995 254 255 243
0.01592651568353176 0.005275912582874298 0.18299999833106995 254 255 243
0.0162674393504858 0.005247082561254501 0.18199999630451202 252 255 245
0.01669539324939251 0.005247082561254501 0.18199999630451202 252 255 245
0.017123347148299217 0.005247082561254501 0.18199999630451202 252 255 247
0.01745486445724964 0.005218252539634705 0.1809999942779541 252 255 247
0.01788046769797802 0.005218252539634705 0.1809999942779541 254 255 245
0.018204931169748306 0.0051894220523536205 0.18000000715255737 253 255 244
0.018628181889653206 0.0051894220523536205 0.18000000715255737 255 254 237
0.018945591524243355 0.005160592030733824 0.17900000512599945 255 252 235
0.019366491585969925 0.005160592030733824 0.17900000512599945 249 211 200
0.019787389785051346 0.005160592030733824 0.17900000512599945 216 178 167
0.020095394924283028 0.005131762009114027 0.17800000309944153 255 240 225
0.02051394246518612 0.005131762009114027 0.17800000309944153 255 250 235
0.02093249000608921 0.005131762009114027 0.17800000309944153 255 255 239
0.02135103940963745 0.005131762009114027 0.17800000309944153 255 255 239
0.021647285670042038 0.00510293198749423 0.1770000010728836 254 255 245
0.0220634825527668 0.00510293198749423 0.1770000010728836 254 255 245
0.022479679435491562 0.00510293198749423 0.1770000010728836 252 255 247
0.02276652120053768 0.005074101500213146 0.17599999904632568 252 255 247
0.023180365562438965 0.005074101500213146 0.17599999904632568 252 255 249
0.023594211786985397 0.005074101500213146 0.17599999904632568 252 255 249
0.02400805801153183 0.005074101500213146 0.17599999904632568 252 255 249
0.024421902373433113 0.005074101500213146 0.17599999904632568 252 255 249
0.024835748597979546 0.005074101500213146 0.17599999904632568 254 255 249
0.02524959295988083 0.005074101500213146 0.17599999904632568 254 255 249
0.02566343918442726 0.005074101500213146 0.17599999904632568 252 255 251
0.02592911757528782 0.0050452714785933495 0.17499999701976776 252 255 251
0.026340611279010773 0.0050452714785933495 0.17499999701976776 252 255 249
0.026752104982733727 0.0050452714785933495 0.17499999701976776 252 255 249
0.02716359868645668 0.0050452714785933495 0.17499999701976776 255 252 243
0.027575092390179634 0.0050452714785933495 0.17499999701976776 251 240 231
0.027986587956547737 0.0050452714785933495 0.17499999701976776 150 114 102
0.028560355305671692 0.005074101500213146 0.17599999904632568 135 99 87
0.028974201530218124 0.005074101500213146 0.17599999904632568 240 222 202
0.029388045892119408 0.005074101500213146 0.17599999904632568 255 251 231
0.02980189211666584 0.005074101500213146 0.17599999904632568 255 255 239
0.03038741834461689 0.00510293198749423 0.1770000010728836 255 255 239
0.030803615227341652 0.00510293198749423 0.1770000010728836 254 255 247
0.031219812110066414 0.00510293198749423 0.1770000010728836 254 255 247
0.03163600713014603 0.00510293198749423 0.1770000010728836 254 255 249
0.03205220401287079 0.00510293198749423 0.1770000010728836 254 255 249
0.03246840089559555 0.00510293198749423 0.1770000010728836 254 255 249
0.03269881010055542 0.005074101500213146 0.17599999904632568 254 255 249
0.03311265632510185 0.005074101500213146 0.17599999904632568 252 255 251
0.033526498824357986 0.005074101500213146 0.17599999904632568 252 255 251
0.03394034504890442 0.005074101500213146 0.17599999904632568 252 255 251
0.03415899723768234 0.0050452714785933495 0.17499999701976776 252 255 251
0.03457048907876015 0.0050452714785933495 0.17499999701976776 252 255 251
0.03498198464512825 0.0050452714785933495 0.17499999701976776 252 255 251
0.03539348021149635 0.0050452714785933495 0.17499999701976776 252 255 251
0.03580497205257416 0.0050452714785933495 0.17499999701976776 252 255 251
0.03621646761894226 0.0050452714785933495 0.17499999701976776 255 251 249
0.036627959460020065 0.0050452714785933495 0.17499999701976776 230 220 218
0.03703945502638817 0.0050452714785933495 0.17499999701976776 173 154 150
0.03745094686746597 0.0050452714785933495 0.17499999701976776 236 217 213
0.03807879984378815 0.005074101500213146 0.17599999904632568 255 245 241
0.03849264606833458 0.005074101500213146 0.17599999904632568 255 248 244
0.038906488567590714 0.005074101500213146 0.17599999904632568 255 253 245
0.039320334792137146 0.005074101500213146 0.17599999904632568 255 253 245
0.03973418101668358 0.005074101500213146 0.17599999904632568 255 255 247
0.04037613794207573 0.00510293198749423 0.1770000010728836 255 255 247
0.04079233482480049 0.00510293198749423 0.1770000010728836 254 254 248
0.04120853170752525 0.00510293198749423 0.1770000010728836 255 255 249
0.04185989871621132 0.005131762009114027 0.17800000309944153 255 254 249
0.04227844625711441 0.005131762009114027 0.17800000309944153 255 254 249
0.042936865240335464 0.005160592030733824 0.17900000512599945 255 248 247
0.043357763439416885 0.005160592030733824 0.17900000512599945 238 217 216
0.043778665363788605 0.005160592030733824 0.17900000512599945 200 154 150
0.044199563562870026 0.005160592030733824 0.17900000512599945 226 180 176
0.04462046176195145 0.005160592030733824 0.17900000512599945 245 218 210
0.045041363686323166 0.005160592030733824 0.17900000512599945 248 221 213
0.045716241002082825 0.0051894220523536205 0.18000000715255737 253 254 248
0.046139493584632874 0.0051894220523536205 0.18000000715255737 254 255 249
0.046562742441892624 0.0051894220523536205 0.18000000715255737 254 255 251
0.0472470261156559 0.005218252539634705 0.1809999942779541 254 255 251
0.04767262935638428 0.005218252539634705 0.1809999942779541 254 255 251
0.048098232597112656 0.005218252539634705 0.1809999942779541 254 255 251
0.048523835837841034 0.005218252539634705 0.1809999942779541 255 249 254
0.049219876527786255 0.005247082561254501 0.18199999630451202 226 217 222
0.04964783042669296 0.005247082561254501 0.18199999630451202 211 198 204
0.05035092309117317 0.005275912582874298 0.18299999833106995 239 226 232
0.05078123137354851 0.005275912582874298 0.18299999833106995 255 253 254
0.051491379737854004 0.005304742604494095 0.18400000035762787 255 253 254
0.05220623314380646 0.005333572626113892 0.1850000023841858 255 245 250
0.05292578786611557 0.005362403113394976 0.1860000044107437 255 248 253
0.053363144397735596 0.005362403113394976 0.1860000044107437 253 199 219
0.054089754819869995 0.005391233135014772 0.18700000643730164 226 172 192
0.007304267957806587 0.006049214396625757 0.1940000057220459 255 255 195
0.007720435969531536 0.006018032785505056 0.19300000369548798 255 255 197
0.008089547976851463 0.005955670028924942 0.19099999964237213 255 255 220
0.008493958972394466 0.005924488417804241 0.1899999976158142 255 255 220
0.008940723724663258 0.005924488417804241 0.1899999976158142 254 255 228
0.009338080883026123 0.00589330680668354 0.1889999955892563 255 255 229
0.00973073486238718 0.0058621251955628395 0.18799999356269836 255 255 235
0.010118686594069004 0.005830943584442139 0.18700000643730164 255 255 235
0.010558397509157658 0.005830943584442139 0.18700000643730164 254 255 243
0.010939294472336769 0.005799762438982725 0.1860000044107437 254 255 243
0.011376653797924519 0.005799762438982725 0.1860000044107437 254 255 247
0.011750496923923492 0.005768580827862024 0.1850000023841858 254 255 247
0.012185504660010338 0.005768580827862024 0.1850000023841858 255 255 243
0.012552293948829174 0.0057373992167413235 0.18400000035762787 255 255 243
0.012984950095415115 0.0057373992167413235 0.18400000035762787 255 241 219
0.013417607173323631 0.0057373992167413235 0.18400000035762787 215 176 154
0.015065905638039112 0.005706217605620623 0.18299999833106995 255 242 217
0.01549621019512415 0.005706217605620623 0.18299999833106995 255 255 231
0.01592651568353176 0.005706217605620623 0.18299999833106995 255 255 231
0.0162674393504858 0.005675035994499922 0.18199999630451202 255 255 237
0.01669539324939251 0.005675035994499922 0.18199999630451202 255 255 237
0.017029263079166412 0.005643854849040508 0.1809999942779541 255 255 235
0.01745486445724964 0.005643854849040508 0.1809999942779541 255 254 234
0.01788046769797802 0.005643854849040508 0.1809999942779541 255 251 231
0.018204931169748306 0.0056126732379198074 0.18000000715255737 255 246 226
0.018628181889653206 0.0056126732379198074 0.18000000715255737 255 214 195
0.02051394246518612 0.005550310015678406 0.17800000309944153 255 222 207
0.02093249000608921 0.005550310015678406 0.17800000309944153 255 247 233
0.02135103940963745 0.005550310015678406 0.17800000309944153 255 247 233
0.021647285670042038 0.005519128404557705 0.1770000010728836 255 253 241
0.0220634825527668 0.005519128404557705 0.1770000010728836 255 253 241
0.022479679435491562 0.005519128404557705 0.1770000010728836 255 253 243
0.022895876318216324 0.005519128404557705 0.1770000010728836 255 253 243
0.023180365562438965 0.005487947259098291 0.17599999904632568 255 252 245
0.023594211786985397 0.005487947259098291 0.17599999904632568 255 252 245
0.02400805801153183 0.005487947259098291 0.17599999904632568 255 253 245
0.024421902373433113 0.005487947259098291 0.17599999904632568 255 253 245
0.024835748597979546 0.005487947259098291 0.17599999904632568 255 254 245
0.02524959295988083 0.005487947259098291 0.17599999904632568 255 254 245
0.02566343918442726 0.005487947259098291 0.17599999904632568 255 254 247
0.02592911757528782 0.0054567656479775906 0.17499999701976776 255 254 247
0.026340611279010773 0.0054567656479775906 0.17499999701976776 255 251 249
0.026752104982733727 0.0054567656479775906 0.17499999701976776 255 251 249
0.02716359868645668 0.0054567656479775906 0.17499999701976776 255 231 229
0.027575092390179634 0.0054567656479775906 0.17499999701976776 227 188 186
0.028974201530218124 0.005487947259098291 0.17599999904632568 221 165 153
0.029388045892119408 0.005487947259098291 0.17599999904632568 255 235 223
0.02980189211666584 0.005487947259098291 0.17599999904632568 255 252 227
0.030215736478567123 0.005487947259098291 0.17599999904632568 255 252 227
0.030803615227341652 0.005519128404557705 0.1770000010728836 255 253 239
0.031219812110066414 0.005519128404557705 0.1770000010728836 255 253 239
0.03163600713014603 0.005519128404557705 0.1770000010728836 255 254 243
0.03205220401287079 0.005519128404557705 0.1770000010728836 255 254 243
0.03246840089559555 0.005519128404557705 0.1770000010728836 255 254 244
0.03269881010055542 0.005487947259098291 0.17599999904632568 255 254 244
0.03311265632510185 0.005487947259098291 0.17599999904632568 255 254 244
0.033526498824357986 0.005487947259098291 0.17599999904632568 255 254 244
0.03394034504890442 0.005487947259098291 0.17599999904632568 255 254 246
0.03415899723768234 0.0054567656479775906 0.17499999701976776 255 255 247
0.03457048907876015 0.0054567656479775906 0.17499999701976776 255 255 247
0.03498198464512825 0.0054567656479775906 0.17499999701976776 255 255 247
0.03539348021149635 0.0054567656479775906 0.17499999701976776 255 250 249
0.03580497205257416 0.0054567656479775906 0.17499999701976776 255 249 248
0.03621646761894226 0.0054567656479775906 0.17499999701976776 255 234 238
0.036627959460020065 0.0054567656479775906 0.17499999701976776 169 140 144
0.03703945502638817 0.0054567656479775906 0.17499999701976776 94 67 70
0.03745094686746597 0.0054567656479775906 0.17499999701976776 137 110 113
0.03807879984378815 0.005487947259098291 0.17599999904632568 196 168 167
0.03849264606833458 0.005487947259098291 0.17599999904632568 238 210 209
0.038906488567590714 0.005487947259098291 0.17599999904632568 255 230 226
0.039320334792137146 0.005487947259098291 0.17599999904632568 255 239 235
0.03973418101668358 0.005487947259098291 0.17599999904632568 255 249 241
0.04037613794207573 0.005519128404557705 0.1770000010728836 255 249 241
0.04079233482480049 0.005519128404557705 0.1770000010728836 255 252 243
0.04120853170752525 0.005519128404557705 0.1770000010728836 255 251 242
0.04185989871621132 0.005550310015678406 0.17800000309944153 255 249 245
0.04227844625711441 0.005550310015678406 0.17800000309944153 255 246 242
0.042936865240335464 0.005581491626799107 0.17900000512599945 255 226 220
0.043357763439416885 0.005581491626799107 0.17900000512599945 208 167 161
0.04462046176195145 0.005581491626799107 0.17900000512599945 228 177 161
0.045041363686323166 0.005581491626799107 0.17900000512599945 255 236 220
0.045716241002082825 0.0056126732379198074 0.18000000715255737 255 255 241
0.046139493584632874 0.0056126732379198074 0.18000000715255737 255 255 241
0.046562742441892624 0.0056126732379198074 0.18000000715255737 254 255 249
0.0472470261156559 0.005643854849040508 0.1809999942779541 254 255 249
0.04767262935638428 0.005643854849040508 0.1809999942779541 254 255 251
0.048098232597112656 0.005643854849040508 0.1809999942779541 254 255 251
0.048523835837841034 0.005643854849040508 0.1809999942779541 248 239 242
0.049219876527786255 0.005675035994499922 0.18199999630451202 223 214 217
0.04964783042669296 0.005675035994499922 0.18199999630451202 220 204 211
0.05035092309117317 0.005706217605620623 0.18299999833106995 247 231 238
0.05078123137354851 0.005706217605620623 0.18299999833106995 255 253 254
0.051491379737854004 0.0057373992167413235 0.18400000035762787 255 253 254
0.05220623314380646 0.005768580827862024 0.1850000023841858 255 246 252
0.05292578786611557 0.005799762438982725 0.1860000044107437 249 231 237
0.05365004390478134 0.005830943584442139 0.18700000643730164 239 189 210
0.054089754819869995 0.005830943584442139 0.18700000643730164 233 183 204
0.007304267957806587 0.0065053850412368774 0.1940000057220459 255 255 195
0.007720435969531536 0.0064718518406152725 0.19300000369548798 255 255 197
0.008089547976851463 0.00640478590503335 0.19099999964237213 255 255 214
0.008538664318621159 0.00640478590503335 0.19099999964237213 255 255 214
0.008940723724663258 0.006371253170073032 0.1899999976158142 255 255 225
0.009338080883026123 0.006337720435112715 0.1889999955892563 250 247 215
0.00973073486238718 0.00630418723449111 0.18799999356269836 226 219 190
0.010172797366976738 0.00630418723449111 0.18799999356269836 255 248 219
0.010558397509157658 0.006270654499530792 0.18700000643730164 254 255 237
0.010939294472336769 0.006237121298909187 0.1860000044107437 254 255 237
0.011376653797924519 0.006237121298909187 0.1860000044107437 254 255 241
0.011750496923923492 0.00620358856394887 0.1850000023841858 254 255 241
0.012185504660010338 0.00620358856394887 0.1850000023841858 255 253 233
0.012552293948829174 0.006170055828988552 0.18400000035762787 255 249 229
0.01549621019512415 0.006136522628366947 0.18299999833106995 255 232 210
0.01592651568353176 0.006136522628366947 0.18299999833106995 255 233 211
0.0162674393504858 0.0061029898934066296 0.18199999630451202 255 240 217
0.01669539324939251 0.0061029898934066296 0.18199999630451202 255 240 217
0.017029263079166412 0.006069457158446312 0.1809999942779541 255 237 222
0.01745486445724964 0.006069457158446312 0.1809999942779541 255 224 209
0.017781680449843407 0.006035923957824707 0.18000000715255737 255 199 191
0.02135103940963745 0.0059688580222427845 0.17800000309944153 255 200 194
0.021647285670042038 0.005935325287282467 0.1770000010728836 255 225 216
0.0220634825527668 0.005935325287282467 0.1770000010728836 255 227 218
0.022479679435491562 0.005935325287282467 0.1770000010728836 255 229 228
0.022895876318216324 0.005935325287282467 0.1770000010728836 255 234 233
0.023180365562438965 0.005901792552322149 0.17599999904632568 255 239 236
0.023594211786985397 0.005901792552322149 0.17599999904632568 255 237 234
0.02400805801153183 0.005901792552322149 0.17599999904632568 255 237 232
0.024421902373433113 0.005901792552322149 0.17599999904632568 255 236 231
0.024835748597979546 0.005901792552322149 0.17599999904632568 255 235 230
0.02510613016784191 0.005868259351700544 0.17499999701976776 255 237 232
0.025517623871564865 0.005868259351700544 0.17499999701976776 255 232 236
0.02592911757528782 0.005868259351700544 0.17499999701976776 255 219 223
0.026340611279010773 0.005868259351700544 0.17499999701976776 249 193 206
0.026752104982733727 0.005868259351700544 0.17499999701976776 233 177 190
0.02980189211666584 0.005901792552322149 0.17599999904632568 255 224 213
0.030215736478567123 0.005901792552322149 0.17599999904632568 255 231 220
0.030803615227341652 0.005935325287282467 0.1770000010728836 255 240 225
0.031219812110066414 0.005935325287282467 0.1770000010728836 255 240 225
0.03163600713014603 0.005935325287282467 0.1770000010728836 255 244 230
0.03205220401287079 0.005935325287282467 0.1770000010728836 255 244 230
0.03246840089559555 0.005935325287282467 0.1770000010728836 255 247 237
0.03288459777832031 0.005935325287282467 0.1770000010728836 255 248 238
0.03311265632510185 0.005901792552322149 0.17599999904632568 255 248 239
0.033526498824357986 0.005901792552322149 0.17599999904632568 255 248 239
0.03394034504890442 0.005901792552322149 0.17599999904632568 255 247 241
0.03415899723768234 0.005868259351700544 0.17499999701976776 255 247 241
0.03457048907876015 0.005868259351700544 0.17499999701976776 255 242 242
0.03498198464512825 0.005868259351700544 0.17499999701976776 255 240 240
0.03539348021149635 0.005868259351700544 0.17499999701976776 255 223 230
0.03580497205257416 0.005868259351700544 0.17499999701976776 235 190 197
0.03621646761894226 0.005868259351700544 0.17499999701976776 163 126 133
0.036627959460020065 0.005868259351700544 0.17499999701976776 100 63 70
0.03725110739469528 0.005901792552322149 0.17599999904632568 71 44 49
0.037664953619241714 0.005901792552322149 0.17599999904632568 72 45 50
0.03807879984378815 0.005901792552322149 0.17599999904632568 102 74 75
0.03849264606833458 0.005901792552322149 0.17599999904632568 163 135 136
0.038906488567590714 0.005901792552322149 0.17599999904632568 211 172 168
0.039320334792137146 0.005901792552322149 0.17599999904632568 235 196 192
0.03973418101668358 0.005901792552322149 0.17599999904632568 255 207 198
0.04037613794207573 0.005935325287282467 0.1770000010728836 255 214 205
0.04079233482480049 0.005935325287282467 0.1770000010728836 255 221 214
0.04120853170752525 0.005935325287282467 0.1770000010728836 255 211 204
0.04185989871621132 0.0059688580222427845 0.17800000309944153 245 194 196
0.042515967041254044 0.006002391222864389 0.17900000512599945 223 172 174
0.045292992144823074 0.006035923957824707 0.18000000715255737 255 204 193
0.045716241002082825 0.006035923957824707 0.18000000715255737 255 251 229
0.046139493584632874 0.006035923957824707 0.18000000715255737 255 251 229
0.046562742441892624 0.006035923957824707 0.18000000715255737 254 255 245
0.0472470261156559 0.006069457158446312 0.1809999942779541 254 255 245
0.04767262935638428 0.006069457158446312 0.1809999942779541 254 255 249
0.048098232597112656 0.006069457158446312 0.1809999942779541 254 255 249
0.048523835837841034 0.006069457158446312 0.1809999942779541 255 248 248
0.049219876527786255 0.0061029898934066296 0.18199999630451202 229 219 219
0.049920618534088135 0.006136522628366947 0.18299999833106995 225 210 211
0.05035092309117317 0.006136522628366947 0.18299999833106995 255 245 246
0.05078123137354851 0.006136522628366947 0.18299999833106995 255 253 248
0.051491379737854004 0.006170055828988552 0.18400000035762787 255 253 248
0.05220623314380646 0.00620358856394887 0.1850000023841858 255 246 254
0.05292578786611557 0.006237121298909187 0.1860000044107437 237 219 227
0.05365004390478134 0.006270654499530792 0.18700000643730164 244 196 223
0.05437900498509407 0.00630418723449111 0.18799999356269836 249 201 228
0.05482106655836105 0.00630418723449111 0.18799999356269836 255 192 225
0.007304267957806587 0.00696155522018671 0.1940000057220459 255 253 192
0.007720435969531536 0.006925670895725489 0.19300000369548798 255 255 195
0.008089547976851463 0.006853902246803045 0.19099999964237213 255 255 209
0.008538664318621159 0.006853902246803045 0.19099999964237213 255 255 210
0.008940723724663258 0.006818017922341824 0.1899999976158142 255 239 207
0.009338080883026123 0.006782133597880602 0.1889999955892563 218 200 168
0.00978249404579401 0.006782133597880602 0.1889999955892563 203 169 138
0.010172797366976738 0.00674624927341938 0.18799999356269836 241 207 176
0.010558397509157658 0.0067103649489581585 0.18700000643730164 255 255 226
0.010998107492923737 0.0067103649489581585 0.18700000643730164 255 255 227
0.011376653797924519 0.006674480624496937 0.1860000044107437 255 255 235
0.011814013123512268 0.006674480624496937 0.1860000044107437 255 255 235
0.012185504660010338 0.006638596300035715 0.1850000023841858 255 232 216
0.012552293948829174 0.006602712441235781 0.18400000035762787 221 177 161
0.03311265632510185 0.006315637845546007 0.17599999904632568 246 183 189
