0.02580925263464451 0.0009409643243998289 0.1770000010728836 254 255 251
0.02622544951736927 0.0009409643243998289 0.1770000010728836 254 255 251
0.026641646400094032 0.0009409643243998289 0.1770000010728836 254 255 251
0.027057843282818794 0.0009409643243998289 0.1770000010728836 254 255 251
0.027474040165543556 0.0009409643243998289 0.1770000010728836 255 255 251
0.027890237048268318 0.0009409643243998289 0.1770000010728836 255 255 251
0.02830643393099308 0.0009409643243998289 0.1770000010728836 247 242 238
0.028722630813717842 0.0009409643243998289 0.1770000010728836 237 232 228
0.029138827696442604 0.0009409643243998289 0.1770000010728836 255 254 251
0.029388045892119408 0.000935648160520941 0.17599999904632568 255 254 251
0.02980189211666584 0.000935648160520941 0.17599999904632568 254 255 251
0.030215736478567123 0.000935648160520941 0.17599999904632568 254 255 251
0.030629582703113556 0.000935648160520941 0.17599999904632568 254 255 251
0.03104342892765999 0.000935648160520941 0.17599999904632568 254 255 251
0.03145727515220642 0.000935648160520941 0.17599999904632568 254 255 251
0.03205220401287079 0.0009409643243998289 0.1770000010728836 254 255 251
0.03246840089559555 0.0009409643243998289 0.1770000010728836 254 255 251
0.03288459777832031 0.0009409643243998289 0.1770000010728836 254 255 251
0.033488936722278595 0.0009462805464863777 0.17800000309944153 254 255 251
0.033907484263181686 0.0009462805464863777 0.17800000309944153 254 255 251
0.0341331884264946 0.0009409643243998289 0.1770000010728836 254 255 251
0.03454938530921936 0.0009409643243998289 0.1770000010728836 254 255 251
0.03496558219194412 0.0009409643243998289 0.1770000010728836 254 255 251
0.035381779074668884 0.0009409643243998289 0.1770000010728836 254 255 251
0.035797975957393646 0.0009409643243998289 0.1770000010728836 254 255 251
0.03621417284011841 0.0009409643243998289 0.1770000010728836 254 255 251
0.036837320774793625 0.0009462805464863777 0.17800000309944153 255 248 245
0.037255868315696716 0.0009462805464863777 0.17800000309944153 226 210 207
0.03767441585659981 0.0009462805464863777 0.17800000309944153 231 208 203
0.0380929633975029 0.0009462805464863777 0.17800000309944153 255 243 238
0.03851151093840599 0.0009462805464863777 0.17800000309944153 255 253 249
0.03893006220459938 0.0009462805464863777 0.17800000309944153 255 253 249
0.03934860974550247 0.0009462805464863777 0.17800000309944153 254 255 251
0.03999056667089462 0.0009515967103652656 0.17900000512599945 254 255 251
0.04041146859526634 0.0009515967103652656 0.17900000512599945 254 255 251
0.04083236679434776 0.0009515967103652656 0.17900000512599945 254 255 251
0.041253264993429184 0.0009515967103652656 0.17900000512599945 254 255 251
0.04190698266029358 0.0009569128742441535 0.18000000715255737 254 255 251
0.04233023524284363 0.0009569128742441535 0.18000000715255737 255 255 251
0.04275348410010338 0.0009569128742441535 0.18000000715255737 255 255 251
0.04317673668265343 0.0009569128742441535 0.18000000715255737 255 226 226
0.04359998553991318 0.0009569128742441535 0.18000000715255737 189 158 158
0.044023238122463226 0.0009569128742441535 0.18000000715255737 205 151 152
0.04444648697972298 0.0009569128742441535 0.18000000715255737 244 190 191
0.044869739562273026 0.0009569128742441535 0.18000000715255737 255 236 228
0.045292992144823074 0.0009569128742441535 0.18000000715255737 255 245 237
0.045716241002082825 0.0009569128742441535 0.18000000715255737 255 254 245
0.046139493584632874 0.0009569128742441535 0.18000000715255737 255 254 245
0.046562742441892624 0.0009569128742441535 0.18000000715255737 255 255 249
0.0472470261156559 0.0009622290963307023 0.1809999942779541 255 255 249
0.04767262935638428 0.0009622290963307023 0.1809999942779541 255 255 251
0.048098232597112656 0.0009622290963307023 0.1809999942779541 255 255 251
0.04879192262887955 0.0009675452602095902 0.18199999630451202 255 249 251
0.049219876527786255 0.0009675452602095902 0.18199999630451202 255 249 251
0.049920618534088135 0.0009728614240884781 0.18299999833106995 255 197 214
0.00973073486238718 0.0014415044570341706 0.18799999356269836 255 238 190
0.010172797366976738 0.0014415044570341706 0.18799999356269836 255 243 195
0.010558397509157658 0.0014338368782773614 0.18700000643730164 255 255 235
0.010998107492923737 0.0014338368782773614 0.18700000643730164 255 255 235
0.01143781840801239 0.0014338368782773614 0.18700000643730164 254 255 249
0.011814013123512268 0.0014261692995205522 0.1860000044107437 254 255 249
0.012251372449100018 0.0014261692995205522 0.1860000044107437 254 255 249
0.012620512396097183 0.001418501720763743 0.1850000023841858 254 255 249
0.013055521063506603 0.001418501720763743 0.1850000023841858 254 255 249
0.013490528799593449 0.001418501720763743 0.1850000023841858 254 255 249
0.013850263319909573 0.0014108341420069337 0.18400000035762787 255 255 245
0.014282919466495514 0.0014108341420069337 0.18400000035762787 255 255 245
0.0146356001496315 0.0014031665632501245 0.18299999833106995 254 255 247
0.015065905638039112 0.0014031665632501245 0.18299999833106995 253 255 246
0.01549621019512415 0.0014031665632501245 0.18299999833106995 254 255 249
0.01592651568353176 0.0014031665632501245 0.18299999833106995 254 255 249
0.0162674393504858 0.0013954989844933152 0.18199999630451202 254 255 251
0.01669539324939251 0.0013954989844933152 0.18199999630451202 254 255 251
0.017123347148299217 0.0013954989844933152 0.18199999630451202 254 255 251
0.01745486445724964 0.001387831405736506 0.1809999942779541 254 255 251
0.01788046769797802 0.001387831405736506 0.1809999942779541 254 255 251
0.01830606907606125 0.001387831405736506 0.1809999942779541 254 255 251
0.018628181889653206 0.0013801638269796968 0.18000000715255737 254 255 251
0.019051432609558105 0.0013801638269796968 0.18000000715255737 254 255 251
0.019474683329463005 0.0013801638269796968 0.18000000715255737 254 255 251
0.019787389785051346 0.0013724962482228875 0.17900000512599945 254 255 251
0.020208289846777916 0.0013724962482228875 0.17900000512599945 254 255 251
0.020629189908504486 0.0013724962482228875 0.17900000512599945 254 255 251
0.021050089970231056 0.0013724962482228875 0.17900000512599945 254 255 251
0.021470988169312477 0.0013724962482228875 0.17900000512599945 254 255 251
0.021769586950540543 0.0013648286694660783 0.17800000309944153 254 255 251
0.022188134491443634 0.0013648286694660783 0.17800000309944153 254 255 251
0.022606683894991875 0.0013648286694660783 0.17800000309944153 254 255 251
0.023025231435894966 0.0013648286694660783 0.17800000309944153 254 255 251
0.023443778976798058 0.0013648286694660783 0.17800000309944153 254 255 251
0.023862328380346298 0.0013648286694660783 0.17800000309944153 254 255 251
0.02428087592124939 0.0013648286694660783 0.17800000309944153 254 255 251
0.02469942346215248 0.0013648286694660783 0.17800000309944153 254 255 251
0.024976860731840134 0.001357161090709269 0.1770000010728836 254 255 251
0.025393057614564896 0.001357161090709269 0.1770000010728836 254 255 251
0.02580925263464451 0.001357161090709269 0.1770000010728836 254 255 251
0.02622544951736927 0.001357161090709269 0.1770000010728836 254 255 251
0.026641646400094032 0.001357161090709269 0.1770000010728836 254 255 251
0.027057843282818794 0.001357161090709269 0.1770000010728836 254 255 251
0.027474040165543556 0.001357161090709269 0.1770000010728836 254 255 251
0.027890237048268318 0.001357161090709269 0.1770000010728836 254 255 251
0.02814651094377041 0.0013494935119524598 0.17599999904632568 251 250 250
0.028560355305671692 0.0013494935119524598 0.17599999904632568 240 239 239
0.028974201530218124 0.0013494935119524598 0.17599999904632568 255 255 251
0.029388045892119408 0.0013494935119524598 0.17599999904632568 255 255 251
0.02980189211666584 0.0013494935119524598 0.17599999904632568 254 255 251
0.030215736478567123 0.0013494935119524598 0.17599999904632568 254 255 251
0.030629582703113556 0.0013494935119524598 0.17599999904632568 254 255 251
0.03104342892765999 0.0013494935119524598 0.17599999904632568 254 255 251
0.03145727515220642 0.0013494935119524598 0.17599999904632568 254 255 251
0.031871117651462555 0.0013494935119524598 0.17599999904632568 254 255 251
0.03246840089559555 0.001357161090709269 0.1770000010728836 254 255 251
0.03288459777832031 0.001357161090709269 0.1770000010728836 254 255 251
0.033300794661045074 0.001357161090709269 0.1770000010728836 254 255 251
0.033716991543769836 0.001357161090709269 0.1770000010728836 254 255 251
0.0341331884264946 0.001357161090709269 0.1770000010728836 254 255 251
0.03454938530921936 0.001357161090709269 0.1770000010728836 254 255 251
0.03496558219194412 0.001357161090709269 0.1770000010728836 254 255 251
0.035381779074668884 0.001357161090709269 0.1770000010728836 254 255 251
0.035797975957393646 0.001357161090709269 0.1770000010728836 254 255 251
0.03621417284011841 0.001357161090709269 0.1770000010728836 254 255 251
0.03663036972284317 0.001357161090709269 0.1770000010728836 255 252 251
0.03704656660556793 0.001357161090709269 0.1770000010728836 241 233 232
0.03767441585659981 0.0013648286694660783 0.17800000309944153 235 223 221
0.0380929633975029 0.0013648286694660783 0.17800000309944153 255 251 249
0.03851151093840599 0.0013648286694660783 0.17800000309944153 255 254 249
0.03893006220459938 0.0013648286694660783 0.17800000309944153 255 254 249
0.03934860974550247 0.0013648286694660783 0.17800000309944153 254 255 251
0.03999056667089462 0.0013724962482228875 0.17900000512599945 254 255 251
0.04041146859526634 0.0013724962482228875 0.17900000512599945 254 255 251
0.04083236679434776 0.0013724962482228875 0.17900000512599945 254 255 251
0.041253264993429184 0.0013724962482228875 0.17900000512599945 254 255 251
0.0416741669178009 0.0013724962482228875 0.17900000512599945 254 255 251
0.04233023524284363 0.0013801638269796968 0.18000000715255737 254 255 251
0.04275348410010338 0.0013801638269796968 0.18000000715255737 254 255 251
0.04317673668265343 0.0013801638269796968 0.18000000715255737 255 250 250
0.04359998553991318 0.0013801638269796968 0.18000000715255737 232 220 220
0.044023238122463226 0.0013801638269796968 0.18000000715255737 246 225 224
0.04444648697972298 0.0013801638269796968 0.18000000715255737 255 246 245
0.044869739562273026 0.0013801638269796968 0.18000000715255737 255 252 245
0.045292992144823074 0.0013801638269796968 0.18000000715255737 255 252 245
0.045716241002082825 0.0013801638269796968 0.18000000715255737 255 255 247
0.046139493584632874 0.0013801638269796968 0.18000000715255737 255 255 247
0.046562742441892624 0.0013801638269796968 0.18000000715255737 254 255 249
0.04698599502444267 0.0013801638269796968 0.18000000715255737 254 255 249
0.04767262935638428 0.001387831405736506 0.1809999942779541 254 255 251
0.048098232597112656 0.001387831405736506 0.1809999942779541 254 255 251
0.048523835837841034 0.001387831405736506 0.1809999942779541 255 251 251
0.049219876527786255 0.0013954989844933152 0.18199999630451202 255 251 251
0.049920618534088135 0.0014031665632501245 0.18299999833106995 255 194 206
0.00973073486238718 0.001883566495962441 0.18799999356269836 255 240 196
0.010172797366976738 0.001883566495962441 0.18799999356269836 255 245 201
0.010558397509157658 0.0018735475605353713 0.18700000643730164 255 255 241
0.010998107492923737 0.0018735475605353713 0.18700000643730164 255 255 241
0.011376653797924519 0.0018635286251083016 0.1860000044107437 254 255 249
0.011814013123512268 0.0018635286251083016 0.1860000044107437 254 255 249
0.012185504660010338 0.0018535095732659101 0.1850000023841858 254 255 251
0.012620512396097183 0.0018535095732659101 0.1850000023841858 254 255 251
0.013055521063506603 0.0018535095732659101 0.1850000023841858 254 255 251
0.013417607173323631 0.0018434906378388405 0.18400000035762787 254 255 251
0.013850263319909573 0.0018434906378388405 0.18400000035762787 254 255 251
0.014205295592546463 0.0018334717024117708 0.18299999833106995 254 255 251
0.0146356001496315 0.0018334717024117708 0.18299999833106995 254 255 251
0.015065905638039112 0.0018334717024117708 0.18299999833106995 254 255 251
0.01549621019512415 0.0018334717024117708 0.18299999833106995 254 255 251
0.01592651568353176 0.0018334717024117708 0.18299999833106995 254 255 251
0.0162674393504858 0.0018234526505693793 0.18199999630451202 254 255 251
0.01669539324939251 0.0018234526505693793 0.18199999630451202 254 255 251
0.017123347148299217 0.0018234526505693793 0.18199999630451202 254 255 251
0.01745486445724964 0.0018134337151423097 0.1809999942779541 254 255 251
0.01788046769797802 0.0018134337151423097 0.1809999942779541 254 255 251
0.01830606907606125 0.0018134337151423097 0.1809999942779541 254 255 251
0.018628181889653206 0.00180341477971524 0.18000000715255737 254 255 251
0.019051432609558105 0.00180341477971524 0.18000000715255737 254 255 251
0.019474683329463005 0.00180341477971524 0.18000000715255737 254 255 251
0.019787389785051346 0.0017933958442881703 0.17900000512599945 254 255 251
0.020208289846777916 0.0017933958442881703 0.17900000512599945 254 255 251
0.020629189908504486 0.0017933958442881703 0.17900000512599945 254 255 251
0.021050089970231056 0.0017933958442881703 0.17900000512599945 254 255 251
0.021470988169312477 0.0017933958442881703 0.17900000512599945 254 255 251
0.021769586950540543 0.0017833767924457788 0.17800000309944153 254 255 251
0.022188134491443634 0.0017833767924457788 0.17800000309944153 254 255 251
0.022606683894991875 0.0017833767924457788 0.17800000309944153 254 255 251
0.023025231435894966 0.0017833767924457788 0.17800000309944153 254 255 251
0.023443778976798058 0.0017833767924457788 0.17800000309944153 254 255 251
0.023862328380346298 0.0017833767924457788 0.17800000309944153 254 255 251
0.02428087592124939 0.0017833767924457788 0.17800000309944153 254 255 251
0.02456066384911537 0.0017733578570187092 0.1770000010728836 254 255 251
0.024976860731840134 0.0017733578570187092 0.1770000010728836 254 255 251
0.025393057614564896 0.0017733578570187092 0.1770000010728836 254 255 251
0.02580925263464451 0.0017733578570187092 0.1770000010728836 254 255 251
0.026077283546328545 0.0017633389215916395 0.17599999904632568 254 255 251
0.026491129770874977 0.0017633389215916395 0.17599999904632568 254 255 251
0.027057843282818794 0.0017733578570187092 0.1770000010728836 254 255 251
0.027318820357322693 0.0017633389215916395 0.17599999904632568 254 255 251
0.027732664719223976 0.0017633389215916395 0.17599999904632568 254 255 251
0.02814651094377041 0.0017633389215916395 0.17599999904632568 239 240 236
0.028560355305671692 0.0017633389215916395 0.17599999904632568 238 239 235
0.028974201530218124 0.0017633389215916395 0.17599999904632568 254 255 251
0.029388045892119408 0.0017633389215916395 0.17599999904632568 254 255 251
0.02980189211666584 0.0017633389215916395 0.17599999904632568 254 255 251
0.030215736478567123 0.0017633389215916395 0.17599999904632568 254 255 251
0.030629582703113556 0.0017633389215916395 0.17599999904632568 254 255 251
0.03104342892765999 0.0017633389215916395 0.17599999904632568 254 255 251
0.03145727515220642 0.0017633389215916395 0.17599999904632568 254 255 251
0.031871117651462555 0.0017633389215916395 0.17599999904632568 254 255 251
0.03246840089559555 0.0017733578570187092 0.1770000010728836 254 255 251
0.03288459777832031 0.0017733578570187092 0.1770000010728836 254 255 251
0.033300794661045074 0.0017733578570187092 0.1770000010728836 254 255 251
0.033716991543769836 0.0017733578570187092 0.1770000010728836 254 255 251
0.0341331884264946 0.0017733578570187092 0.1770000010728836 254 255 251
0.03454938530921936 0.0017733578570187092 0.1770000010728836 254 255 251
0.03496558219194412 0.0017733578570187092 0.1770000010728836 254 255 251
0.035381779074668884 0.0017733578570187092 0.1770000010728836 254 255 251
0.035797975957393646 0.0017733578570187092 0.1770000010728836 254 255 251
0.03621417284011841 0.0017733578570187092 0.1770000010728836 254 255 251
0.03663036972284317 0.0017733578570187092 0.1770000010728836 254 255 251
0.03704656660556793 0.0017733578570187092 0.1770000010728836 243 244 240
0.037462763488292694 0.0017733578570187092 0.1770000010728836 246 243 240
0.0380929633975029 0.0017833767924457788 0.17800000309944153 255 253 250
0.03851151093840599 0.0017833767924457788 0.17800000309944153 254 255 251
0.03893006220459938 0.0017833767924457788 0.17800000309944153 254 255 251
0.03934860974550247 0.0017833767924457788 0.17800000309944153 254 255 251
0.03999056667089462 0.0017933958442881703 0.17900000512599945 254 255 251
0.04041146859526634 0.0017933958442881703 0.17900000512599945 254 255 251
0.04083236679434776 0.0017933958442881703 0.17900000512599945 254 255 251
0.041253264993429184 0.0017933958442881703 0.17900000512599945 254 255 251
0.0416741669178009 0.0017933958442881703 0.17900000512599945 254 255 251
0.04233023524284363 0.00180341477971524 0.18000000715255737 254 255 251
0.04275348410010338 0.00180341477971524 0.18000000715255737 254 255 251
0.04317673668265343 0.00180341477971524 0.18000000715255737 255 254 251
0.04359998553991318 0.00180341477971524 0.18000000715255737 250 247 244
0.044023238122463226 0.00180341477971524 0.18000000715255737 253 245 244
0.04444648697972298 0.00180341477971524 0.18000000715255737 255 252 251
0.044869739562273026 0.00180341477971524 0.18000000715255737 255 255 251
0.045292992144823074 0.00180341477971524 0.18000000715255737 255 255 251
0.045716241002082825 0.00180341477971524 0.18000000715255737 254 255 251
0.046139493584632874 0.00180341477971524 0.18000000715255737 254 255 251
0.046562742441892624 0.00180341477971524 0.18000000715255737 254 255 251
0.04698599502444267 0.00180341477971524 0.18000000715255737 254 255 251
0.04767262935638428 0.0018134337151423097 0.1809999942779541 254 255 251
0.048098232597112656 0.0018134337151423097 0.1809999942779541 254 255 251
0.048523835837841034 0.0018134337151423097 0.1809999942779541 255 253 251
0.049219876527786255 0.0018234526505693793 0.18199999630451202 255 253 251
0.049920618534088135 0.0018334717024117708 0.18299999833106995 255 206 214
0.05035092309117317 0.0018334717024117708 0.18299999833106995 192 137 145
0.00973073486238718 0.002325628651306033 0.18799999356269836 255 244 206
0.010172797366976738 0.002325628651306033 0.18799999356269836 255 249 211
0.010558397509157658 0.002313258359208703 0.18700000643730164 255 255 241
0.010998107492923737 0.002313258359208703 0.18700000643730164 255 255 241
0.011376653797924519 0.0023008878342807293 0.1860000044107437 254 255 249
0.011814013123512268 0.0023008878342807293 0.1860000044107437 254 255 249
0.012185504660010338 0.002288517542183399 0.1850000023841858 254 255 251
0.012620512396097183 0.002288517542183399 0.1850000023841858 254 255 251
0.012984950095415115 0.002276147250086069 0.18400000035762787 254 255 251
0.013417607173323631 0.002276147250086069 0.18400000035762787 254 255 251
0.013850263319909573 0.002276147250086069 0.18400000035762787 254 255 251
0.014205295592546463 0.0022637767251580954 0.18299999833106995 254 255 251
0.0146356001496315 0.0022637767251580954 0.18299999833106995 254 255 251
0.015065905638039112 0.0022637767251580954 0.18299999833106995 254 255 251
0.01549621019512415 0.0022637767251580954 0.18299999833106995 254 255 251
0.015839485451579094 0.0022514064330607653 0.18199999630451202 254 255 251
0.0162674393504858 0.0022514064330607653 0.18199999630451202 254 255 251
0.01669539324939251 0.0022514064330607653 0.18199999630451202 254 255 251
0.017123347148299217 0.0022514064330607653 0.18199999630451202 254 255 251
0.01745486445724964 0.002239036140963435 0.1809999942779541 254 255 251
0.01788046769797802 0.002239036140963435 0.1809999942779541 254 255 251
0.01830606907606125 0.002239036140963435 0.1809999942779541 254 255 251
0.018628181889653206 0.0022266656160354614 0.18000000715255737 254 255 251
0.019051432609558105 0.0022266656160354614 0.18000000715255737 254 255 251
0.019474683329463005 0.0022266656160354614 0.18000000715255737 254 255 251
0.019787389785051346 0.0022142953239381313 0.17900000512599945 254 255 251
0.020208289846777916 0.0022142953239381313 0.17900000512599945 254 255 251
0.020629189908504486 0.0022142953239381313 0.17900000512599945 254 255 251
0.02093249000608921 0.0022019250318408012 0.17800000309944153 254 255 251
0.02135103940963745 0.0022019250318408012 0.17800000309944153 254 255 251
0.021769586950540543 0.0022019250318408012 0.17800000309944153 254 255 251
0.022188134491443634 0.0022019250318408012 0.17800000309944153 254 255 251
0.022606683894991875 0.0022019250318408012 0.17800000309944153 254 255 251
0.023025231435894966 0.0022019250318408012 0.17800000309944153 254 255 251
0.023443778976798058 0.0022019250318408012 0.17800000309944153 254 255 251
0.023728270083665848 0.0021895545069128275 0.1770000010728836 254 255 251
0.02414446696639061 0.0021895545069128275 0.1770000010728836 254 255 251
0.02456066384911537 0.0021895545069128275 0.1770000010728836 254 255 251
0.024976860731840134 0.0021895545069128275 0.1770000010728836 254 255 251
0.025393057614564896 0.0021895545069128275 0.1770000010728836 254 255 251
0.02566343918442726 0.0021771842148154974 0.17599999904632568 254 255 251
0.026077283546328545 0.0021771842148154974 0.17599999904632568 254 255 251
0.026491129770874977 0.0021771842148154974 0.17599999904632568 254 255 251
0.02690497413277626 0.0021771842148154974 0.17599999904632568 254 255 251
0.027318820357322693 0.0021771842148154974 0.17599999904632568 254 255 251
0.027732664719223976 0.0021771842148154974 0.17599999904632568 254 255 251
0.02814651094377041 0.0021771842148154974 0.17599999904632568 250 251 245
0.028560355305671692 0.0021771842148154974 0.17599999904632568 242 243 237
0.028974201530218124 0.0021771842148154974 0.17599999904632568 254 255 249
0.029388045892119408 0.0021771842148154974 0.17599999904632568 254 255 249
0.02980189211666584 0.0021771842148154974 0.17599999904632568 254 255 249
0.030215736478567123 0.0021771842148154974 0.17599999904632568 254 255 249
0.030629582703113556 0.0021771842148154974 0.17599999904632568 254 255 251
0.03104342892765999 0.0021771842148154974 0.17599999904632568 254 255 251
0.03145727515220642 0.0021771842148154974 0.17599999904632568 254 255 251
0.031871117651462555 0.0021771842148154974 0.17599999904632568 254 255 251
0.03228496387600899 0.0021771842148154974 0.17599999904632568 254 255 251
0.03288459777832031 0.0021895545069128275 0.1770000010728836 254 255 251
0.033300794661045074 0.0021895545069128275 0.1770000010728836 254 255 251
0.033716991543769836 0.0021895545069128275 0.1770000010728836 254 255 251
0.0341331884264946 0.0021895545069128275 0.1770000010728836 254 255 251
0.03454938530921936 0.0021895545069128275 0.1770000010728836 254 255 251
0.03496558219194412 0.0021895545069128275 0.1770000010728836 254 255 251
0.035381779074668884 0.0021895545069128275 0.1770000010728836 254 255 251
0.035797975957393646 0.0021895545069128275 0.1770000010728836 254 255 251
0.03621417284011841 0.0021895545069128275 0.1770000010728836 254 255 251
0.03663036972284317 0.0021895545069128275 0.1770000010728836 254 255 251
0.03704656660556793 0.0021895545069128275 0.1770000010728836 253 254 250
0.037462763488292694 0.0021895545069128275 0.1770000010728836 252 253 249
0.037878960371017456 0.0021895545069128275 0.1770000010728836 254 255 251
0.03851151093840599 0.0022019250318408012 0.17800000309944153 254 255 251
0.03893006220459938 0.0022019250318408012 0.17800000309944153 254 255 251
0.03934860974550247 0.0022019250318408012 0.17800000309944153 254 255 251
0.03999056667089462 0.0022142953239381313 0.17900000512599945 254 255 251
0.04041146859526634 0.0022142953239381313 0.17900000512599945 254 255 251
0.04083236679434776 0.0022142953239381313 0.17900000512599945 254 255 251
0.041253264993429184 0.0022142953239381313 0.17900000512599945 254 255 251
0.0416741669178009 0.0022142953239381313 0.17900000512599945 254 255 251
0.04233023524284363 0.0022266656160354614 0.18000000715255737 254 255 251
0.04275348410010338 0.0022266656160354614 0.18000000715255737 254 255 251
0.04317673668265343 0.0022266656160354614 0.18000000715255737 253 254 250
0.04359998553991318 0.0022266656160354614 0.18000000715255737 249 250 246
0.044023238122463226 0.0022266656160354614 0.18000000715255737 253 254 250
0.044199563562870026 0.0022142953239381313 0.17900000512599945 254 255 251
0.04462046176195145 0.0022142953239381313 0.17900000512599945 254 255 251
0.045041363686323166 0.0022142953239381313 0.17900000512599945 254 255 251
0.04546226188540459 0.0022142953239381313 0.17900000512599945 254 255 251
0.046139493584632874 0.0022266656160354614 0.18000000715255737 254 255 251
0.046562742441892624 0.0022266656160354614 0.18000000715255737 254 255 251
0.04698599502444267 0.0022266656160354614 0.18000000715255737 254 255 251
0.04767262935638428 0.002239036140963435 0.1809999942779541 254 255 251
0.048098232597112656 0.002239036140963435 0.1809999942779541 254 255 251
0.048523835837841034 0.002239036140963435 0.1809999942779541 255 253 251
0.049219876527786255 0.0022514064330607653 0.18199999630451202 255 253 251
0.049920618534088135 0.0022637767251580954 0.18299999833106995 255 229 237
0.05035092309117317 0.0022637767251580954 0.18299999833106995 204 163 171
0.00973073486238718 0.0027676906902343035 0.18799999356269836 255 250 211
0.010172797366976738 0.0027676906902343035 0.18799999356269836 255 254 215
0.010558397509157658 0.002752969041466713 0.18700000643730164 254 255 245
0.010939294472336769 0.0027382471598684788 0.1860000044107437 254 255 245
0.011376653797924519 0.0027382471598684788 0.1860000044107437 254 255 249
0.011750496923923492 0.0027235255111008883 0.1850000023841858 254 255 249
0.012185504660010338 0.0027235255111008883 0.1850000023841858 254 255 251
0.012552293948829174 0.002708803629502654 0.18400000035762787 254 255 251
0.012984950095415115 0.002708803629502654 0.18400000035762787 254 255 251
0.013417607173323631 0.002708803629502654 0.18400000035762787 254 255 251
0.013774990104138851 0.0026940819807350636 0.18299999833106995 254 255 251
0.014205295592546463 0.0026940819807350636 0.18299999833106995 254 255 251
0.0146356001496315 0.0026940819807350636 0.18299999833106995 254 255 251
0.015065905638039112 0.0026940819807350636 0.18299999833106995 254 255 251
0.01549621019512415 0.0026940819807350636 0.18299999833106995 254 255 251
0.015839485451579094 0.0026793600991368294 0.18199999630451202 254 255 251
0.0162674393504858 0.0026793600991368294 0.18199999630451202 254 255 251
0.01669539324939251 0.0026793600991368294 0.18199999630451202 254 255 251
0.017123347148299217 0.0026793600991368294 0.18199999630451202 254 255 251
0.01745486445724964 0.002664638450369239 0.1809999942779541 254 255 251
0.01788046769797802 0.002664638450369239 0.1809999942779541 254 255 251
0.01830606907606125 0.002664638450369239 0.1809999942779541 254 255 251
0.018628181889653206 0.0026499165687710047 0.18000000715255737 254 255 251
0.019051432609558105 0.0026499165687710047 0.18000000715255737 254 255 251
0.019366491585969925 0.002635194920003414 0.17900000512599945 254 255 251
0.019787389785051346 0.002635194920003414 0.17900000512599945 254 255 251
0.020208289846777916 0.002635194920003414 0.17900000512599945 254 255 251
0.02051394246518612 0.00262047303840518 0.17800000309944153 254 255 251
0.02093249000608921 0.00262047303840518 0.17800000309944153 254 255 251
0.02135103940963745 0.00262047303840518 0.17800000309944153 254 255 251
0.021769586950540543 0.00262047303840518 0.17800000309944153 254 255 251
0.022188134491443634 0.00262047303840518 0.17800000309944153 254 255 251
0.022606683894991875 0.00262047303840518 0.17800000309944153 254 255 251
0.023025231435894966 0.00262047303840518 0.17800000309944153 254 255 251
0.023312073200941086 0.0026057513896375895 0.1770000010728836 254 255 251
0.023728270083665848 0.0026057513896375895 0.1770000010728836 254 255 251
0.02414446696639061 0.0026057513896375895 0.1770000010728836 254 255 251
0.02456066384911537 0.0026057513896375895 0.1770000010728836 254 255 251
0.024976860731840134 0.0026057513896375895 0.1770000010728836 254 255 251
0.02524959295988083 0.0025910295080393553 0.17599999904632568 254 255 251
0.02566343918442726 0.0025910295080393553 0.17599999904632568 254 255 251
0.026077283546328545 0.0025910295080393553 0.17599999904632568 254 255 251
0.026491129770874977 0.0025910295080393553 0.17599999904632568 254 255 251
0.02690497413277626 0.0025910295080393553 0.17599999904632568 254 255 251
0.027318820357322693 0.0025910295080393553 0.17599999904632568 254 255 249
0.027732664719223976 0.0025910295080393553 0.17599999904632568 254 255 249
0.02814651094377041 0.0025910295080393553 0.17599999904632568 217 219 208
0.02839808166027069 0.0025763078592717648 0.17499999701976776 207 209 198
0.028809575363993645 0.0025763078592717648 0.17499999701976776 252 254 243
0.0292210690677166 0.0025763078592717648 0.17499999701976776 254 255 245
0.029632562771439552 0.0025763078592717648 0.17499999701976776 254 255 247
0.030044056475162506 0.0025763078592717648 0.17499999701976776 254 255 247
0.03045555017888546 0.0025763078592717648 0.17499999701976776 254 255 249
0.030867045745253563 0.0025763078592717648 0.17499999701976776 254 255 249
0.03127853944897652 0.0025763078592717648 0.17499999701976776 254 255 251
0.031871117651462555 0.0025910295080393553 0.17599999904632568 254 255 251
0.03228496387600899 0.0025910295080393553 0.17599999904632568 254 255 251
0.03269881010055542 0.0025910295080393553 0.17599999904632568 254 255 251
0.033300794661045074 0.0026057513896375895 0.1770000010728836 254 255 251
0.033716991543769836 0.0026057513896375895 0.1770000010728836 254 255 251
0.03394034504890442 0.0025910295080393553 0.17599999904632568 254 255 251
0.03435419127345085 0.0025910295080393553 0.17599999904632568 254 255 251
0.034768037497997284 0.0025910295080393553 0.17599999904632568 254 255 251
0.03518187999725342 0.0025910295080393553 0.17599999904632568 254 255 251
0.03559572622179985 0.0025910295080393553 0.17599999904632568 254 255 251
0.03600957244634628 0.0025910295080393553 0.17599999904632568 254 255 251
0.036423418670892715 0.0025910295080393553 0.17599999904632568 254 255 251
0.03704656660556793 0.0026057513896375895 0.1770000010728836 254 255 251
0.037462763488292694 0.0026057513896375895 0.1770000010728836 251 252 248
0.037878960371017456 0.0026057513896375895 0.1770000010728836 254 255 251
0.03851151093840599 0.00262047303840518 0.17800000309944153 254 255 251
0.03893006220459938 0.00262047303840518 0.17800000309944153 254 255 251
0.03934860974550247 0.00262047303840518 0.17800000309944153 254 255 251
0.03976715728640556 0.00262047303840518 0.17800000309944153 254 255 251
0.04041146859526634 0.002635194920003414 0.17900000512599945 254 255 251
0.04083236679434776 0.002635194920003414 0.17900000512599945 254 255 251
0.041253264993429184 0.002635194920003414 0.17900000512599945 254 255 251
0.0416741669178009 0.002635194920003414 0.17900000512599945 254 255 251
0.042095065116882324 0.002635194920003414 0.17900000512599945 254 255 251
0.042515967041254044 0.002635194920003414 0.17900000512599945 254 255 251
0.042936865240335464 0.002635194920003414 0.17900000512599945 253 254 250
0.043357763439416885 0.002635194920003414 0.17900000512599945 254 255 251
0.043778665363788605 0.002635194920003414 0.17900000512599945 254 255 251
0.044199563562870026 0.002635194920003414 0.17900000512599945 254 255 251
0.04462046176195145 0.002635194920003414 0.17900000512599945 254 255 251
0.045041363686323166 0.002635194920003414 0.17900000512599945 254 255 251
0.04546226188540459 0.002635194920003414 0.17900000512599945 254 255 251
0.04588316008448601 0.002635194920003414 0.17900000512599945 254 255 251
0.046562742441892624 0.0026499165687710047 0.18000000715255737 254 255 251
0.04698599502444267 0.0026499165687710047 0.18000000715255737 254 255 251
0.04740924388170242 0.0026499165687710047 0.18000000715255737 254 255 251
0.048098232597112656 0.002664638450369239 0.1809999942779541 254 255 251
0.048523835837841034 0.002664638450369239 0.1809999942779541 255 253 251
0.049219876527786255 0.0026793600991368294 0.18199999630451202 254 249 247
0.04964783042669296 0.0026793600991368294 0.18199999630451202 242 213 219
0.05035092309117317 0.0026940819807350636 0.18299999833106995 226 197 203
0.05105872452259064 0.002708803629502654 0.18400000035762787 255 220 232
0.051491379737854004 0.002708803629502654 0.18400000035762787 255 217 229
0.05220623314380646 0.0027235255111008883 0.1850000023841858 255 212 219
0.052641239017248154 0.0027235255111008883 0.1850000023841858 255 220 227
0.00973073486238718 0.003209752729162574 0.18799999356269836 255 255 215
0.010118686594069004 0.003192679723724723 0.18700000643730164 255 255 217
0.010558397509157658 0.003192679723724723 0.18700000643730164 254 255 245
0.010939294472336769 0.0031756064854562283 0.1860000044107437 254 255 245
0.011376653797924519 0.0031756064854562283 0.1860000044107437 254 255 249
0.011750496923923492 0.0031585332471877337 0.1850000023841858 254 255 249
0.012119636870920658 0.0031414602417498827 0.18400000035762787 254 255 251
0.012552293948829174 0.0031414602417498827 0.18400000035762787 254 255 251
0.012984950095415115 0.0031414602417498827 0.18400000035762787 254 255 251
0.01334468461573124 0.003124387003481388 0.18299999833106995 254 255 251
0.013774990104138851 0.003124387003481388 0.18299999833106995 254 255 251
0.014205295592546463 0.003124387003481388 0.18299999833106995 254 255 251
0.0146356001496315 0.003124387003481388 0.18299999833106995 254 255 251
0.015065905638039112 0.003124387003481388 0.18299999833106995 254 255 251
0.015411531552672386 0.0031073137652128935 0.18199999630451202 254 255 251
0.015839485451579094 0.0031073137652128935 0.18199999630451202 254 255 251
0.0162674393504858 0.0031073137652128935 0.18199999630451202 254 255 251
0.01669539324939251 0.0031073137652128935 0.18199999630451202 254 255 251
0.017029263079166412 0.0030902407597750425 0.1809999942779541 254 255 251
0.01745486445724964 0.0030902407597750425 0.1809999942779541 254 255 251
0.01788046769797802 0.0030902407597750425 0.1809999942779541 254 255 251
0.018204931169748306 0.003073167521506548 0.18000000715255737 254 255 251
0.018628181889653206 0.003073167521506548 0.18000000715255737 254 255 251
0.019051432609558105 0.003073167521506548 0.18000000715255737 254 255 251
0.019366491585969925 0.0030560942832380533 0.17900000512599945 254 255 251
0.019787389785051346 0.0030560942832380533 0.17900000512599945 254 255 251
0.020208289846777916 0.0030560942832380533 0.17900000512599945 254 255 251
0.02051394246518612 0.0030390212778002024 0.17800000309944153 254 255 251
0.02093249000608921 0.0030390212778002024 0.17800000309944153 254 255 251
0.02135103940963745 0.0030390212778002024 0.17800000309944153 254 255 251
0.021769586950540543 0.0030390212778002024 0.17800000309944153 254 255 251
0.022188134491443634 0.0030390212778002024 0.17800000309944153 254 255 251
0.022479679435491562 0.0030219480395317078 0.1770000010728836 254 255 251
0.022895876318216324 0.0030219480395317078 0.1770000010728836 254 255 251
0.023312073200941086 0.0030219480395317078 0.1770000010728836 254 255 251
0.023728270083665848 0.0030219480395317078 0.1770000010728836 254 255 251
0.02414446696639061 0.0030219480395317078 0.1770000010728836 254 255 251
0.02456066384911537 0.0030219480395317078 0.1770000010728836 254 255 251
0.024835748597979546 0.003004875034093857 0.17599999904632568 254 255 251
0.02524959295988083 0.003004875034093857 0.17599999904632568 254 255 251
0.02566343918442726 0.003004875034093857 0.17599999904632568 254 255 251
0.026077283546328545 0.003004875034093857 0.17599999904632568 254 255 251
0.026491129770874977 0.003004875034093857 0.17599999904632568 254 255 251
0.02690497413277626 0.003004875034093857 0.17599999904632568 254 255 251
0.027318820357322693 0.003004875034093857 0.17599999904632568 254 255 249
0.027575092390179634 0.002987801795825362 0.17499999701976776 254 255 249
0.027986587956547737 0.002987801795825362 0.17499999701976776 246 248 237
0.02839808166027069 0.002987801795825362 0.17499999701976776 208 210 199
0.028809575363993645 0.002987801795825362 0.17499999701976776 252 254 241
0.0292210690677166 0.002987801795825362 0.17499999701976776 254 255 243
0.029632562771439552 0.002987801795825362 0.17499999701976776 254 255 247
0.030044056475162506 0.002987801795825362 0.17499999701976776 254 255 247
0.03045555017888546 0.002987801795825362 0.17499999701976776 254 255 249
0.030867045745253563 0.002987801795825362 0.17499999701976776 254 255 249
0.03127853944897652 0.002987801795825362 0.17499999701976776 254 255 251
0.03169003129005432 0.002987801795825362 0.17499999701976776 254 255 251
0.03228496387600899 0.003004875034093857 0.17599999904632568 254 255 251
0.03269881010055542 0.003004875034093857 0.17599999904632568 254 255 251
0.03311265632510185 0.003004875034093857 0.17599999904632568 254 255 251
0.033526498824357986 0.003004875034093857 0.17599999904632568 254 255 251
0.03394034504890442 0.003004875034093857 0.17599999904632568 254 255 251
0.03435419127345085 0.003004875034093857 0.17599999904632568 254 255 251
0.034768037497997284 0.003004875034093857 0.17599999904632568 254 255 251
0.03518187999725342 0.003004875034093857 0.17599999904632568 254 255 251
0.03559572622179985 0.003004875034093857 0.17599999904632568 254 255 251
0.03600957244634628 0.003004875034093857 0.17599999904632568 254 255 251
0.036423418670892715 0.003004875034093857 0.17599999904632568 254 255 251
0.03704656660556793 0.0030219480395317078 0.1770000010728836 254 255 251
0.037462763488292694 0.0030219480395317078 0.1770000010728836 254 255 251
0.037878960371017456 0.0030219480395317078 0.1770000010728836 254 255 251
0.03829515725374222 0.0030219480395317078 0.1770000010728836 254 255 251
0.03893006220459938 0.0030390212778002024 0.17800000309944153 254 255 251
0.03934860974550247 0.0030390212778002024 0.17800000309944153 254 255 251
0.03976715728640556 0.0030390212778002024 0.17800000309944153 254 255 251
0.04041146859526634 0.0030560942832380533 0.17900000512599945 254 255 251
0.04083236679434776 0.0030560942832380533 0.17900000512599945 254 255 251
0.041253264993429184 0.0030560942832380533 0.17900000512599945 254 255 251
0.0416741669178009 0.0030560942832380533 0.17900000512599945 254 255 251
0.042095065116882324 0.0030560942832380533 0.17900000512599945 254 255 251
0.042515967041254044 0.0030560942832380533 0.17900000512599945 254 255 251
0.042936865240335464 0.0030560942832380533 0.17900000512599945 254 255 251
0.043357763439416885 0.0030560942832380533 0.17900000512599945 254 255 251
0.043778665363788605 0.0030560942832380533 0.17900000512599945 254 255 251
0.044199563562870026 0.0030560942832380533 0.17900000512599945 254 255 251
0.04462046176195145 0.0030560942832380533 0.17900000512599945 254 255 251
0.045041363686323166 0.0030560942832380533 0.17900000512599945 254 255 251
0.04546226188540459 0.0030560942832380533 0.17900000512599945 254 255 251
0.04588316008448601 0.0030560942832380533 0.17900000512599945 254 255 251
0.04630406200885773 0.0030560942832380533 0.17900000512599945 254 255 251
0.04698599502444267 0.003073167521506548 0.18000000715255737 254 255 251
0.04740924388170242 0.003073167521506548 0.18000000715255737 254 255 251
0.048098232597112656 0.0030902407597750425 0.1809999942779541 254 255 251
0.048523835837841034 0.0030902407597750425 0.1809999942779541 255 253 251
0.049219876527786255 0.0031073137652128935 0.18199999630451202 255 251 249
0.04964783042669296 0.0031073137652128935 0.18199999630451202 228 207 216
0.05035092309117317 0.003124387003481388 0.18299999833106995 245 224 233
0.05105872452259064 0.0031414602417498827 0.18400000035762787 255 240 251
0.051491379737854004 0.0031414602417498827 0.18400000035762787 255 231 242
0.05220623314380646 0.0031585332471877337 0.1850000023841858 255 220 232
0.052641239017248154 0.0031585332471877337 0.1850000023841858 255 226 238
0.053363144397735596 0.0031756064854562283 0.1860000044107437 255 208 227
0.009338080883026123 0.003671239363029599 0.1889999955892563 255 255 197
0.00973073486238718 0.003651814768090844 0.18799999356269836 255 255 220
0.010118686594069004 0.0036323904059827328 0.18700000643730164 255 255 223
0.010558397509157658 0.0036323904059827328 0.18700000643730164 254 255 247
0.010939294472336769 0.0036129658110439777 0.1860000044107437 254 255 247
0.011315489187836647 0.0035935412161052227 0.1850000023841858 254 255 249
0.011750496923923492 0.0035935412161052227 0.1850000023841858 254 255 249
0.012119636870920658 0.0035741166211664677 0.18400000035762787 254 255 251
0.012552293948829174 0.0035741166211664677 0.18400000035762787 254 255 251
0.012914380058646202 0.0035546920262277126 0.18299999833106995 254 255 251
0.01334468461573124 0.0035546920262277126 0.18299999833106995 254 255 251
0.013774990104138851 0.0035546920262277126 0.18299999833106995 254 255 251
0.014205295592546463 0.0035546920262277126 0.18299999833106995 254 255 251
0.0146356001496315 0.0035546920262277126 0.18299999833106995 254 255 251
0.014983577653765678 0.0035352676641196012 0.18199999630451202 254 255 251
0.015411531552672386 0.0035352676641196012 0.18199999630451202 254 255 251
0.015839485451579094 0.0035352676641196012 0.18199999630451202 254 255 251
0.0162674393504858 0.0035352676641196012 0.18199999630451202 254 255 251
0.01669539324939251 0.0035352676641196012 0.18199999630451202 254 255 251
0.017029263079166412 0.003515843069180846 0.1809999942779541 254 255 251
0.01745486445724964 0.003515843069180846 0.1809999942779541 254 255 251
0.01788046769797802 0.003515843069180846 0.1809999942779541 254 255 251
0.018204931169748306 0.003496418474242091 0.18000000715255737 254 255 251
0.018628181889653206 0.003496418474242091 0.18000000715255737 254 255 251
0.018945591524243355 0.003476993879303336 0.17900000512599945 254 255 251
0.019366491585969925 0.003476993879303336 0.17900000512599945 254 255 251
0.019787389785051346 0.003476993879303336 0.17900000512599945 254 255 251
0.020208289846777916 0.003476993879303336 0.17900000512599945 254 255 251
0.02051394246518612 0.003457569284364581 0.17800000309944153 254 255 251
0.02093249000608921 0.003457569284364581 0.17800000309944153 254 255 251
0.02135103940963745 0.003457569284364581 0.17800000309944153 254 255 251
0.021769586950540543 0.003457569284364581 0.17800000309944153 254 255 251
0.022188134491443634 0.003457569284364581 0.17800000309944153 254 255 251
0.022479679435491562 0.0034381449222564697 0.1770000010728836 254 255 251
0.022895876318216324 0.0034381449222564697 0.1770000010728836 254 255 251
0.023312073200941086 0.0034381449222564697 0.1770000010728836 254 255 251
0.023728270083665848 0.0034381449222564697 0.1770000010728836 254 255 251
0.02414446696639061 0.0034381449222564697 0.1770000010728836 254 255 251
0.02456066384911537 0.0034381449222564697 0.1770000010728836 254 255 251
0.024835748597979546 0.0034187203273177147 0.17599999904632568 254 255 251
0.02524959295988083 0.0034187203273177147 0.17599999904632568 254 255 251
0.02566343918442726 0.0034187203273177147 0.17599999904632568 254 255 251
0.026077283546328545 0.0034187203273177147 0.17599999904632568 254 255 251
0.026491129770874977 0.0034187203273177147 0.17599999904632568 254 255 251
0.026752104982733727 0.0033992957323789597 0.17499999701976776 254 255 251
0.02716359868645668 0.0033992957323789597 0.17499999701976776 254 255 249
0.027575092390179634 0.0033992957323789597 0.17499999701976776 254 255 249
0.027986587956547737 0.0033992957323789597 0.17499999701976776 246 248 230
0.02839808166027069 0.0033992957323789597 0.17499999701976776 219 221 203
0.028809575363993645 0.0033992957323789597 0.17499999701976776 255 255 243
0.0292210690677166 0.0033992957323789597 0.17499999701976776 255 255 243
0.029632562771439552 0.0033992957323789597 0.17499999701976776 254 255 247
0.030044056475162506 0.0033992957323789597 0.17499999701976776 254 255 247
0.030281519517302513 0.0033798711374402046 0.17399999499320984 254 255 249
0.030690662562847137 0.0033798711374402046 0.17399999499320984 254 255 249
0.03127853944897652 0.0033992957323789597 0.17499999701976776 254 255 251
0.03169003129005432 0.0033992957323789597 0.17499999701976776 254 255 251
0.032101526856422424 0.0033992957323789597 0.17499999701976776 254 255 251
0.03251302242279053 0.0033992957323789597 0.17499999701976776 254 255 251
0.03311265632510185 0.0034187203273177147 0.17599999904632568 254 255 251
0.033526498824357986 0.0034187203273177147 0.17599999904632568 254 255 251
0.03394034504890442 0.0034187203273177147 0.17599999904632568 254 255 251
0.03435419127345085 0.0034187203273177147 0.17599999904632568 254 255 251
0.034768037497997284 0.0034187203273177147 0.17599999904632568 254 255 251
0.03518187999725342 0.0034187203273177147 0.17599999904632568 254 255 251
0.03559572622179985 0.0034187203273177147 0.17599999904632568 254 255 251
0.03600957244634628 0.0034187203273177147 0.17599999904632568 254 255 251
0.036423418670892715 0.0034187203273177147 0.17599999904632568 254 255 251
0.03683726489543915 0.0034187203273177147 0.17599999904632568 254 255 251
0.037462763488292694 0.0034381449222564697 0.1770000010728836 254 255 251
0.037878960371017456 0.0034381449222564697 0.1770000010728836 254 255 251
0.03829515725374222 0.0034381449222564697 0.1770000010728836 254 255 251
0.03893006220459938 0.003457569284364581 0.17800000309944153 254 255 251
0.03934860974550247 0.003457569284364581 0.17800000309944153 254 255 251
0.03976715728640556 0.003457569284364581 0.17800000309944153 254 255 251
0.040185704827308655 0.003457569284364581 0.17800000309944153 254 255 251
0.04083236679434776 0.003476993879303336 0.17900000512599945 254 255 251
0.041253264993429184 0.003476993879303336 0.17900000512599945 254 255 251
0.0416741669178009 0.003476993879303336 0.17900000512599945 254 255 251
0.042095065116882324 0.003476993879303336 0.17900000512599945 254 255 251
0.042515967041254044 0.003476993879303336 0.17900000512599945 254 255 251
0.042936865240335464 0.003476993879303336 0.17900000512599945 254 255 251
0.043357763439416885 0.003476993879303336 0.17900000512599945 254 255 251
0.043778665363788605 0.003476993879303336 0.17900000512599945 254 255 251
0.044199563562870026 0.003476993879303336 0.17900000512599945 254 255 251
0.04462046176195145 0.003476993879303336 0.17900000512599945 254 255 251
0.045041363686323166 0.003476993879303336 0.17900000512599945 254 255 251
0.04546226188540459 0.003476993879303336 0.17900000512599945 254 255 251
0.04588316008448601 0.003476993879303336 0.17900000512599945 254 255 251
0.04630406200885773 0.003476993879303336 0.17900000512599945 254 255 251
0.04698599502444267 0.003496418474242091 0.18000000715255737 254 255 251
0.04740924388170242 0.003496418474242091 0.18000000715255737 254 255 251
0.048098232597112656 0.003515843069180846 0.1809999942779541 254 255 251
0.048523835837841034 0.003515843069180846 0.1809999942779541 255 253 254
0.049219876527786255 0.0035352676641196012 0.18199999630451202 248 244 245
0.04964783042669296 0.0035352676641196012 0.18199999630451202 219 210 213
0.05035092309117317 0.0035546920262277126 0.18299999833106995 239 230 233
0.05105872452259064 0.0035741166211664677 0.18400000035762787 255 249 254
0.051491379737854004 0.0035741166211664677 0.18400000035762787 255 249 254
0.05220623314380646 0.0035935412161052227 0.1850000023841858 255 243 247
0.052641239017248154 0.0035935412161052227 0.1850000023841858 255 242 246
0.053363144397735596 0.0036129658110439777 0.1860000044107437 255 222 243
0.008493958972394466 0.004137428943067789 0.1899999976158142 255 255 190
0.008893667720258236 0.00411565275862813 0.1889999955892563 253 255 204
0.009338080883026123 0.00411565275862813 0.1889999955892563 254 255 205
0.00973073486238718 0.004093877039849758 0.18799999356269836 253 255 231
