0.0665014237165451 -0.012752735987305641 0.14000000059604645 228 178 195
0.06635325402021408 -0.01266164518892765 0.13899999856948853 214 164 181
0.06668009608983994 -0.01266164518892765 0.13899999856948853 227 170 177
0.06700694561004639 -0.01266164518892765 0.13899999856948853 220 163 170
0.06733378767967224 -0.01266164518892765 0.13899999856948853 207 154 150
0.06717386096715927 -0.01257055439054966 0.1379999965429306 203 150 146
0.0674983561038971 -0.01257055439054966 0.1379999965429306 255 230 217
0.06782285124063492 -0.01257055439054966 0.1379999965429306 255 246 233
0.06814733892679214 -0.01257055439054966 0.1379999965429306 255 255 239
0.06847183406352997 -0.01257055439054966 0.1379999965429306 255 255 239
0.06879632920026779 -0.01257055439054966 0.1379999965429306 254 255 249
0.06861994415521622 -0.012479463592171669 0.13699999451637268 254 255 249
0.06894208490848541 -0.012479463592171669 0.13699999451637268 254 255 249
0.06926422566175461 -0.012479463592171669 0.13699999451637268 254 255 249
0.0695863664150238 -0.012479463592171669 0.13699999451637268 254 255 249
0.069908507168293 -0.012479463592171669 0.13699999451637268 254 255 249
0.06971801817417145 -0.012388372793793678 0.13600000739097595 254 255 249
0.07003780454397202 -0.012388372793793678 0.13600000739097595 254 255 249
0.07035759091377258 -0.012388372793793678 0.13600000739097595 254 255 249
0.07015769928693771 -0.012297281064093113 0.13500000536441803 254 255 249
0.07047513872385025 -0.012297281064093113 0.13500000536441803 254 255 249
0.07079257071018219 -0.012297281064093113 0.13500000536441803 254 255 249
0.0705832690000534 -0.012206190265715122 0.1340000033378601 254 255 251
0.07089836150407791 -0.012206190265715122 0.1340000033378601 254 255 251
0.07121344655752182 -0.012206190265715122 0.1340000033378601 255 252 255
0.07152853161096573 -0.012206190265715122 0.1340000033378601 242 236 240
0.071307472884655 -0.012115099467337132 0.13300000131130219 224 203 214
0.07162020355463028 -0.012115099467337132 0.13300000131130219 222 201 212
0.07193294167518616 -0.012115099467337132 0.13300000131130219 206 173 176
0.07224567979574203 -0.012115099467337132 0.13300000131130219 191 158 161
0.07255841046571732 -0.012115099467337132 0.13300000131130219 213 192 179
0.0728711485862732 -0.012115099467337132 0.13300000131130219 255 250 237
0.07318388670682907 -0.012115099467337132 0.13300000131130219 255 255 239
0.07349661737680435 -0.012115099467337132 0.13300000131130219 255 255 239
0.07380935549736023 -0.012115099467337132 0.13300000131130219 255 255 247
0.07412209361791611 -0.012115099467337132 0.13300000131130219 255 255 247
0.07443482428789139 -0.012115099467337132 0.13300000131130219 233 218 217
0.07418555021286011 -0.01202400866895914 0.13199999928474426 220 205 204
0.07449593394994736 -0.01202400866895914 0.13199999928474426 222 194 193
0.0748063176870346 -0.01202400866895914 0.13199999928474426 222 194 193
0.07454763352870941 -0.01193291787058115 0.13099999725818634 231 193 197
0.07485567033290863 -0.01193291787058115 0.13099999725818634 235 197 201
0.07516369968652725 -0.01193291787058115 0.13099999725818634 255 225 237
0.07547173649072647 -0.01193291787058115 0.13099999725818634 255 232 244
0.07577976584434509 -0.01193291787058115 0.13099999725818634 255 236 251
0.07608779519796371 -0.01193291787058115 0.13099999725818634 255 230 245
0.07639583200216293 -0.01193291787058115 0.13099999725818634 244 210 228
0.07670386135578156 -0.01193291787058115 0.13099999725818634 224 190 208
0.07701189815998077 -0.01193291787058115 0.13099999725818634 206 168 185
0.0773199275135994 -0.01193291787058115 0.13099999725818634 193 155 172
0.07762796431779861 -0.01193291787058115 0.13099999725818634 195 163 170
0.07793599367141724 -0.01193291787058115 0.13099999725818634 197 165 172
0.07764674723148346 -0.011841826140880585 0.12999999523162842 195 167 164
0.07795242220163345 -0.011841826140880585 0.12999999523162842 195 167 164
0.07825810462236404 -0.011841826140880585 0.12999999523162842 195 167 164
0.07856378704309464 -0.011841826140880585 0.12999999523162842 196 168 165
0.07886946946382523 -0.011841826140880585 0.12999999523162842 198 170 171
0.07917515188455582 -0.011841826140880585 0.12999999523162842 194 166 167
0.07948083430528641 -0.011841826140880585 0.12999999523162842 187 159 170
0.079786516726017 -0.011841826140880585 0.12999999523162842 181 153 164
0.08009219169616699 -0.011841826140880585 0.12999999523162842 176 144 149
0.08039787411689758 -0.011841826140880585 0.12999999523162842 168 136 141
0.08131492137908936 -0.011841826140880585 0.12999999523162842 175 129 113
0.08162060379981995 -0.011841826140880585 0.12999999523162842 192 146 130
0.08192627876996994 -0.011841826140880585 0.12999999523162842 202 160 159
0.08223196119070053 -0.011841826140880585 0.12999999523162842 204 162 161
0.08253764361143112 -0.011841826140880585 0.12999999523162842 190 157 170
0.08284332603216171 -0.011841826140880585 0.12999999523162842 186 153 166
0.0831490084528923 -0.011841826140880585 0.12999999523162842 176 148 161
0.0834546908736229 -0.011841826140880585 0.12999999523162842 172 144 157
0.08376036584377289 -0.011841826140880585 0.12999999523162842 170 142 151
0.08406604826450348 -0.011841826140880585 0.12999999523162842 168 140 149
0.08437173068523407 -0.011841826140880585 0.12999999523162842 171 144 147
0.08467741310596466 -0.011841826140880585 0.12999999523162842 170 143 146
0.08498309552669525 -0.011841826140880585 0.12999999523162842 166 140 138
0.08528877794742584 -0.011841826140880585 0.12999999523162842 173 147 145
0.08559445291757584 -0.011841826140880585 0.12999999523162842 177 151 149
0.08590013533830643 -0.011841826140880585 0.12999999523162842 171 145 143
0.08620581775903702 -0.011841826140880585 0.12999999523162842 171 145 145
0.08651150017976761 -0.011841826140880585 0.12999999523162842 163 137 137
0.0868171826004982 -0.011841826140880585 0.12999999523162842 149 129 130
0.08834558725357056 -0.011841826140880585 0.12999999523162842 145 128 128
0.08865126967430115 -0.011841826140880585 0.12999999523162842 149 132 134
0.08895695209503174 -0.011841826140880585 0.12999999523162842 149 132 134
0.0983109101653099 -0.012206190265715122 0.1340000033378601 154 122 127
0.09862599521875381 -0.012206190265715122 0.1340000033378601 158 126 131
0.09894108027219772 -0.012206190265715122 0.1340000033378601 148 126 130
0.09957125782966614 -0.012206190265715122 0.1340000033378601 148 131 133
0.09988634288311005 -0.012206190265715122 0.1340000033378601 147 130 132
0.06071965768933296 -0.01339967641979456 0.1509999930858612 255 117 109
0.061074718832969666 -0.01339967641979456 0.1509999930858612 252 115 108
0.061022959649562836 -0.013310937210917473 0.15000000596046448 255 119 112
0.06137567013502121 -0.013310937210917473 0.15000000596046448 254 123 123
0.061728376895189285 -0.013310937210917473 0.15000000596046448 255 127 127
0.06166721135377884 -0.013222197070717812 0.14900000393390656 255 127 131
0.062017571181058884 -0.013222197070717812 0.14900000393390656 255 127 131
0.06194935366511345 -0.013133457861840725 0.14800000190734863 254 130 132
0.062297359108924866 -0.013133457861840725 0.14800000190734863 255 131 133
0.062222085893154144 -0.013044717721641064 0.1469999998807907 246 126 127
0.06256774067878723 -0.013044717721641064 0.1469999998807907 241 121 122
0.06248541176319122 -0.012955978512763977 0.1459999978542328 226 117 119
0.06282871961593628 -0.012955978512763977 0.1459999978542328 225 116 118
0.06317202001810074 -0.012955978512763977 0.1459999978542328 222 117 124
0.06308028846979141 -0.01286723930388689 0.14499999582767487 202 97 104
0.06342124193906784 -0.01286723930388689 0.14499999582767487 254 161 166
0.06332245469093323 -0.01277849916368723 0.14399999380111694 255 185 190
0.06366105377674103 -0.01277849916368723 0.14399999380111694 255 201 197
0.06355521082878113 -0.012689759954810143 0.14300000667572021 255 208 204
0.0638914629817009 -0.012689759954810143 0.14300000667572021 255 245 241
0.06422770768404007 -0.012689759954810143 0.14300000667572021 255 247 243
0.06411246210336685 -0.012601020745933056 0.1420000046491623 255 253 251
0.064446359872818 -0.012601020745933056 0.1420000046491623 254 249 247
0.06478025764226913 -0.012601020745933056 0.1420000046491623 248 242 246
0.06511415541172028 -0.012601020745933056 0.1420000046491623 248 242 246
0.06498715281486511 -0.012512280605733395 0.14100000262260437 254 248 252
0.06531869620084763 -0.012512280605733395 0.14100000262260437 255 252 255
0.06565024703741074 -0.012512280605733395 0.14100000262260437 255 252 254
0.06598179042339325 -0.012512280605733395 0.14100000262260437 255 250 252
0.06584303081035614 -0.012423541396856308 0.14000000059604645 249 231 239
0.06617222726345062 -0.012423541396856308 0.14000000059604645 255 243 251
0.0665014237165451 -0.012423541396856308 0.14000000059604645 246 201 218
0.06635325402021408 -0.012334801256656647 0.13899999856948853 224 179 196
0.06668009608983994 -0.012334801256656647 0.13899999856948853 229 172 181
0.06700694561004639 -0.012334801256656647 0.13899999856948853 221 164 173
0.06733378767967224 -0.012334801256656647 0.13899999856948853 199 147 138
0.06717386096715927 -0.01224606204777956 0.1379999965429306 200 148 139
0.0674983561038971 -0.01224606204777956 0.1379999965429306 238 205 190
0.06782285124063492 -0.01224606204777956 0.1379999965429306 255 246 231
0.06814733892679214 -0.01224606204777956 0.1379999965429306 255 255 239
0.06847183406352997 -0.01224606204777956 0.1379999965429306 255 255 239
0.06879632920026779 -0.01224606204777956 0.1379999965429306 254 255 249
0.06861994415521622 -0.012157322838902473 0.13699999451637268 254 255 249
0.06894208490848541 -0.012157322838902473 0.13699999451637268 254 255 249
0.06926422566175461 -0.012157322838902473 0.13699999451637268 254 255 249
0.0695863664150238 -0.012157322838902473 0.13699999451637268 254 255 249
0.069908507168293 -0.012157322838902473 0.13699999451637268 254 255 249
0.06971801817417145 -0.012068582698702812 0.13600000739097595 254 255 249
0.07003780454397202 -0.012068582698702812 0.13600000739097595 254 255 249
0.07035759091377258 -0.012068582698702812 0.13600000739097595 254 255 249
0.07015769928693771 -0.011979843489825726 0.13500000536441803 254 255 249
0.07047513872385025 -0.011979843489825726 0.13500000536441803 254 255 249
0.07079257071018219 -0.011979843489825726 0.13500000536441803 254 255 249
0.0705832690000534 -0.011891103349626064 0.1340000033378601 254 255 249
0.07089836150407791 -0.011891103349626064 0.1340000033378601 254 255 249
0.07121344655752182 -0.011891103349626064 0.1340000033378601 255 252 254
0.07099473476409912 -0.011802364140748978 0.13300000131130219 242 236 238
0.071307472884655 -0.011802364140748978 0.13300000131130219 217 196 207
0.07162020355463028 -0.011802364140748978 0.13300000131130219 200 179 190
0.07193294167518616 -0.011802364140748978 0.13300000131130219 196 165 165
0.07224567979574203 -0.011802364140748978 0.13300000131130219 177 146 146
0.07255841046571732 -0.011802364140748978 0.13300000131130219 199 173 158
0.0728711485862732 -0.011802364140748978 0.13300000131130219 255 245 230
0.07318388670682907 -0.011802364140748978 0.13300000131130219 255 255 237
0.07349661737680435 -0.011802364140748978 0.13300000131130219 255 255 237
0.07380935549736023 -0.011802364140748978 0.13300000131130219 255 255 247
0.07412209361791611 -0.011802364140748978 0.13300000131130219 255 255 247
0.07443482428789139 -0.011802364140748978 0.13300000131130219 223 213 211
0.07418555021286011 -0.011713624931871891 0.13199999928474426 215 205 203
0.07449593394994736 -0.011713624931871891 0.13199999928474426 217 194 193
0.0748063176870346 -0.011713624931871891 0.13199999928474426 223 200 199
0.07454763352870941 -0.01162488479167223 0.13099999725818634 224 196 197
0.07485567033290863 -0.01162488479167223 0.13099999725818634 223 195 196
0.07516369968652725 -0.01162488479167223 0.13099999725818634 240 217 227
0.07547173649072647 -0.01162488479167223 0.13099999725818634 255 241 251
0.07577976584434509 -0.01162488479167223 0.13099999725818634 255 240 253
0.07608779519796371 -0.01162488479167223 0.13099999725818634 255 245 255
0.07639583200216293 -0.01162488479167223 0.13099999725818634 247 225 243
0.07670386135578156 -0.01162488479167223 0.13099999725818634 215 193 211
0.07701189815998077 -0.01162488479167223 0.13099999725818634 212 178 198
0.0773199275135994 -0.01162488479167223 0.13099999725818634 203 169 189
0.07762796431779861 -0.01162488479167223 0.13099999725818634 202 169 182
0.07793599367141724 -0.01162488479167223 0.13099999725818634 203 170 183
0.07764674723148346 -0.011536145582795143 0.12999999523162842 200 171 175
0.07795242220163345 -0.011536145582795143 0.12999999523162842 198 169 173
0.07825810462236404 -0.011536145582795143 0.12999999523162842 199 171 170
0.07856378704309464 -0.011536145582795143 0.12999999523162842 194 166 165
0.07886946946382523 -0.011536145582795143 0.12999999523162842 188 160 161
0.07917515188455582 -0.011536145582795143 0.12999999523162842 189 161 162
0.07948083430528641 -0.011536145582795143 0.12999999523162842 190 167 179
0.079786516726017 -0.011536145582795143 0.12999999523162842 188 165 177
0.08009219169616699 -0.011536145582795143 0.12999999523162842 187 157 167
0.08039787411689758 -0.011536145582795143 0.12999999523162842 153 123 133
0.08162060379981995 -0.011536145582795143 0.12999999523162842 180 139 120
0.08192627876996994 -0.011536145582795143 0.12999999523162842 190 152 145
0.08223196119070053 -0.011536145582795143 0.12999999523162842 199 161 154
0.08253764361143112 -0.011536145582795143 0.12999999523162842 188 158 168
0.08284332603216171 -0.011536145582795143 0.12999999523162842 181 151 161
0.0831490084528923 -0.011536145582795143 0.12999999523162842 175 150 160
0.0834546908736229 -0.011536145582795143 0.12999999523162842 172 147 157
0.08376036584377289 -0.011536145582795143 0.12999999523162842 159 135 139
0.08406604826450348 -0.011536145582795143 0.12999999523162842 164 140 144
0.08437173068523407 -0.011536145582795143 0.12999999523162842 166 143 140
0.08467741310596466 -0.011536145582795143 0.12999999523162842 171 148 145
0.08498309552669525 -0.011536145582795143 0.12999999523162842 172 149 144
0.08528877794742584 -0.011536145582795143 0.12999999523162842 169 146 141
0.08559445291757584 -0.011536145582795143 0.12999999523162842 169 146 141
0.08590013533830643 -0.011536145582795143 0.12999999523162842 159 136 131
0.08620581775903702 -0.011536145582795143 0.12999999523162842 167 144 143
0.08651150017976761 -0.011536145582795143 0.12999999523162842 156 133 132
0.0868171826004982 -0.011536145582795143 0.12999999523162842 150 130 131
0.09840969741344452 -0.011979843489825726 0.13500000536441803 161 121 124
0.09862599521875381 -0.011891103349626064 0.1340000033378601 158 127 129
0.09894108027219772 -0.011891103349626064 0.1340000033378601 150 128 132
0.09925617277622223 -0.011891103349626064 0.1340000033378601 147 125 129
0.09957125782966614 -0.011891103349626064 0.1340000033378601 151 131 134
0.09988634288311005 -0.011891103349626064 0.1340000033378601 150 130 133
0.05907150357961655 -0.01356294471770525 0.15700000524520874 255 78 71
0.05906206741929054 -0.013476557098329067 0.15600000321865082 255 80 73
0.06036459654569626 -0.01304461620748043 0.1509999930858612 255 103 94
0.06071965768933296 -0.01304461620748043 0.1509999930858612 255 121 112
0.061074718832969666 -0.01304461620748043 0.1509999930858612 255 122 114
0.06142977997660637 -0.01304461620748043 0.1509999930858612 255 123 115
0.06137567013502121 -0.012958227656781673 0.15000000596046448 255 130 128
0.061728376895189285 -0.012958227656781673 0.15000000596046448 254 128 126
0.06166721135377884 -0.012871840037405491 0.14900000393390656 255 139 143
0.062017571181058884 -0.012871840037405491 0.14900000393390656 255 137 141
0.06194935366511345 -0.012785451486706734 0.14800000190734863 249 129 132
0.062297359108924866 -0.012785451486706734 0.14800000190734863 255 136 139
0.062222085893154144 -0.012699062936007977 0.1469999998807907 255 137 139
0.06256774067878723 -0.012699062936007977 0.1469999998807907 255 137 139
0.06248541176319122 -0.012612675316631794 0.1459999978542328 246 140 138
0.06282871961593628 -0.012612675316631794 0.1459999978542328 240 134 132
0.06273933500051498 -0.012526286765933037 0.14499999582767487 228 127 130
0.06308028846979141 -0.012526286765933037 0.14499999582767487 213 112 115
0.06342124193906784 -0.012526286765933037 0.14499999582767487 238 145 148
0.06332245469093323 -0.012439899146556854 0.14399999380111694 255 174 177
0.06366105377674103 -0.012439899146556854 0.14399999380111694 255 200 196
0.06355521082878113 -0.012353510595858097 0.14300000667572021 255 207 203
0.0638914629817009 -0.012353510595858097 0.14300000667572021 255 247 242
0.06422770768404007 -0.012353510595858097 0.14300000667572021 255 248 243
0.06411246210336685 -0.01226712204515934 0.1420000046491623 255 254 249
0.064446359872818 -0.01226712204515934 0.1420000046491623 255 252 247
0.06478025764226913 -0.01226712204515934 0.1420000046491623 255 251 252
0.06511415541172028 -0.01226712204515934 0.1420000046491623 248 244 245
0.06498715281486511 -0.012180734425783157 0.14100000262260437 254 250 251
0.06531869620084763 -0.012180734425783157 0.14100000262260437 255 253 254
0.06565024703741074 -0.012180734425783157 0.14100000262260437 255 253 254
0.06598179042339325 -0.012180734425783157 0.14100000262260437 255 253 254
0.06584303081035614 -0.0120943458750844 0.14000000059604645 252 243 248
0.06617222726345062 -0.0120943458750844 0.14000000059604645 255 251 255
0.0665014237165451 -0.0120943458750844 0.14000000059604645 241 201 216
0.06635325402021408 -0.012007957324385643 0.13899999856948853 217 177 192
0.06668009608983994 -0.012007957324385643 0.13899999856948853 221 166 172
0.06700694561004639 -0.012007957324385643 0.13899999856948853 221 166 172
0.06733378767967224 -0.012007957324385643 0.13899999856948853 199 141 137
0.06717386096715927 -0.01192156970500946 0.1379999965429306 193 135 131
0.0674983561038971 -0.01192156970500946 0.1379999965429306 203 171 151
0.06782285124063492 -0.01192156970500946 0.1379999965429306 255 247 227
0.06814733892679214 -0.01192156970500946 0.1379999965429306 255 255 239
0.06847183406352997 -0.01192156970500946 0.1379999965429306 255 255 239
0.06879632920026779 -0.01192156970500946 0.1379999965429306 254 255 249
0.06912081688642502 -0.01192156970500946 0.1379999965429306 254 255 249
0.06894208490848541 -0.011835181154310703 0.13699999451637268 254 255 249
0.06926422566175461 -0.011835181154310703 0.13699999451637268 254 255 249
0.0695863664150238 -0.011835181154310703 0.13699999451637268 254 255 249
0.069908507168293 -0.011835181154310703 0.13699999451637268 254 255 249
0.0702306479215622 -0.011835181154310703 0.13699999451637268 254 255 249
0.07003780454397202 -0.01174879353493452 0.13600000739097595 254 255 249
0.07035759091377258 -0.01174879353493452 0.13600000739097595 254 255 249
0.07015769928693771 -0.011662404984235764 0.13500000536441803 254 255 249
0.07047513872385025 -0.011662404984235764 0.13500000536441803 254 255 249
0.0702681839466095 -0.011576016433537006 0.1340000033378601 254 255 249
0.0705832690000534 -0.011576016433537006 0.1340000033378601 254 255 249
0.07089836150407791 -0.011576016433537006 0.1340000033378601 254 255 249
0.07121344655752182 -0.011576016433537006 0.1340000033378601 255 250 254
0.07099473476409912 -0.011489628814160824 0.13300000131130219 248 235 239
0.071307472884655 -0.011489628814160824 0.13300000131130219 219 194 202
0.07162020355463028 -0.011489628814160824 0.13300000131130219 206 181 189
0.07193294167518616 -0.011489628814160824 0.13300000131130219 187 147 148
0.07224567979574203 -0.011489628814160824 0.13300000131130219 160 120 121
0.07255841046571732 -0.011489628814160824 0.13300000131130219 186 150 138
0.0728711485862732 -0.011489628814160824 0.13300000131130219 249 213 201
0.07318388670682907 -0.011489628814160824 0.13300000131130219 255 254 233
0.07349661737680435 -0.011489628814160824 0.13300000131130219 255 254 233
0.07380935549736023 -0.011489628814160824 0.13300000131130219 255 255 245
0.07412209361791611 -0.011489628814160824 0.13300000131130219 255 255 245
0.07443482428789139 -0.011489628814160824 0.13300000131130219 250 242 241
0.07418555021286011 -0.011403240263462067 0.13199999928474426 230 222 221
0.07449593394994736 -0.011403240263462067 0.13199999928474426 212 195 195
0.0748063176870346 -0.011403240263462067 0.13199999928474426 207 190 190
0.07454763352870941 -0.011316852644085884 0.13099999725818634 210 190 191
0.07485567033290863 -0.011316852644085884 0.13099999725818634 208 188 189
0.07516369968652725 -0.011316852644085884 0.13099999725818634 230 212 218
0.07547173649072647 -0.011316852644085884 0.13099999725818634 255 244 250
0.07577976584434509 -0.011316852644085884 0.13099999725818634 255 245 255
0.07608779519796371 -0.011316852644085884 0.13099999725818634 251 237 248
0.07639583200216293 -0.011316852644085884 0.13099999725818634 227 207 229
0.07670386135578156 -0.011316852644085884 0.13099999725818634 208 188 210
0.07701189815998077 -0.011316852644085884 0.13099999725818634 205 173 197
0.0773199275135994 -0.011316852644085884 0.13099999725818634 194 162 186
0.07762796431779861 -0.011316852644085884 0.13099999725818634 187 154 167
0.07793599367141724 -0.011316852644085884 0.13099999725818634 193 160 173
0.07764674723148346 -0.011230464093387127 0.12999999523162842 191 159 164
0.07795242220163345 -0.011230464093387127 0.12999999523162842 190 158 163
0.07825810462236404 -0.011230464093387127 0.12999999523162842 195 163 168
0.07856378704309464 -0.011230464093387127 0.12999999523162842 187 155 160
0.07886946946382523 -0.011230464093387127 0.12999999523162842 185 156 160
0.07917515188455582 -0.011230464093387127 0.12999999523162842 192 163 167
0.07948083430528641 -0.011230464093387127 0.12999999523162842 186 163 173
0.079786516726017 -0.011230464093387127 0.12999999523162842 165 142 152
0.08009219169616699 -0.011230464093387127 0.12999999523162842 178 150 159
0.08162060379981995 -0.011230464093387127 0.12999999523162842 184 143 126
0.08192627876996994 -0.011230464093387127 0.12999999523162842 192 156 148
0.08223196119070053 -0.011230464093387127 0.12999999523162842 187 151 143
0.08253764361143112 -0.011230464093387127 0.12999999523162842 177 148 152
0.08284332603216171 -0.011230464093387127 0.12999999523162842 179 150 154
0.0831490084528923 -0.011230464093387127 0.12999999523162842 175 151 155
0.0834546908736229 -0.011230464093387127 0.12999999523162842 172 148 152
0.08376036584377289 -0.011230464093387127 0.12999999523162842 160 137 136
0.08406604826450348 -0.011230464093387127 0.12999999523162842 163 140 139
0.08437173068523407 -0.011230464093387127 0.12999999523162842 157 131 129
0.08467741310596466 -0.011230464093387127 0.12999999523162842 157 131 129
0.08498309552669525 -0.011230464093387127 0.12999999523162842 167 139 138
0.08528877794742584 -0.011230464093387127 0.12999999523162842 166 138 137
0.08559445291757584 -0.011230464093387127 0.12999999523162842 165 139 137
0.08590013533830643 -0.011230464093387127 0.12999999523162842 157 131 129
0.08620581775903702 -0.011230464093387127 0.12999999523162842 152 129 126
0.08651150017976761 -0.011230464093387127 0.12999999523162842 156 133 130
0.0868171826004982 -0.011230464093387127 0.12999999523162842 149 130 128
0.09840969741344452 -0.011662404984235764 0.13500000536441803 162 119 121
0.09872713685035706 -0.011662404984235764 0.13500000536441803 167 124 126
0.09904457628726959 -0.011662404984235764 0.13500000536441803 162 129 130
0.09936200827360153 -0.011662404984235764 0.13500000536441803 161 128 129
0.09967944771051407 -0.011662404984235764 0.13500000536441803 157 134 133
0.0999968871474266 -0.011662404984235764 0.13500000536441803 154 131 130
0.10031432658433914 -0.011662404984235764 0.13500000536441803 151 129 131
0.10063176602125168 -0.011662404984235764 0.13500000536441803 154 132 134
0.10094920545816422 -0.011662404984235764 0.13500000536441803 158 130 131
0.05907623469829559 -0.013277812860906124 0.15800000727176666 255 92 82
0.05907150357961655 -0.013193775899708271 0.15700000524520874 255 95 86
0.059440672397613525 -0.013193775899708271 0.15700000524520874 255 98 89
0.05942888557910919 -0.013109739869832993 0.15600000321865082 255 98 88
0.0594123974442482 -0.01302570290863514 0.1550000011920929 255 100 90
0.05939120799303055 -0.012941665947437286 0.15399999916553497 255 93 85
0.06036459654569626 -0.012689555063843727 0.1509999930858612 245 98 87
0.06071965768933296 -0.012689555063843727 0.1509999930858612 255 127 116
0.061074718832969666 -0.012689555063843727 0.1509999930858612 255 137 128
0.061022959649562836 -0.012605519033968449 0.15000000596046448 255 141 132
0.06137567013502121 -0.012605519033968449 0.15000000596046448 255 138 136
0.06131685525178909 -0.012521482072770596 0.14900000393390656 251 132 130
0.06166721135377884 -0.012521482072770596 0.14900000393390656 255 143 148
0.061601344496011734 -0.012437445111572742 0.14800000190734863 255 143 148
0.06194935366511345 -0.012437445111572742 0.14800000190734863 248 136 136
0.062297359108924866 -0.012437445111572742 0.14800000190734863 253 141 141
0.062222085893154144 -0.01235340815037489 0.1469999998807907 254 144 143
0.06256774067878723 -0.01235340815037489 0.1469999998807907 255 150 149
0.06248541176319122 -0.012269371189177036 0.1459999978542328 249 146 143
0.06282871961593628 -0.012269371189177036 0.1459999978542328 247 144 141
0.06273933500051498 -0.012185335159301758 0.14499999582767487 246 145 146
0.06308028846979141 -0.012185335159301758 0.14499999582767487 231 130 131
0.06342124193906784 -0.012185335159301758 0.14499999582767487 222 130 130
0.06332245469093323 -0.012101298198103905 0.14399999380111694 255 170 170
0.06366105377674103 -0.012101298198103905 0.14399999380111694 254 194 190
0.06355521082878113 -0.012017261236906052 0.14300000667572021 255 207 203
0.0638914629817009 -0.012017261236906052 0.14300000667572021 255 237 231
0.06422770768404007 -0.012017261236906052 0.14300000667572021 255 249 243
0.06411246210336685 -0.011933224275708199 0.1420000046491623 255 255 249
0.064446359872818 -0.011933224275708199 0.1420000046491623 252 252 246
0.06478025764226913 -0.011933224275708199 0.1420000046491623 254 255 251
0.06511415541172028 -0.011933224275708199 0.1420000046491623 254 255 251
0.06498715281486511 -0.011849187314510345 0.14100000262260437 254 254 250
0.06531869620084763 -0.011849187314510345 0.14100000262260437 252 252 248
0.06565024703741074 -0.011849187314510345 0.14100000262260437 255 255 251
0.06598179042339325 -0.011849187314510345 0.14100000262260437 255 255 251
0.06584303081035614 -0.011765150353312492 0.14000000059604645 255 250 252
0.06617222726345062 -0.011765150353312492 0.14000000059604645 255 251 253
0.0665014237165451 -0.011765150353312492 0.14000000059604645 251 218 231
0.06635325402021408 -0.011681114323437214 0.13899999856948853 228 195 208
0.06668009608983994 -0.011681114323437214 0.13899999856948853 226 171 181
0.06700694561004639 -0.011681114323437214 0.13899999856948853 211 156 166
0.06733378767967224 -0.011681114323437214 0.13899999856948853 195 126 123
0.0674983561038971 -0.01159707736223936 0.1379999965429306 174 138 117
0.06782285124063492 -0.01159707736223936 0.1379999965429306 255 239 218
0.06814733892679214 -0.01159707736223936 0.1379999965429306 255 255 235
0.06847183406352997 -0.01159707736223936 0.1379999965429306 255 255 235
0.06879632920026779 -0.01159707736223936 0.1379999965429306 254 255 245
0.06912081688642502 -0.01159707736223936 0.1379999965429306 254 255 245
0.06894208490848541 -0.011513040401041508 0.13699999451637268 254 255 249
0.06926422566175461 -0.011513040401041508 0.13699999451637268 254 255 249
0.0695863664150238 -0.011513040401041508 0.13699999451637268 254 255 249
0.069908507168293 -0.011513040401041508 0.13699999451637268 254 255 249
0.0702306479215622 -0.011513040401041508 0.13699999451637268 254 255 249
0.07003780454397202 -0.011429003439843655 0.13600000739097595 254 255 249
0.07035759091377258 -0.011429003439843655 0.13600000739097595 254 255 249
0.07015769928693771 -0.011344966478645802 0.13500000536441803 254 255 249
0.07047513872385025 -0.011344966478645802 0.13500000536441803 252 255 249
0.0702681839466095 -0.011260930448770523 0.1340000033378601 251 255 248
0.0705832690000534 -0.011260930448770523 0.1340000033378601 250 247 242
0.07089836150407791 -0.011260930448770523 0.1340000033378601 247 244 239
0.07068200409412384 -0.01117689348757267 0.13300000131130219 255 240 242
0.07099473476409912 -0.01117689348757267 0.13300000131130219 221 204 206
0.071307472884655 -0.01117689348757267 0.13300000131130219 208 176 181
0.07162020355463028 -0.01117689348757267 0.13300000131130219 188 156 161
0.07193294167518616 -0.01117689348757267 0.13300000131130219 181 128 126
0.0728711485862732 -0.01117689348757267 0.13300000131130219 219 163 149
0.07318388670682907 -0.01117689348757267 0.13300000131130219 255 243 226
0.07349661737680435 -0.01117689348757267 0.13300000131130219 255 248 231
0.07380935549736023 -0.01117689348757267 0.13300000131130219 255 255 245
0.07412209361791611 -0.01117689348757267 0.13300000131130219 255 255 245
0.07443482428789139 -0.01117689348757267 0.13300000131130219 250 241 244
0.07418555021286011 -0.011092856526374817 0.13199999928474426 228 219 222
0.07449593394994736 -0.011092856526374817 0.13199999928474426 220 204 209
0.0748063176870346 -0.011092856526374817 0.13199999928474426 201 185 190
0.07454763352870941 -0.011008819565176964 0.13099999725818634 212 197 196
0.07485567033290863 -0.011008819565176964 0.13099999725818634 212 197 196
0.07516369968652725 -0.011008819565176964 0.13099999725818634 214 199 200
0.07547173649072647 -0.011008819565176964 0.13099999725818634 227 212 213
0.07577976584434509 -0.011008819565176964 0.13099999725818634 231 215 222
0.07608779519796371 -0.011008819565176964 0.13099999725818634 220 204 211
0.07639583200216293 -0.011008819565176964 0.13099999725818634 225 200 224
0.07670386135578156 -0.011008819565176964 0.13099999725818634 214 189 213
0.07701189815998077 -0.011008819565176964 0.13099999725818634 201 166 191
0.0773199275135994 -0.011008819565176964 0.13099999725818634 184 149 174
0.07762796431779861 -0.011008819565176964 0.13099999725818634 180 150 164
0.07793599367141724 -0.011008819565176964 0.13099999725818634 185 155 169
0.07764674723148346 -0.01092478260397911 0.12999999523162842 180 151 157
0.07795242220163345 -0.01092478260397911 0.12999999523162842 173 144 150
0.07825810462236404 -0.01092478260397911 0.12999999523162842 179 150 154
0.07856378704309464 -0.01092478260397911 0.12999999523162842 181 152 156
0.07886946946382523 -0.01092478260397911 0.12999999523162842 179 150 154
0.07917515188455582 -0.01092478260397911 0.12999999523162842 179 150 154
0.07948083430528641 -0.01092478260397911 0.12999999523162842 170 142 151
0.079786516726017 -0.01092478260397911 0.12999999523162842 158 130 139
0.08009219169616699 -0.01092478260397911 0.12999999523162842 170 136 144
0.08192627876996994 -0.01092478260397911 0.12999999523162842 191 148 139
0.08223196119070053 -0.01092478260397911 0.12999999523162842 193 150 141
0.08253764361143112 -0.01092478260397911 0.12999999523162842 177 145 141
0.08284332603216171 -0.01092478260397911 0.12999999523162842 175 143 139
0.0831490084528923 -0.01092478260397911 0.12999999523162842 174 143 143
0.0834546908736229 -0.01092478260397911 0.12999999523162842 168 137 137
0.08376036584377289 -0.01092478260397911 0.12999999523162842 171 143 142
0.08406604826450348 -0.01092478260397911 0.12999999523162842 171 143 142
0.08437173068523407 -0.01092478260397911 0.12999999523162842 173 142 142
0.08467741310596466 -0.01092478260397911 0.12999999523162842 168 137 137
0.08563680946826935 -0.011008819565176964 0.13099999725818634 167 134 135
0.08594484627246857 -0.011008819565176964 0.13099999725818634 163 130 131
0.08625287562608719 -0.011008819565176964 0.13099999725818634 160 129 129
0.08656090497970581 -0.011008819565176964 0.13099999725818634 158 127 127
0.09881886839866638 -0.011429003439843655 0.13600000739097595 166 116 120
0.09840969741344452 -0.011344966478645802 0.13500000536441803 175 126 125
0.09872713685035706 -0.011344966478645802 0.13500000536441803 175 126 125
0.09904457628726959 -0.011344966478645802 0.13500000536441803 170 135 132
0.09936200827360153 -0.011344966478645802 0.13500000536441803 158 123 120
0.09967944771051407 -0.011344966478645802 0.13500000536441803 166 140 140
0.0999968871474266 -0.011344966478645802 0.13500000536441803 155 129 129
0.10063176602125168 -0.011344966478645802 0.13500000536441803 154 132 134
0.058704715222120285 -0.012906292453408241 0.15800000727176666 255 78 74
0.05907623469829559 -0.012906292453408241 0.15800000727176666 255 107 103
0.05907150357961655 -0.012824607081711292 0.15700000524520874 255 102 90
0.059440672397613525 -0.012824607081711292 0.15700000524520874 255 104 92
0.05942888557910919 -0.012742921710014343 0.15600000321865082 252 97 85
0.0594123974442482 -0.012661236338317394 0.1550000011920929 248 93 81
0.05977686494588852 -0.012661236338317394 0.1550000011920929 255 99 89
0.05975332111120224 -0.012579550966620445 0.15399999916553497 247 85 75
0.06036459654569626 -0.012334494851529598 0.1509999930858612 254 111 99
0.06071965768933296 -0.012334494851529598 0.1509999930858612 255 130 118
0.061074718832969666 -0.012334494851529598 0.1509999930858612 255 133 130
0.061022959649562836 -0.01225280947983265 0.15000000596046448 255 135 132
0.06137567013502121 -0.01225280947983265 0.15000000596046448 255 138 138
0.06131685525178909 -0.0121711241081357 0.14900000393390656 255 137 137
0.06166721135377884 -0.0121711241081357 0.14900000393390656 255 145 145
0.061601344496011734 -0.012089438736438751 0.14800000190734863 255 143 143
0.06194935366511345 -0.012089438736438751 0.14800000190734863 254 144 143
0.062297359108924866 -0.012089438736438751 0.14800000190734863 255 146 145
0.062222085893154144 -0.012007753364741802 0.1469999998807907 255 151 149
0.06256774067878723 -0.012007753364741802 0.1469999998807907 255 155 153
0.06248541176319122 -0.011926067993044853 0.1459999978542328 255 159 155
0.06282871961593628 -0.011926067993044853 0.1459999978542328 254 154 150
0.06273933500051498 -0.011844382621347904 0.14499999582767487 245 146 148
0.06308028846979141 -0.011844382621347904 0.14499999582767487 234 135 137
0.06342124193906784 -0.011844382621347904 0.14499999582767487 220 124 128
0.06332245469093323 -0.011762697249650955 0.14399999380111694 254 158 162
0.06366105377674103 -0.011762697249650955 0.14399999380111694 252 190 187
0.06355521082878113 -0.011681011877954006 0.14300000667572021 255 215 212
0.0638914629817009 -0.011681011877954006 0.14300000667572021 254 233 230
0.06422770768404007 -0.011681011877954006 0.14300000667572021 255 248 245
0.06411246210336685 -0.011599326506257057 0.1420000046491623 254 255 249
0.064446359872818 -0.011599326506257057 0.1420000046491623 254 255 249
0.06432405859231949 -0.011517641134560108 0.14100000262260437 254 255 249
0.0646556094288826 -0.011517641134560108 0.14100000262260437 254 255 249
0.06498715281486511 -0.011517641134560108 0.14100000262260437 251 252 248
0.06531869620084763 -0.011517641134560108 0.14100000262260437 245 246 242
0.06565024703741074 -0.011517641134560108 0.14100000262260437 252 252 248
0.06598179042339325 -0.011517641134560108 0.14100000262260437 252 252 248
0.06584303081035614 -0.01143595576286316 0.14000000059604645 255 250 255
0.06617222726345062 -0.01143595576286316 0.14000000059604645 251 240 246
0.0665014237165451 -0.01143595576286316 0.14000000059604645 239 206 221
0.06635325402021408 -0.01135427039116621 0.13899999856948853 216 183 198
0.06668009608983994 -0.01135427039116621 0.13899999856948853 214 157 166
0.06700694561004639 -0.01135427039116621 0.13899999856948853 193 136 145
0.06782285124063492 -0.011272585019469261 0.1379999965429306 255 213 202
0.06814733892679214 -0.011272585019469261 0.1379999965429306 255 254 237
0.06847183406352997 -0.011272585019469261 0.1379999965429306 255 254 237
0.06879632920026779 -0.011272585019469261 0.1379999965429306 254 255 245
0.06912081688642502 -0.011272585019469261 0.1379999965429306 254 255 245
0.06894208490848541 -0.011190899647772312 0.13699999451637268 254 255 249
0.06926422566175461 -0.011190899647772312 0.13699999451637268 254 255 249
0.0695863664150238 -0.011190899647772312 0.13699999451637268 254 255 249
0.069908507168293 -0.011190899647772312 0.13699999451637268 254 255 249
0.06971801817417145 -0.011109214276075363 0.13600000739097595 254 255 249
0.07003780454397202 -0.011109214276075363 0.13600000739097595 254 255 249
0.07035759091377258 -0.011109214276075363 0.13600000739097595 254 255 251
0.07015769928693771 -0.011027528904378414 0.13500000536441803 254 255 251
0.07047513872385025 -0.011027528904378414 0.13500000536441803 255 254 254
0.0702681839466095 -0.010945843532681465 0.1340000033378601 252 251 251
0.0705832690000534 -0.010945843532681465 0.1340000033378601 243 235 234
0.07089836150407791 -0.010945843532681465 0.1340000033378601 245 237 236
0.07068200409412384 -0.010864158160984516 0.13300000131130219 229 202 205
0.07099473476409912 -0.010864158160984516 0.13300000131130219 202 175 178
0.071307472884655 -0.010864158160984516 0.13300000131130219 195 143 150
0.07162020355463028 -0.010864158160984516 0.13300000131130219 187 135 142
0.07318388670682907 -0.010864158160984516 0.13300000131130219 238 186 175
0.07349661737680435 -0.010864158160984516 0.13300000131130219 255 230 219
0.07380935549736023 -0.010864158160984516 0.13300000131130219 255 245 241
0.07412209361791611 -0.010864158160984516 0.13300000131130219 255 241 237
0.07443482428789139 -0.010864158160984516 0.13300000131130219 255 236 239
0.07418555021286011 -0.010782472789287567 0.13199999928474426 228 208 211
0.07449593394994736 -0.010782472789287567 0.13199999928474426 211 192 190
0.0748063176870346 -0.010782472789287567 0.13199999928474426 206 187 185
0.07454763352870941 -0.010700787417590618 0.13099999725818634 211 193 184
0.07485567033290863 -0.010700787417590618 0.13099999725818634 217 199 190
0.07516369968652725 -0.010700787417590618 0.13099999725818634 211 190 185
0.07547173649072647 -0.010700787417590618 0.13099999725818634 219 198 193
0.07577976584434509 -0.010700787417590618 0.13099999725818634 216 193 192
0.07608779519796371 -0.010700787417590618 0.13099999725818634 199 176 175
0.07639583200216293 -0.010700787417590618 0.13099999725818634 214 181 196
0.07670386135578156 -0.010700787417590618 0.13099999725818634 193 160 175
0.07701189815998077 -0.010700787417590618 0.13099999725818634 190 154 173
0.0773199275135994 -0.010700787417590618 0.13099999725818634 176 140 159
0.07762796431779861 -0.010700787417590618 0.13099999725818634 176 142 150
0.07793599367141724 -0.010700787417590618 0.13099999725818634 181 147 155
0.07764674723148346 -0.010619102045893669 0.12999999523162842 180 147 150
0.07795242220163345 -0.010619102045893669 0.12999999523162842 178 145 148
0.07825810462236404 -0.010619102045893669 0.12999999523162842 180 147 150
0.07856378704309464 -0.010619102045893669 0.12999999523162842 181 148 151
0.07886946946382523 -0.010619102045893669 0.12999999523162842 179 142 151
0.07917515188455582 -0.010619102045893669 0.12999999523162842 172 135 144
0.07948083430528641 -0.010619102045893669 0.12999999523162842 169 130 139
0.079786516726017 -0.010619102045893669 0.12999999523162842 157 118 127
0.08223196119070053 -0.010619102045893669 0.12999999523162842 185 128 119
0.08253764361143112 -0.010619102045893669 0.12999999523162842 185 137 129
0.08284332603216171 -0.010619102045893669 0.12999999523162842 185 137 129
0.0831490084528923 -0.010619102045893669 0.12999999523162842 177 134 129
0.0834546908736229 -0.010619102045893669 0.12999999523162842 176 133 128
0.08376036584377289 -0.010619102045893669 0.12999999523162842 172 130 129
0.08406604826450348 -0.010619102045893669 0.12999999523162842 163 121 120
0.09945844858884811 -0.011109214276075363 0.13600000739097595 176 123 121
0.09977823495864868 -0.011109214276075363 0.13600000739097595 173 129 127
0.09936200827360153 -0.011027528904378414 0.13500000536441803 166 122 120
0.09967944771051407 -0.011027528904378414 0.13500000536441803 164 133 131
0.0999968871474266 -0.011027528904378414 0.13500000536441803 157 126 124
0.10063176602125168 -0.011027528904378414 0.13500000536441803 150 127 126
0.10094920545816422 -0.011027528904378414 0.13500000536441803 156 123 124
0.10126663744449615 -0.011027528904378414 0.13500000536441803 158 125 126
0.058704715222120285 -0.012534772045910358 0.15800000727176666 255 85 79
0.05907623469829559 -0.012534772045910358 0.15800000727176666 255 114 108
0.0594477541744709 -0.012534772045910358 0.15800000727176666 255 115 102
0.059440672397613525 -0.012455438263714314 0.15700000524520874 255 109 96
0.05942888557910919 -0.012376104481518269 0.15600000321865082 255 108 93
0.05979570373892784 -0.012376104481518269 0.15600000321865082 255 112 97
0.05977686494588852 -0.012296770699322224 0.1550000011920929 255 103 90
0.05975332111120224 -0.012217436917126179 0.15399999916553497 250 98 85
0.060084838420152664 -0.01213810220360756 0.15299999713897705 241 90 74
0.06036459654569626 -0.01197943463921547 0.1509999930858612 255 120 116
0.06071965768933296 -0.01197943463921547 0.1509999930858612 255 117 113
0.061074718832969666 -0.01197943463921547 0.1509999930858612 251 128 127
0.061022959649562836 -0.011900100857019424 0.15000000596046448 255 137 136
0.06137567013502121 -0.011900100857019424 0.15000000596046448 254 142 142
0.06131685525178909 -0.011820766143500805 0.14900000393390656 253 141 141
0.06166721135377884 -0.011820766143500805 0.14900000393390656 255 147 146
0.061601344496011734 -0.01174143236130476 0.14800000190734863 255 148 147
0.06194935366511345 -0.01174143236130476 0.14800000190734863 255 149 145
0.06187643110752106 -0.011662098579108715 0.1469999998807907 255 149 145
0.062222085893154144 -0.011662098579108715 0.1469999998807907 254 151 146
0.062142107635736465 -0.01158276479691267 0.1459999978542328 255 153 148
0.06248541176319122 -0.01158276479691267 0.1459999978542328 255 157 157
0.06282871961593628 -0.01158276479691267 0.1459999978542328 250 151 151
0.06317202001810074 -0.01158276479691267 0.1459999978542328 248 148 155
0.06308028846979141 -0.01150343008339405 0.14499999582767487 238 138 145
0.06342124193906784 -0.01150343008339405 0.14499999582767487 219 123 129
0.06332245469093323 -0.011424096301198006 0.14399999380111694 246 150 156
0.06366105377674103 -0.011424096301198006 0.14399999380111694 252 192 190
0.06355521082878113 -0.01134476251900196 0.14300000667572021 255 214 212
0.0638914629817009 -0.01134476251900196 0.14300000667572021 255 239 238
0.06422770768404007 -0.01134476251900196 0.14300000667572021 255 248 247
0.06411246210336685 -0.011265428736805916 0.1420000046491623 254 255 249
0.064446359872818 -0.011265428736805916 0.1420000046491623 254 255 249
0.06432405859231949 -0.011186094023287296 0.14100000262260437 254 255 249
0.0646556094288826 -0.011186094023287296 0.14100000262260437 253 254 248
0.06498715281486511 -0.011186094023287296 0.14100000262260437 247 248 244
0.06531869620084763 -0.011186094023287296 0.14100000262260437 245 246 242
0.06565024703741074 -0.011186094023287296 0.14100000262260437 253 249 250
0.06598179042339325 -0.011186094023287296 0.14100000262260437 255 252 253
0.06584303081035614 -0.011106760241091251 0.14000000059604645 255 246 255
0.06617222726345062 -0.011106760241091251 0.14000000059604645 254 232 246
0.0665014237165451 -0.011106760241091251 0.14000000059604645 213 175 190
0.06683062016963959 -0.011106760241091251 0.14000000059604645 198 160 175
0.06668009608983994 -0.011027426458895206 0.13899999856948853 201 132 145
0.06782285124063492 -0.010948092676699162 0.1379999965429306 223 148 142
0.06814733892679214 -0.010948092676699162 0.1379999965429306 255 245 231
0.06847183406352997 -0.010948092676699162 0.1379999965429306 255 249 235
0.06879632920026779 -0.010948092676699162 0.1379999965429306 255 255 239
0.06912081688642502 -0.010948092676699162 0.1379999965429306 255 255 239
0.06894208490848541 -0.010868758894503117 0.13699999451637268 254 255 247
0.06926422566175461 -0.010868758894503117 0.13699999451637268 254 255 247
0.0695863664150238 -0.010868758894503117 0.13699999451637268 254 255 249
0.069908507168293 -0.010868758894503117 0.13699999451637268 254 255 249
0.06971801817417145 -0.010789424180984497 0.13600000739097595 252 255 249
0.07003780454397202 -0.010789424180984497 0.13600000739097595 252 255 249
0.07035759091377258 -0.010789424180984497 0.13600000739097595 255 254 249
0.07015769928693771 -0.010710090398788452 0.13500000536441803 255 253 248
0.07047513872385025 -0.010710090398788452 0.13500000536441803 246 236 236
0.0702681839466095 -0.010630756616592407 0.1340000033378601 242 232 232
0.0705832690000534 -0.010630756616592407 0.1340000033378601 230 210 213
0.07089836150407791 -0.010630756616592407 0.1340000033378601 201 181 184
0.07068200409412384 -0.010551422834396362 0.13300000131130219 204 160 169
0.07099473476409912 -0.010551422834396362 0.13300000131130219 176 132 141
0.07349661737680435 -0.010551422834396362 0.13300000131130219 234 147 141
0.07380935549736023 -0.010551422834396362 0.13300000131130219 234 180 181
0.07412209361791611 -0.010551422834396362 0.13300000131130219 246 192 193
0.07443482428789139 -0.010551422834396362 0.13300000131130219 236 194 193
0.07418555021286011 -0.010472088120877743 0.13199999928474426 230 188 187
0.07449593394994736 -0.010472088120877743 0.13199999928474426 220 182 173
0.0748063176870346 -0.010472088120877743 0.13199999928474426 214 176 167
0.07511670142412186 -0.010472088120877743 0.13199999928474426 212 169 160
0.07485567033290863 -0.010392754338681698 0.13099999725818634 212 169 160
0.07516369968652725 -0.010392754338681698 0.13099999725818634 209 168 160
0.07547173649072647 -0.010392754338681698 0.13099999725818634 209 168 160
0.07577976584434509 -0.010392754338681698 0.13099999725818634 204 160 158
0.07608779519796371 -0.010392754338681698 0.13099999725818634 199 155 153
0.07639583200216293 -0.010392754338681698 0.13099999725818634 198 153 158
0.07670386135578156 -0.010392754338681698 0.13099999725818634 192 147 152
0.07701189815998077 -0.010392754338681698 0.13099999725818634 182 136 146
0.0773199275135994 -0.010392754338681698 0.13099999725818634 177 131 141
0.07762796431779861 -0.010392754338681698 0.13099999725818634 175 127 131
0.07793599367141724 -0.010392754338681698 0.13099999725818634 175 127 131
0.07824403047561646 -0.010392754338681698 0.13099999725818634 180 131 130
0.07795242220163345 -0.010313420556485653 0.12999999523162842 180 131 130
0.07825810462236404 -0.010313420556485653 0.12999999523162842 175 128 129
0.07856378704309464 -0.010313420556485653 0.12999999523162842 165 118 119
0.10009802877902985 -0.010789424180984497 0.13600000739097595 174 124 121
0.10041781514883041 -0.010789424180984497 0.13600000739097595 173 136 133
0.10073760896921158 -0.010789424180984497 0.13600000739097595 169 132 129
0.10105739533901215 -0.010789424180984497 0.13600000739097595 153 125 124
0.10094920545816422 -0.010710090398788452 0.13500000536441803 163 120 122
0.058704715222120285 -0.01216325256973505 0.15800000727176666 255 87 81
0.05907623469829559 -0.01216325256973505 0.15800000727176666 255 104 98
0.0594477541744709 -0.01216325256973505 0.15800000727176666 255 111 101
0.059440672397613525 -0.012086269445717335 0.15700000524520874 255 111 101
0.059809841215610504 -0.012086269445717335 0.15700000524520874 255 113 101
0.05979570373892784 -0.012009287253022194 0.15600000321865082 254 111 99
0.05977686494588852 -0.011932304129004478 0.1550000011920929 247 104 90
0.06014132872223854 -0.011932304129004478 0.1550000011920929 253 110 96
