0.06584303081035614 -0.014398711733520031 0.14000000059604645 238 163 173
0.06617222726345062 -0.014398711733520031 0.14000000059604645 240 165 175
0.0665014237165451 -0.014398711733520031 0.14000000059604645 228 151 153
0.06683062016963959 -0.014398711733520031 0.14000000059604645 234 157 159
0.06668009608983994 -0.014295863918960094 0.13899999856948853 232 157 149
0.06700694561004639 -0.014295863918960094 0.13899999856948853 227 152 144
0.06733378767967224 -0.014295863918960094 0.13899999856948853 203 132 121
0.0676606297492981 -0.014295863918960094 0.13899999856948853 224 153 142
0.06798747181892395 -0.014295863918960094 0.13899999856948853 255 241 228
0.06782285124063492 -0.014193016104400158 0.1379999965429306 255 246 233
0.06814733892679214 -0.014193016104400158 0.1379999965429306 255 255 247
0.06847183406352997 -0.014193016104400158 0.1379999965429306 255 255 247
0.06879632920026779 -0.014193016104400158 0.1379999965429306 254 255 249
0.06861994415521622 -0.014090168289840221 0.13699999451637268 254 255 249
0.06894208490848541 -0.014090168289840221 0.13699999451637268 254 255 249
0.06926422566175461 -0.014090168289840221 0.13699999451637268 254 255 249
0.06907843798398972 -0.013987320475280285 0.13600000739097595 254 255 249
0.06939822435379028 -0.013987320475280285 0.13600000739097595 254 255 249
0.06971801817417145 -0.013987320475280285 0.13600000739097595 254 255 249
0.07003780454397202 -0.013987320475280285 0.13600000739097595 254 255 249
0.06984025985002518 -0.013884472660720348 0.13500000536441803 254 255 249
0.07015769928693771 -0.013884472660720348 0.13500000536441803 254 255 249
0.07047513872385025 -0.013884472660720348 0.13500000536441803 254 255 249
0.07079257071018219 -0.013884472660720348 0.13500000536441803 254 255 249
0.07111001014709473 -0.013884472660720348 0.13500000536441803 255 252 254
0.07142744958400726 -0.013884472660720348 0.13500000536441803 248 242 244
0.07121344655752182 -0.013781624846160412 0.1340000033378601 255 209 219
0.07152853161096573 -0.013781624846160412 0.1340000033378601 234 188 198
0.07184361666440964 -0.013781624846160412 0.1340000033378601 243 183 183
0.07215870171785355 -0.013781624846160412 0.1340000033378601 236 176 176
0.07247379422187805 -0.013781624846160412 0.1340000033378601 201 154 141
0.07278887927532196 -0.013781624846160412 0.1340000033378601 255 213 200
0.07310396432876587 -0.013781624846160412 0.1340000033378601 255 254 231
0.07341904938220978 -0.013781624846160412 0.1340000033378601 255 254 231
0.07318388670682907 -0.0136787761002779 0.13300000131130219 255 255 241
0.07349661737680435 -0.0136787761002779 0.13300000131130219 255 255 241
0.07380935549736023 -0.0136787761002779 0.13300000131130219 255 245 242
0.07412209361791611 -0.0136787761002779 0.13300000131130219 234 218 215
0.07387516647577286 -0.013575928285717964 0.13199999928474426 241 201 204
0.07418555021286011 -0.013575928285717964 0.13199999928474426 241 201 204
0.07449593394994736 -0.013575928285717964 0.13199999928474426 248 198 204
0.0748063176870346 -0.013575928285717964 0.13199999928474426 250 200 206
0.07511670142412186 -0.013575928285717964 0.13199999928474426 255 206 223
0.07485567033290863 -0.013473080471158028 0.13099999725818634 255 206 223
0.07516369968652725 -0.013473080471158028 0.13099999725818634 253 211 227
0.07547173649072647 -0.013473080471158028 0.13099999725818634 255 215 231
0.07577976584434509 -0.013473080471158028 0.13099999725818634 251 213 228
0.07608779519796371 -0.013473080471158028 0.13099999725818634 239 201 216
0.07639583200216293 -0.013473080471158028 0.13099999725818634 220 182 195
0.07670386135578156 -0.013473080471158028 0.13099999725818634 219 181 194
0.07701189815998077 -0.013473080471158028 0.13099999725818634 214 177 186
0.0773199275135994 -0.013473080471158028 0.13099999725818634 210 173 182
0.07762796431779861 -0.013473080471158028 0.13099999725818634 204 172 179
0.07734106481075287 -0.013370232656598091 0.12999999523162842 204 172 179
0.07764674723148346 -0.013370232656598091 0.12999999523162842 202 174 175
0.07795242220163345 -0.013370232656598091 0.12999999523162842 206 178 179
0.07825810462236404 -0.013370232656598091 0.12999999523162842 206 180 176
0.07856378704309464 -0.013370232656598091 0.12999999523162842 218 192 188
0.07886946946382523 -0.013370232656598091 0.12999999523162842 209 181 178
0.07917515188455582 -0.013370232656598091 0.12999999523162842 208 180 177
0.08100923895835876 -0.013370232656598091 0.12999999523162842 205 145 141
0.08131492137908936 -0.013370232656598091 0.12999999523162842 217 167 162
0.08162060379981995 -0.013370232656598091 0.12999999523162842 224 174 169
0.08192627876996994 -0.013370232656598091 0.12999999523162842 220 176 176
0.08223196119070053 -0.013370232656598091 0.12999999523162842 221 177 177
0.08253764361143112 -0.013370232656598091 0.12999999523162842 208 161 162
0.08284332603216171 -0.013370232656598091 0.12999999523162842 206 159 160
0.05325862765312195 -0.014973985962569714 0.14900000393390656 255 127 137
0.05360898748040199 -0.014973985962569714 0.14900000393390656 255 132 142
0.05432148650288582 -0.015074482187628746 0.15000000596046448 255 112 126
0.05467419698834419 -0.015074482187628746 0.15000000596046448 250 96 110
0.05502690374851227 -0.015074482187628746 0.15000000596046448 253 76 89
0.05537961423397064 -0.015074482187628746 0.15000000596046448 242 65 78
0.055732324719429016 -0.015074482187628746 0.15000000596046448 250 62 76
0.05608503147959709 -0.015074482187628746 0.15000000596046448 238 50 64
0.056437741965055466 -0.015074482187628746 0.15000000596046448 241 52 58
0.057169053703546524 -0.015174979344010353 0.1509999930858612 251 62 68
0.05752411484718323 -0.015174979344010353 0.1509999930858612 255 73 69
0.05749586969614029 -0.015074482187628746 0.15000000596046448 244 57 53
0.057848576456308365 -0.015074482187628746 0.15000000596046448 241 53 52
0.05820128694176674 -0.015074482187628746 0.15000000596046448 241 53 52
0.05855399742722511 -0.015074482187628746 0.15000000596046448 255 67 67
0.05890670418739319 -0.015074482187628746 0.15000000596046448 253 62 62
0.05925941467285156 -0.015074482187628746 0.15000000596046448 255 68 60
0.05921470746397972 -0.014973985962569714 0.14900000393390656 244 55 47
0.059565067291259766 -0.014973985962569714 0.14900000393390656 237 58 43
0.05991542339324951 -0.014973985962569714 0.14900000393390656 249 70 55
0.05986131355166435 -0.014873489737510681 0.14800000190734863 248 86 78
0.059802502393722534 -0.014772992581129074 0.1469999998807907 255 99 91
0.06014815717935562 -0.014772992581129074 0.1469999998807907 255 103 106
0.06049381196498871 -0.014772992581129074 0.1469999998807907 255 103 106
0.060839466750621796 -0.014772992581129074 0.1469999998807907 242 92 98
0.06076889485120773 -0.014672496356070042 0.1459999978542328 226 76 82
0.06111219897866249 -0.014672496356070042 0.1459999978542328 239 84 92
0.06145550310611725 -0.014672496356070042 0.1459999978542328 236 81 89
0.061798807233572006 -0.014672496356070042 0.1459999978542328 233 80 87
0.062142107635736465 -0.014672496356070042 0.1459999978542328 230 77 84
0.06248541176319122 -0.014672496356070042 0.1459999978542328 221 76 74
0.062398381531238556 -0.01457200013101101 0.14499999582767487 219 74 72
0.06273933500051498 -0.01457200013101101 0.14499999582767487 222 94 88
0.06308028846979141 -0.01457200013101101 0.14499999582767487 255 151 145
0.06342124193906784 -0.01457200013101101 0.14499999582767487 255 168 167
0.06332245469093323 -0.014471502974629402 0.14399999380111694 255 175 174
0.06366105377674103 -0.014471502974629402 0.14399999380111694 255 195 196
0.06399965286254883 -0.014471502974629402 0.14399999380111694 255 194 195
0.0638914629817009 -0.01437100674957037 0.14300000667572021 254 214 217
0.06422770768404007 -0.01437100674957037 0.14300000667572021 255 232 235
0.06411246210336685 -0.014270510524511337 0.1420000046491623 255 234 242
0.064446359872818 -0.014270510524511337 0.1420000046491623 254 231 239
0.06478025764226913 -0.014270510524511337 0.1420000046491623 255 235 244
0.0646556094288826 -0.01417001336812973 0.14100000262260437 255 237 246
0.06498715281486511 -0.01417001336812973 0.14100000262260437 255 235 244
0.06531869620084763 -0.01417001336812973 0.14100000262260437 254 233 242
0.06565024703741074 -0.01417001336812973 0.14100000262260437 255 231 238
0.06551383435726166 -0.014069517143070698 0.14000000059604645 255 219 226
0.06584303081035614 -0.014069517143070698 0.14000000059604645 231 171 179
0.06617222726345062 -0.014069517143070698 0.14000000059604645 230 170 178
0.0665014237165451 -0.014069517143070698 0.14000000059604645 233 166 169
0.06683062016963959 -0.014069517143070698 0.14000000059604645 233 166 169
0.06668009608983994 -0.01396901998668909 0.13899999856948853 235 166 161
0.06700694561004639 -0.01396901998668909 0.13899999856948853 225 156 151
0.06733378767967224 -0.01396901998668909 0.13899999856948853 213 150 140
0.0676606297492981 -0.01396901998668909 0.13899999856948853 241 178 168
0.06798747181892395 -0.01396901998668909 0.13899999856948853 255 246 233
0.06782285124063492 -0.013868523761630058 0.1379999965429306 255 248 235
0.06814733892679214 -0.013868523761630058 0.1379999965429306 255 255 245
0.06847183406352997 -0.013868523761630058 0.1379999965429306 255 255 245
0.06879632920026779 -0.013868523761630058 0.1379999965429306 254 255 249
0.06861994415521622 -0.013768027536571026 0.13699999451637268 254 255 249
0.06894208490848541 -0.013768027536571026 0.13699999451637268 254 255 249
0.06926422566175461 -0.013768027536571026 0.13699999451637268 254 255 249
0.06907843798398972 -0.013667530380189419 0.13600000739097595 254 255 249
0.06939822435379028 -0.013667530380189419 0.13600000739097595 254 255 249
0.06971801817417145 -0.013667530380189419 0.13600000739097595 254 255 249
0.07003780454397202 -0.013667530380189419 0.13600000739097595 254 255 249
0.06984025985002518 -0.013567034155130386 0.13500000536441803 254 255 249
0.07015769928693771 -0.013567034155130386 0.13500000536441803 254 255 249
0.07047513872385025 -0.013567034155130386 0.13500000536441803 254 255 249
0.07079257071018219 -0.013567034155130386 0.13500000536441803 254 255 249
0.07111001014709473 -0.013567034155130386 0.13500000536441803 255 255 251
0.07142744958400726 -0.013567034155130386 0.13500000536441803 255 255 251
0.07121344655752182 -0.013466537930071354 0.1340000033378601 255 230 232
0.07152853161096573 -0.013466537930071354 0.1340000033378601 236 205 207
0.07184361666440964 -0.013466537930071354 0.1340000033378601 252 197 194
0.07215870171785355 -0.013466537930071354 0.1340000033378601 232 177 174
0.07247379422187805 -0.013466537930071354 0.1340000033378601 216 169 156
0.07278887927532196 -0.013466537930071354 0.1340000033378601 255 209 196
0.07310396432876587 -0.013466537930071354 0.1340000033378601 255 253 233
0.0728711485862732 -0.013366040773689747 0.13300000131130219 255 253 233
0.07318388670682907 -0.013366040773689747 0.13300000131130219 255 255 243
0.07349661737680435 -0.013366040773689747 0.13300000131130219 255 255 243
0.07380935549736023 -0.013366040773689747 0.13300000131130219 255 246 246
0.07412209361791611 -0.013366040773689747 0.13300000131130219 241 229 229
0.07387516647577286 -0.013265544548630714 0.13199999928474426 252 213 222
0.07418555021286011 -0.013265544548630714 0.13199999928474426 240 201 210
0.07449593394994736 -0.013265544548630714 0.13199999928474426 241 196 203
0.0748063176870346 -0.013265544548630714 0.13199999928474426 248 203 210
0.07511670142412186 -0.013265544548630714 0.13199999928474426 252 207 222
0.07485567033290863 -0.013165048323571682 0.13099999725818634 255 210 225
0.07516369968652725 -0.013165048323571682 0.13099999725818634 255 222 237
0.07547173649072647 -0.013165048323571682 0.13099999725818634 255 222 237
0.07577976584434509 -0.013165048323571682 0.13099999725818634 243 214 230
0.07608779519796371 -0.013165048323571682 0.13099999725818634 233 204 220
0.07639583200216293 -0.013165048323571682 0.13099999725818634 243 209 227
0.07670386135578156 -0.013165048323571682 0.13099999725818634 217 183 201
0.07701189815998077 -0.013165048323571682 0.13099999725818634 210 175 187
0.0773199275135994 -0.013165048323571682 0.13099999725818634 204 169 181
0.07734106481075287 -0.013064551167190075 0.12999999523162842 203 171 176
0.07764674723148346 -0.013064551167190075 0.12999999523162842 206 178 175
0.07795242220163345 -0.013064551167190075 0.12999999523162842 209 181 178
0.07825810462236404 -0.013064551167190075 0.12999999523162842 206 181 174
0.07856378704309464 -0.013064551167190075 0.12999999523162842 206 181 174
0.07917515188455582 -0.013064551167190075 0.12999999523162842 201 175 171
0.08131492137908936 -0.013064551167190075 0.12999999523162842 205 155 150
0.08162060379981995 -0.013064551167190075 0.12999999523162842 217 167 162
0.08192627876996994 -0.013064551167190075 0.12999999523162842 220 176 176
0.08223196119070053 -0.013064551167190075 0.12999999523162842 225 181 181
0.08253764361143112 -0.013064551167190075 0.12999999523162842 211 167 167
0.08284332603216171 -0.013064551167190075 0.12999999523162842 202 158 158
0.05325862765312195 -0.014623627997934818 0.14900000393390656 255 117 131
0.05360898748040199 -0.014623627997934818 0.14900000393390656 245 100 114
0.05432148650288582 -0.014721773564815521 0.15000000596046448 253 79 91
0.05467419698834419 -0.014721773564815521 0.15000000596046448 238 64 76
0.05502690374851227 -0.014721773564815521 0.15000000596046448 232 47 56
0.05611800774931908 -0.014918063767254353 0.15199999511241913 245 60 69
0.056103870272636414 -0.01481991820037365 0.1509999930858612 253 61 70
0.05645893141627312 -0.01481991820037365 0.1509999930858612 246 54 63
0.05681399255990982 -0.01481991820037365 0.1509999930858612 235 45 42
0.05754765495657921 -0.014918063767254353 0.15199999511241913 252 62 59
0.05752411484718323 -0.01481991820037365 0.1509999930858612 250 64 53
0.05787917599081993 -0.01481991820037365 0.1509999930858612 249 63 52
0.058234233409166336 -0.01481991820037365 0.1509999930858612 239 52 48
0.05858929455280304 -0.01481991820037365 0.1509999930858612 241 54 50
0.05894435569643974 -0.01481991820037365 0.1509999930858612 251 59 55
0.05929941684007645 -0.01481991820037365 0.1509999930858612 235 43 39
0.05925941467285156 -0.014721773564815521 0.15000000596046448 244 53 44
0.059612125158309937 -0.014721773564815521 0.15000000596046448 233 42 33
0.05996483191847801 -0.014721773564815521 0.15000000596046448 213 36 22
0.05991542339324951 -0.014623627997934818 0.14900000393390656 255 80 66
0.060265783220529556 -0.014623627997934818 0.14900000393390656 255 104 101
0.06020931899547577 -0.01452548336237669 0.14800000190734863 255 105 102
0.060557328164577484 -0.01452548336237669 0.14800000190734863 255 110 113
0.0609053336083889 -0.01452548336237669 0.14800000190734863 255 114 117
0.06125333905220032 -0.01452548336237669 0.14800000190734863 234 92 100
0.06118512153625488 -0.014427337795495987 0.1469999998807907 221 79 87
0.06111219897866249 -0.014329193159937859 0.1459999978542328 228 84 95
0.06145550310611725 -0.014329193159937859 0.1459999978542328 225 81 92
0.061798807233572006 -0.014329193159937859 0.1459999978542328 222 83 92
0.062142107635736465 -0.014329193159937859 0.1459999978542328 218 79 88
0.06248541176319122 -0.014329193159937859 0.1459999978542328 216 81 80
0.062398381531238556 -0.014231047593057156 0.14499999582767487 211 76 75
0.06273933500051498 -0.014231047593057156 0.14499999582767487 206 93 82
0.06308028846979141 -0.014231047593057156 0.14499999582767487 255 155 144
0.06342124193906784 -0.014231047593057156 0.14499999582767487 255 172 164
0.06332245469093323 -0.014132902026176453 0.14399999380111694 255 172 164
0.06366105377674103 -0.014132902026176453 0.14399999380111694 255 202 201
0.06399965286254883 -0.014132902026176453 0.14399999380111694 255 214 213
0.0638914629817009 -0.014034757390618324 0.14300000667572021 255 225 230
0.06422770768404007 -0.014034757390618324 0.14300000667572021 255 242 247
0.06411246210336685 -0.013936611823737621 0.1420000046491623 255 243 247
0.064446359872818 -0.013936611823737621 0.1420000046491623 247 234 238
0.06478025764226913 -0.013936611823737621 0.1420000046491623 243 232 236
0.06511415541172028 -0.013936611823737621 0.1420000046491623 255 248 252
0.06498715281486511 -0.013838467188179493 0.14100000262260437 255 248 252
0.06531869620084763 -0.013838467188179493 0.14100000262260437 255 248 252
0.06565024703741074 -0.013838467188179493 0.14100000262260437 255 245 246
0.06551383435726166 -0.01374032162129879 0.14000000059604645 255 237 238
0.06584303081035614 -0.01374032162129879 0.14000000059604645 243 195 201
0.06617222726345062 -0.01374032162129879 0.14000000059604645 221 173 179
0.0665014237165451 -0.01374032162129879 0.14000000059604645 228 169 174
0.06683062016963959 -0.01374032162129879 0.14000000059604645 226 167 172
0.06668009608983994 -0.013642176985740662 0.13899999856948853 232 167 167
0.06700694561004639 -0.013642176985740662 0.13899999856948853 233 168 168
0.06733378767967224 -0.013642176985740662 0.13899999856948853 225 165 163
0.0676606297492981 -0.013642176985740662 0.13899999856948853 255 197 195
0.0674983561038971 -0.013544031418859959 0.1379999965429306 255 247 237
0.06782285124063492 -0.013544031418859959 0.1379999965429306 255 249 239
0.06814733892679214 -0.013544031418859959 0.1379999965429306 254 255 245
0.06847183406352997 -0.013544031418859959 0.1379999965429306 254 255 245
0.06879632920026779 -0.013544031418859959 0.1379999965429306 254 255 249
0.06861994415521622 -0.01344588678330183 0.13699999451637268 254 255 249
0.06894208490848541 -0.01344588678330183 0.13699999451637268 254 255 249
0.06926422566175461 -0.01344588678330183 0.13699999451637268 254 255 249
0.06907843798398972 -0.013347741216421127 0.13600000739097595 254 255 249
0.06939822435379028 -0.013347741216421127 0.13600000739097595 254 255 249
0.06971801817417145 -0.013347741216421127 0.13600000739097595 254 255 249
0.07003780454397202 -0.013347741216421127 0.13600000739097595 254 255 249
0.07035759091377258 -0.013347741216421127 0.13600000739097595 254 255 249
0.07015769928693771 -0.013249595649540424 0.13500000536441803 254 255 249
0.07047513872385025 -0.013249595649540424 0.13500000536441803 254 255 249
0.07079257071018219 -0.013249595649540424 0.13500000536441803 254 255 249
0.07111001014709473 -0.013249595649540424 0.13500000536441803 255 255 249
0.07142744958400726 -0.013249595649540424 0.13500000536441803 245 245 239
0.07121344655752182 -0.013151451013982296 0.1340000033378601 237 216 215
0.07152853161096573 -0.013151451013982296 0.1340000033378601 232 211 210
0.07184361666440964 -0.013151451013982296 0.1340000033378601 252 204 198
0.07215870171785355 -0.013151451013982296 0.1340000033378601 241 193 187
0.07247379422187805 -0.013151451013982296 0.1340000033378601 215 170 157
0.07278887927532196 -0.013151451013982296 0.1340000033378601 254 209 196
0.07310396432876587 -0.013151451013982296 0.1340000033378601 255 253 235
0.0728711485862732 -0.013053305447101593 0.13300000131130219 255 253 235
0.07318388670682907 -0.013053305447101593 0.13300000131130219 254 255 245
0.07349661737680435 -0.013053305447101593 0.13300000131130219 254 255 245
0.07380935549736023 -0.013053305447101593 0.13300000131130219 253 243 243
0.07356478273868561 -0.012955160811543465 0.13199999928474426 229 219 219
0.07387516647577286 -0.012955160811543465 0.13199999928474426 228 196 201
0.07418555021286011 -0.012955160811543465 0.13199999928474426 235 203 208
0.07449593394994736 -0.012955160811543465 0.13199999928474426 240 197 203
0.0748063176870346 -0.012955160811543465 0.13199999928474426 247 204 210
0.07454763352870941 -0.012857015244662762 0.13099999725818634 255 224 238
0.07485567033290863 -0.012857015244662762 0.13099999725818634 255 225 239
0.07516369968652725 -0.012857015244662762 0.13099999725818634 255 231 243
0.07547173649072647 -0.012857015244662762 0.13099999725818634 255 236 248
0.07577976584434509 -0.012857015244662762 0.13099999725818634 236 214 228
0.07608779519796371 -0.012857015244662762 0.13099999725818634 229 207 221
0.07639583200216293 -0.012857015244662762 0.13099999725818634 221 190 211
0.07670386135578156 -0.012857015244662762 0.13099999725818634 209 178 199
0.07701189815998077 -0.012857015244662762 0.13099999725818634 205 170 182
0.0773199275135994 -0.012857015244662762 0.13099999725818634 201 166 178
0.07734106481075287 -0.012758870609104633 0.12999999523162842 202 171 173
0.07764674723148346 -0.012758870609104633 0.12999999523162842 207 179 176
0.07795242220163345 -0.012758870609104633 0.12999999523162842 208 180 177
0.07825810462236404 -0.012758870609104633 0.12999999523162842 208 182 178
0.07856378704309464 -0.012758870609104633 0.12999999523162842 208 182 178
0.07886946946382523 -0.012758870609104633 0.12999999523162842 207 186 183
0.07917515188455582 -0.012758870609104633 0.12999999523162842 207 186 183
0.08162060379981995 -0.012758870609104633 0.12999999523162842 213 167 161
0.08192627876996994 -0.012758870609104633 0.12999999523162842 222 179 183
0.08223196119070053 -0.012758870609104633 0.12999999523162842 226 183 187
0.08253764361143112 -0.012758870609104633 0.12999999523162842 210 170 173
0.08284332603216171 -0.012758870609104633 0.12999999523162842 202 162 165
0.05361606925725937 -0.014369064010679722 0.15000000596046448 242 70 88
0.053968776017427444 -0.014369064010679722 0.15000000596046448 230 58 76
0.0546836294233799 -0.01446485798805952 0.1509999930858612 237 54 53
0.0550386905670166 -0.01446485798805952 0.1509999930858612 243 60 59
0.055393751710653305 -0.01446485798805952 0.1509999930858612 247 61 59
0.05611800774931908 -0.01456065196543932 0.15199999511241913 245 59 57
0.056103870272636414 -0.01446485798805952 0.1509999930858612 249 62 56
0.05645893141627312 -0.01446485798805952 0.1509999930858612 254 67 61
0.05681399255990982 -0.01446485798805952 0.1509999930858612 249 59 45
0.05754765495657921 -0.01456065196543932 0.15199999511241913 249 59 45
0.05752411484718323 -0.01446485798805952 0.1509999930858612 251 62 43
0.05787917599081993 -0.01446485798805952 0.1509999930858612 255 68 49
0.058234233409166336 -0.01446485798805952 0.1509999930858612 255 73 61
0.05858929455280304 -0.01446485798805952 0.1509999930858612 250 61 49
0.05894435569643974 -0.01446485798805952 0.1509999930858612 232 43 35
0.05929941684007645 -0.01446485798805952 0.1509999930858612 238 49 41
0.05965447798371315 -0.01446485798805952 0.1509999930858612 249 60 41
0.060009539127349854 -0.01446485798805952 0.1509999930858612 244 55 36
0.05996483191847801 -0.014369064010679722 0.15000000596046448 231 59 43
0.060317542403936386 -0.014369064010679722 0.15000000596046448 255 112 96
0.06067024916410446 -0.014369064010679722 0.15000000596046448 255 114 112
0.0606161393225193 -0.014273270033299923 0.14900000393390656 255 118 116
0.06096649914979935 -0.014273270033299923 0.14900000393390656 255 122 125
0.0609053336083889 -0.014177476987242699 0.14800000190734863 255 124 127
0.06125333905220032 -0.014177476987242699 0.14800000190734863 254 120 125
0.06118512153625488 -0.0140816830098629 0.1469999998807907 255 122 127
0.06153077632188797 -0.0140816830098629 0.1469999998807907 235 102 112
0.06145550310611725 -0.013985889032483101 0.1459999978542328 234 101 111
0.061798807233572006 -0.013985889032483101 0.1459999978542328 223 98 107
0.062142107635736465 -0.013985889032483101 0.1459999978542328 211 86 95
0.06248541176319122 -0.013985889032483101 0.1459999978542328 207 88 86
0.062398381531238556 -0.013890095055103302 0.14499999582767487 202 83 81
0.06308028846979141 -0.013890095055103302 0.14499999582767487 255 153 141
0.06342124193906784 -0.013890095055103302 0.14499999582767487 255 174 162
0.06332245469093323 -0.013794302009046078 0.14399999380111694 255 173 161
0.06366105377674103 -0.013794302009046078 0.14399999380111694 255 199 197
0.06355521082878113 -0.013698508031666279 0.14300000667572021 255 218 216
0.0638914629817009 -0.013698508031666279 0.14300000667572021 255 246 245
0.06422770768404007 -0.013698508031666279 0.14300000667572021 255 248 247
0.06411246210336685 -0.01360271405428648 0.1420000046491623 255 254 251
0.064446359872818 -0.01360271405428648 0.1420000046491623 254 251 248
0.06478025764226913 -0.01360271405428648 0.1420000046491623 249 245 246
0.06511415541172028 -0.01360271405428648 0.1420000046491623 255 252 253
0.06498715281486511 -0.013506920076906681 0.14100000262260437 255 254 251
0.06531869620084763 -0.013506920076906681 0.14100000262260437 255 254 251
0.06565024703741074 -0.013506920076906681 0.14100000262260437 255 250 247
0.06551383435726166 -0.013411127030849457 0.14000000059604645 255 251 248
0.06584303081035614 -0.013411127030849457 0.14000000059604645 255 222 223
0.06617222726345062 -0.013411127030849457 0.14000000059604645 227 194 195
0.0665014237165451 -0.013411127030849457 0.14000000059604645 231 179 184
0.06635325402021408 -0.013315333053469658 0.13899999856948853 230 178 183
0.06668009608983994 -0.013315333053469658 0.13899999856948853 232 171 174
0.06700694561004639 -0.013315333053469658 0.13899999856948853 231 170 173
0.06733378767967224 -0.013315333053469658 0.13899999856948853 226 171 170
0.0676606297492981 -0.013315333053469658 0.13899999856948853 238 183 182
0.0674983561038971 -0.013219539076089859 0.1379999965429306 255 245 240
0.06782285124063492 -0.013219539076089859 0.1379999965429306 255 247 242
0.06814733892679214 -0.013219539076089859 0.1379999965429306 254 255 249
0.06847183406352997 -0.013219539076089859 0.1379999965429306 254 255 249
0.06879632920026779 -0.013219539076089859 0.1379999965429306 254 255 249
0.06861994415521622 -0.01312374509871006 0.13699999451637268 254 255 249
0.06894208490848541 -0.01312374509871006 0.13699999451637268 254 255 249
0.06926422566175461 -0.01312374509871006 0.13699999451637268 254 255 249
0.06907843798398972 -0.013027951121330261 0.13600000739097595 254 255 249
0.06939822435379028 -0.013027951121330261 0.13600000739097595 254 255 249
0.06971801817417145 -0.013027951121330261 0.13600000739097595 254 255 249
0.07003780454397202 -0.013027951121330261 0.13600000739097595 254 255 249
0.07035759091377258 -0.013027951121330261 0.13600000739097595 254 255 249
0.07015769928693771 -0.012932158075273037 0.13500000536441803 254 255 249
0.07047513872385025 -0.012932158075273037 0.13500000536441803 254 255 249
0.07079257071018219 -0.012932158075273037 0.13500000536441803 254 255 249
0.07111001014709473 -0.012932158075273037 0.13500000536441803 254 255 249
0.07142744958400726 -0.012932158075273037 0.13500000536441803 254 255 249
0.07121344655752182 -0.012836364097893238 0.1340000033378601 255 246 246
0.07152853161096573 -0.012836364097893238 0.1340000033378601 252 235 235
0.07184361666440964 -0.012836364097893238 0.1340000033378601 249 210 206
0.07215870171785355 -0.012836364097893238 0.1340000033378601 238 199 195
0.07247379422187805 -0.012836364097893238 0.1340000033378601 225 188 174
0.07224567979574203 -0.01274057012051344 0.13300000131130219 243 206 192
0.07255841046571732 -0.01274057012051344 0.13300000131130219 255 253 230
0.0728711485862732 -0.01274057012051344 0.13300000131130219 255 253 230
0.07318388670682907 -0.01274057012051344 0.13300000131130219 254 255 241
0.07349661737680435 -0.01274057012051344 0.13300000131130219 254 255 241
0.07380935549736023 -0.01274057012051344 0.13300000131130219 255 253 251
0.07356478273868561 -0.01264477614313364 0.13199999928474426 250 245 243
0.07387516647577286 -0.01264477614313364 0.13199999928474426 232 210 214
0.07418555021286011 -0.01264477614313364 0.13199999928474426 229 207 211
0.07449593394994736 -0.01264477614313364 0.13199999928474426 226 194 201
0.0748063176870346 -0.01264477614313364 0.13199999928474426 230 198 205
0.07454763352870941 -0.012548983097076416 0.13099999725818634 245 217 230
0.07485567033290863 -0.012548983097076416 0.13099999725818634 255 236 249
0.07516369968652725 -0.012548983097076416 0.13099999725818634 255 243 255
0.07547173649072647 -0.012548983097076416 0.13099999725818634 255 245 255
0.07577976584434509 -0.012548983097076416 0.13099999725818634 254 242 253
0.07608779519796371 -0.012548983097076416 0.13099999725818634 233 221 232
0.07639583200216293 -0.012548983097076416 0.13099999725818634 231 207 226
0.07670386135578156 -0.012548983097076416 0.13099999725818634 216 192 211
0.0773199275135994 -0.012548983097076416 0.13099999725818634 203 173 183
0.07703538239002228 -0.012453189119696617 0.12999999523162842 201 170 170
0.07734106481075287 -0.012453189119696617 0.12999999523162842 205 174 174
0.07764674723148346 -0.012453189119696617 0.12999999523162842 202 174 173
0.07795242220163345 -0.012453189119696617 0.12999999523162842 205 177 176
0.07825810462236404 -0.012453189119696617 0.12999999523162842 205 182 177
0.07886946946382523 -0.012453189119696617 0.12999999523162842 204 185 183
0.07917515188455582 -0.012453189119696617 0.12999999523162842 203 184 182
0.08162060379981995 -0.012453189119696617 0.12999999523162842 210 167 160
0.08192627876996994 -0.012453189119696617 0.12999999523162842 222 182 183
0.08223196119070053 -0.012453189119696617 0.12999999523162842 223 183 184
0.08253764361143112 -0.012453189119696617 0.12999999523162842 215 176 183
0.08284332603216171 -0.012453189119696617 0.12999999523162842 202 163 170
0.05397350713610649 -0.014109797775745392 0.1509999930858612 232 51 50
0.054328568279743195 -0.014109797775745392 0.1509999930858612 239 58 57
0.05504577234387398 -0.014203240163624287 0.15199999511241913 253 69 57
0.05540318414568901 -0.014203240163624287 0.15199999511241913 253 69 57
0.05612744390964508 -0.014296682551503181 0.15299999713897705 255 70 57
0.05720673128962517 -0.014296682551503181 0.15299999713897705 241 53 36
0.05756649747490883 -0.014296682551503181 0.15299999713897705 247 58 35
0.05792625993490219 -0.014296682551503181 0.15299999713897705 245 56 33
0.058286022394895554 -0.014296682551503181 0.15299999713897705 249 58 35
0.058262478560209274 -0.014203240163624287 0.15199999511241913 255 65 42
0.05861989036202431 -0.014203240163624287 0.15199999511241913 255 71 54
0.05897730588912964 -0.014203240163624287 0.15199999511241913 255 72 55
0.05894435569643974 -0.014109797775745392 0.1509999930858612 245 56 44
0.05929941684007645 -0.014109797775745392 0.1509999930858612 244 55 43
0.05965447798371315 -0.014109797775745392 0.1509999930858612 247 58 39
0.060009539127349854 -0.014109797775745392 0.1509999930858612 244 55 36
0.05996483191847801 -0.014016355387866497 0.15000000596046448 250 83 70
0.060317542403936386 -0.014016355387866497 0.15000000596046448 255 113 100
0.06067024916410446 -0.014016355387866497 0.15000000596046448 255 124 119
0.0606161393225193 -0.013922912999987602 0.14900000393390656 255 127 122
0.06096649914979935 -0.013922912999987602 0.14900000393390656 255 128 129
0.06131685525178909 -0.013922912999987602 0.14900000393390656 251 122 123
0.06125333905220032 -0.013829470612108707 0.14800000190734863 250 120 124
0.061601344496011734 -0.013829470612108707 0.14800000190734863 255 128 132
0.06153077632188797 -0.013736028224229813 0.1469999998807907 251 123 133
0.06145550310611725 -0.013642585836350918 0.1459999978542328 246 118 128
0.061798807233572006 -0.013642585836350918 0.1459999978542328 240 124 128
0.062142107635736465 -0.013642585836350918 0.1459999978542328 212 96 100
0.06248541176319122 -0.013642585836350918 0.1459999978542328 212 107 100
0.06308028846979141 -0.013549143448472023 0.14499999582767487 245 147 131
0.06342124193906784 -0.013549143448472023 0.14499999582767487 255 184 169
0.06332245469093323 -0.013455701060593128 0.14399999380111694 255 181 166
0.06366105377674103 -0.013455701060593128 0.14399999380111694 242 192 189
0.06355521082878113 -0.013362258672714233 0.14300000667572021 255 224 221
0.0638914629817009 -0.013362258672714233 0.14300000667572021 255 249 248
0.06422770768404007 -0.013362258672714233 0.14300000667572021 255 249 248
0.06411246210336685 -0.013268816284835339 0.1420000046491623 254 255 251
0.064446359872818 -0.013268816284835339 0.1420000046491623 254 255 251
0.06432405859231949 -0.013175373896956444 0.14100000262260437 254 255 251
0.0646556094288826 -0.013175373896956444 0.14100000262260437 254 255 251
0.06498715281486511 -0.013175373896956444 0.14100000262260437 254 254 254
0.06531869620084763 -0.013175373896956444 0.14100000262260437 254 254 254
0.06565024703741074 -0.013175373896956444 0.14100000262260437 255 255 249
0.06551383435726166 -0.013081931509077549 0.14000000059604645 255 255 249
0.06584303081035614 -0.013081931509077549 0.14000000059604645 255 247 243
0.06617222726345062 -0.013081931509077549 0.14000000059604645 243 224 220
0.0665014237165451 -0.013081931509077549 0.14000000059604645 231 188 190
0.06635325402021408 -0.012988489121198654 0.13899999856948853 227 184 186
0.06668009608983994 -0.012988489121198654 0.13899999856948853 235 181 182
0.06700694561004639 -0.012988489121198654 0.13899999856948853 235 181 182
0.06733378767967224 -0.012988489121198654 0.13899999856948853 219 172 171
0.0676606297492981 -0.012988489121198654 0.13899999856948853 218 171 170
0.06798747181892395 -0.012988489121198654 0.13899999856948853 255 248 240
0.06782285124063492 -0.01289504673331976 0.1379999965429306 255 251 243
0.06814733892679214 -0.01289504673331976 0.1379999965429306 254 255 249
0.06847183406352997 -0.01289504673331976 0.1379999965429306 254 255 249
0.06879632920026779 -0.01289504673331976 0.1379999965429306 254 255 249
0.06861994415521622 -0.012801604345440865 0.13699999451637268 254 255 249
0.06894208490848541 -0.012801604345440865 0.13699999451637268 254 255 249
0.06926422566175461 -0.012801604345440865 0.13699999451637268 254 255 249
0.0695863664150238 -0.012801604345440865 0.13699999451637268 254 255 249
0.06939822435379028 -0.01270816195756197 0.13600000739097595 254 255 249
0.06971801817417145 -0.01270816195756197 0.13600000739097595 254 255 249
0.07003780454397202 -0.01270816195756197 0.13600000739097595 254 255 249
0.07035759091377258 -0.01270816195756197 0.13600000739097595 254 255 249
0.07067738473415375 -0.01270816195756197 0.13600000739097595 254 255 249
0.07047513872385025 -0.012614719569683075 0.13500000536441803 254 255 249
0.07079257071018219 -0.012614719569683075 0.13500000536441803 254 255 249
0.07111001014709473 -0.012614719569683075 0.13500000536441803 254 255 249
0.07142744958400726 -0.012614719569683075 0.13500000536441803 254 255 249
0.07121344655752182 -0.01252127718180418 0.1340000033378601 255 250 248
0.07152853161096573 -0.01252127718180418 0.1340000033378601 251 241 239
0.07184361666440964 -0.01252127718180418 0.1340000033378601 238 207 205
0.07215870171785355 -0.01252127718180418 0.1340000033378601 223 192 190
0.07247379422187805 -0.01252127718180418 0.1340000033378601 229 199 183
0.07224567979574203 -0.012427834793925285 0.13300000131130219 246 216 200
0.07255841046571732 -0.012427834793925285 0.13300000131130219 255 253 228
0.0728711485862732 -0.012427834793925285 0.13300000131130219 255 254 229
0.07318388670682907 -0.012427834793925285 0.13300000131130219 255 255 239
0.07349661737680435 -0.012427834793925285 0.13300000131130219 255 255 239
0.07380935549736023 -0.012427834793925285 0.13300000131130219 254 255 246
0.07356478273868561 -0.01233439240604639 0.13199999928474426 246 247 238
0.07387516647577286 -0.01233439240604639 0.13199999928474426 225 215 215
0.07418555021286011 -0.01233439240604639 0.13199999928474426 225 215 215
0.07449593394994736 -0.01233439240604639 0.13199999928474426 239 218 229
0.0748063176870346 -0.01233439240604639 0.13199999928474426 225 204 215
0.07454763352870941 -0.012240950018167496 0.13099999725818634 224 202 218
0.07485567033290863 -0.012240950018167496 0.13099999725818634 243 221 237
0.07516369968652725 -0.012240950018167496 0.13099999725818634 255 246 255
0.07547173649072647 -0.012240950018167496 0.13099999725818634 255 246 255
0.07577976584434509 -0.012240950018167496 0.13099999725818634 255 249 255
0.07608779519796371 -0.012240950018167496 0.13099999725818634 229 222 231
0.07639583200216293 -0.012240950018167496 0.13099999725818634 233 216 232
0.07670386135578156 -0.012240950018167496 0.13099999725818634 211 194 210
0.07701189815998077 -0.012240950018167496 0.13099999725818634 208 180 191
0.0773199275135994 -0.012240950018167496 0.13099999725818634 204 176 187
0.07703538239002228 -0.012147507630288601 0.12999999523162842 207 179 180
0.07734106481075287 -0.012147507630288601 0.12999999523162842 213 185 186
0.07764674723148346 -0.012147507630288601 0.12999999523162842 206 179 184
0.08162060379981995 -0.012147507630288601 0.12999999523162842 205 162 157
0.08192627876996994 -0.012147507630288601 0.12999999523162842 227 187 188
0.08223196119070053 -0.012147507630288601 0.12999999523162842 229 189 190
0.08253764361143112 -0.012147507630288601 0.12999999523162842 205 173 180
0.05433094874024391 -0.013845828361809254 0.15199999511241913 241 58 41
0.054688360542058945 -0.013845828361809254 0.15199999511241913 255 76 59
0.05540791526436806 -0.013936919160187244 0.15299999713897705 241 56 40
0.05576768144965172 -0.013936919160187244 0.15299999713897705 248 63 47
0.05649428814649582 -0.014028009958565235 0.15399999916553497 255 71 54
0.05722559988498688 -0.014119100756943226 0.1550000011920929 242 54 37
0.0575900673866272 -0.014119100756943226 0.1550000011920929 244 57 35
0.05795453488826752 -0.014119100756943226 0.1550000011920929 249 62 40
0.057942748069763184 -0.014028009958565235 0.15399999916553497 245 58 36
0.058304861187934875 -0.014028009958565235 0.15399999916553497 245 58 36
0.058286022394895554 -0.013936919160187244 0.15299999713897705 247 58 37
0.058645784854888916 -0.013936919160187244 0.15299999713897705 245 56 35
0.05861989036202431 -0.013845828361809254 0.15199999511241913 255 63 47
0.05897730588912964 -0.013845828361809254 0.15199999511241913 255 63 47
0.05933471769094467 -0.013845828361809254 0.15199999511241913 253 63 49
0.059692129492759705 -0.013845828361809254 0.15199999511241913 247 57 43
0.05965447798371315 -0.013754736632108688 0.1509999930858612 245 57 42
0.060009539127349854 -0.013754736632108688 0.1509999930858612 237 49 34
0.06036459654569626 -0.013754736632108688 0.1509999930858612 255 100 94
0.060317542403936386 -0.013663645833730698 0.15000000596046448 255 127 121
0.06067024916410446 -0.013663645833730698 0.15000000596046448 255 128 125
0.061022959649562836 -0.013663645833730698 0.15000000596046448 255 130 127
0.06137567013502121 -0.013663645833730698 0.15000000596046448 254 131 130
0.06131685525178909 -0.013572555035352707 0.14900000393390656 254 131 130
0.06125333905220032 -0.013481464236974716 0.14800000190734863 255 133 136
0.061601344496011734 -0.013481464236974716 0.14800000190734863 253 131 134
0.06153077632188797 -0.013390373438596725 0.1469999998807907 251 130 136
0.06145550310611725 -0.01329928170889616 0.1459999978542328 250 129 135
0.061798807233572006 -0.01329928170889616 0.1459999978542328 246 134 134
0.062142107635736465 -0.01329928170889616 0.1459999978542328 238 126 126
0.062057431787252426 -0.01320819091051817 0.14499999582767487 242 137 130
0.062398381531238556 -0.01320819091051817 0.14499999582767487 214 109 102
0.06273933500051498 -0.01320819091051817 0.14499999582767487 207 108 97
0.06308028846979141 -0.01320819091051817 0.14499999582767487 226 127 116
0.06342124193906784 -0.01320819091051817 0.14499999582767487 255 183 171
0.06332245469093323 -0.013117100112140179 0.14399999380111694 255 192 180
0.06366105377674103 -0.013117100112140179 0.14399999380111694 243 201 198
0.06355521082878113 -0.013026009313762188 0.14300000667572021 255 232 229
0.0638914629817009 -0.013026009313762188 0.14300000667572021 255 251 249
0.06422770768404007 -0.013026009313762188 0.14300000667572021 255 251 249
0.06411246210336685 -0.012934918515384197 0.1420000046491623 254 255 249
0.064446359872818 -0.012934918515384197 0.1420000046491623 254 255 249
0.06432405859231949 -0.012843827717006207 0.14100000262260437 254 255 251
0.0646556094288826 -0.012843827717006207 0.14100000262260437 254 255 251
0.06498715281486511 -0.012843827717006207 0.14100000262260437 254 255 251
0.06531869620084763 -0.012843827717006207 0.14100000262260437 254 255 251
0.06565024703741074 -0.012843827717006207 0.14100000262260437 254 255 251
0.06551383435726166 -0.012752735987305641 0.14000000059604645 253 254 250
0.06584303081035614 -0.012752735987305641 0.14000000059604645 255 250 248
0.06617222726345062 -0.012752735987305641 0.14000000059604645 255 246 244
0.0665014237165451 -0.012752735987305641 0.14000000059604645 235 199 201
0.06635325402021408 -0.01266164518892765 0.13899999856948853 222 186 188
0.06668009608983994 -0.01266164518892765 0.13899999856948853 229 182 183
0.06700694561004639 -0.01266164518892765 0.13899999856948853 227 180 181
0.06733378767967224 -0.01266164518892765 0.13899999856948853 221 185 177
0.0676606297492981 -0.01266164518892765 0.13899999856948853 208 172 164
0.06798747181892395 -0.01266164518892765 0.13899999856948853 255 249 237
0.06782285124063492 -0.01257055439054966 0.1379999965429306 255 253 241
0.06814733892679214 -0.01257055439054966 0.1379999965429306 254 255 245
0.06847183406352997 -0.01257055439054966 0.1379999965429306 254 255 245
0.06879632920026779 -0.01257055439054966 0.1379999965429306 254 255 249
0.06912081688642502 -0.01257055439054966 0.1379999965429306 254 255 249
0.06944531202316284 -0.01257055439054966 0.1379999965429306 254 255 249
0.06926422566175461 -0.012479463592171669 0.13699999451637268 254 255 249
0.0695863664150238 -0.012479463592171669 0.13699999451637268 254 255 249
0.069908507168293 -0.012479463592171669 0.13699999451637268 254 255 249
0.0702306479215622 -0.012479463592171669 0.13699999451637268 254 255 249
0.07035759091377258 -0.012388372793793678 0.13600000739097595 254 255 249
0.07067738473415375 -0.012388372793793678 0.13600000739097595 254 255 249
0.07047513872385025 -0.012297281064093113 0.13500000536441803 254 255 249
0.07079257071018219 -0.012297281064093113 0.13500000536441803 254 255 249
0.07111001014709473 -0.012297281064093113 0.13500000536441803 254 255 249
0.07142744958400726 -0.012297281064093113 0.13500000536441803 254 255 249
0.07121344655752182 -0.012206190265715122 0.1340000033378601 255 251 251
0.07152853161096573 -0.012206190265715122 0.1340000033378601 252 242 242
0.07184361666440964 -0.012206190265715122 0.1340000033378601 226 195 195
0.07215870171785355 -0.012206190265715122 0.1340000033378601 221 190 190
0.07247379422187805 -0.012206190265715122 0.1340000033378601 212 182 166
0.07224567979574203 -0.012115099467337132 0.13300000131130219 204 174 158
0.07255841046571732 -0.012115099467337132 0.13300000131130219 245 233 206
0.0728711485862732 -0.012115099467337132 0.13300000131130219 255 254 227
0.07318388670682907 -0.012115099467337132 0.13300000131130219 255 255 239
0.07349661737680435 -0.012115099467337132 0.13300000131130219 255 255 239
0.07380935549736023 -0.012115099467337132 0.13300000131130219 254 255 249
0.07356478273868561 -0.01202400866895914 0.13199999928474426 252 253 247
0.07387516647577286 -0.01202400866895914 0.13199999928474426 230 224 228
0.07418555021286011 -0.01202400866895914 0.13199999928474426 221 215 219
0.07449593394994736 -0.01202400866895914 0.13199999928474426 224 207 223
0.0748063176870346 -0.01202400866895914 0.13199999928474426 224 207 223
0.07454763352870941 -0.01193291787058115 0.13099999725818634 228 206 224
0.07485567033290863 -0.01193291787058115 0.13099999725818634 234 212 230
0.07516369968652725 -0.01193291787058115 0.13099999725818634 242 228 239
0.07547173649072647 -0.01193291787058115 0.13099999725818634 255 248 255
0.07577976584434509 -0.01193291787058115 0.13099999725818634 255 251 255
0.07608779519796371 -0.01193291787058115 0.13099999725818634 246 241 249
0.07639583200216293 -0.01193291787058115 0.13099999725818634 238 226 241
0.07670386135578156 -0.01193291787058115 0.13099999725818634 216 204 219
0.07701189815998077 -0.01193291787058115 0.13099999725818634 216 192 211
0.0773199275135994 -0.01193291787058115 0.13099999725818634 202 178 197
0.07886946946382523 -0.011841826140880585 0.12999999523162842 201 187 198
0.08192627876996994 -0.011841826140880585 0.12999999523162842 207 171 171
0.08223196119070053 -0.011841826140880585 0.12999999523162842 213 177 177
0.05468839034438133 -0.013577155768871307 0.15299999713897705 253 71 47
0.055407945066690445 -0.013665894977748394 0.15399999916553497 255 79 55
0.05577005818486214 -0.013665894977748394 0.15399999916553497 243 59 36
0.056861162185668945 -0.013843374326825142 0.15600000321865082 244 60 37
0.057227980345487595 -0.013843374326825142 0.15600000321865082 248 57 34
0.05722559988498688 -0.013754635117948055 0.1550000011920929 255 64 41
0.0575900673866272 -0.013754635117948055 0.1550000011920929 245 56 33
0.05795453488826752 -0.013754635117948055 0.1550000011920929 253 64 41
0.05831899866461754 -0.013754635117948055 0.1550000011920929 250 67 48
0.058304861187934875 -0.013665894977748394 0.15399999916553497 255 73 54
0.058666978031396866 -0.013665894977748394 0.15399999916553497 232 49 32
0.058645784854888916 -0.013577155768871307 0.15299999713897705 232 49 32
0.05900555104017258 -0.013577155768871307 0.15299999713897705 244 59 43
0.05897730588912964 -0.013488415628671646 0.15199999511241913 251 66 50
0.05933471769094467 -0.013488415628671646 0.15199999511241913 249 59 45
0.059692129492759705 -0.013488415628671646 0.15199999511241913 247 57 43
0.06004954129457474 -0.013488415628671646 0.15199999511241913 246 57 45
0.060009539127349854 -0.01339967641979456 0.1509999930858612 232 43 31
0.06036459654569626 -0.01339967641979456 0.1509999930858612 255 108 102
0.06071965768933296 -0.01339967641979456 0.1509999930858612 255 126 120
0.061074718832969666 -0.01339967641979456 0.1509999930858612 255 131 129
0.06142977997660637 -0.01339967641979456 0.1509999930858612 255 131 129
0.06137567013502121 -0.013310937210917473 0.15000000596046448 253 132 130
0.061728376895189285 -0.013310937210917473 0.15000000596046448 254 133 131
0.06166721135377884 -0.013222197070717812 0.14900000393390656 251 131 134
0.061601344496011734 -0.013133457861840725 0.14800000190734863 251 131 134
0.06153077632188797 -0.013044717721641064 0.1469999998807907 254 138 142
0.06187643110752106 -0.013044717721641064 0.1469999998807907 255 141 145
0.061798807233572006 -0.012955978512763977 0.1459999978542328 255 146 149
0.062142107635736465 -0.012955978512763977 0.1459999978542328 251 138 141
0.062057431787252426 -0.01286723930388689 0.14499999582767487 248 140 137
0.062398381531238556 -0.01286723930388689 0.14499999582767487 233 125 122
0.06273933500051498 -0.01286723930388689 0.14499999582767487 212 110 100
0.06308028846979141 -0.01286723930388689 0.14499999582767487 219 117 107
0.06298384815454483 -0.01277849916368723 0.14399999380111694 255 176 168
0.06332245469093323 -0.01277849916368723 0.14399999380111694 255 197 189
0.06366105377674103 -0.01277849916368723 0.14399999380111694 255 225 218
0.06355521082878113 -0.012689759954810143 0.14300000667572021 255 237 230
0.0638914629817009 -0.012689759954810143 0.14300000667572021 255 253 245
0.06377856433391571 -0.012601020745933056 0.1420000046491623 255 253 245
0.06411246210336685 -0.012601020745933056 0.1420000046491623 254 255 249
0.064446359872818 -0.012601020745933056 0.1420000046491623 254 255 249
0.06432405859231949 -0.012512280605733395 0.14100000262260437 254 255 249
0.0646556094288826 -0.012512280605733395 0.14100000262260437 254 255 249
0.06498715281486511 -0.012512280605733395 0.14100000262260437 254 255 249
0.06531869620084763 -0.012512280605733395 0.14100000262260437 254 255 249
0.06565024703741074 -0.012512280605733395 0.14100000262260437 254 255 249
0.06551383435726166 -0.012423541396856308 0.14000000059604645 254 255 249
0.06584303081035614 -0.012423541396856308 0.14000000059604645 255 255 249
0.06617222726345062 -0.012423541396856308 0.14000000059604645 255 255 249
