0.07373414188623428 -0.017562666907906532 0.1340000033378601 253 179 189
0.07404922693967819 -0.017562666907906532 0.1340000033378601 239 165 175
0.0743643119931221 -0.017562666907906532 0.1340000033378601 231 156 171
0.07467939704656601 -0.017562666907906532 0.1340000033378601 232 157 172
0.07499448955059052 -0.017562666907906532 0.1340000033378601 225 151 161
0.07474756240844727 -0.017431601881980896 0.13300000131130219 220 146 156
0.07506029307842255 -0.017431601881980896 0.13300000131130219 227 153 158
0.07537303119897842 -0.017431601881980896 0.13300000131130219 219 145 150
0.0756857693195343 -0.017431601881980896 0.13300000131130219 211 141 145
0.07599849998950958 -0.017431601881980896 0.13300000131130219 223 153 157
0.07631123811006546 -0.017431601881980896 0.13300000131130219 208 147 150
0.07662397623062134 -0.017431601881980896 0.13300000131130219 203 142 145
0.07635823637247086 -0.01730053685605526 0.13199999928474426 201 140 143
0.0766686201095581 -0.01730053685605526 0.13199999928474426 201 140 143
0.07697900384664536 -0.01730053685605526 0.13199999928474426 196 133 137
0.0772893875837326 -0.01730053685605526 0.13199999928474426 201 138 142
0.07759977132081985 -0.01730053685605526 0.13199999928474426 203 141 142
0.0779101550579071 -0.01730053685605526 0.13199999928474426 202 140 141
0.07822053879499435 -0.01730053685605526 0.13199999928474426 197 135 136
0.0785309225320816 -0.01730053685605526 0.13199999928474426 195 133 134
0.07884130626916885 -0.01730053685605526 0.13199999928474426 196 134 135
0.0791516974568367 -0.01730053685605526 0.13199999928474426 196 134 135
0.07946208119392395 -0.01730053685605526 0.13199999928474426 196 128 134
0.08008284866809845 -0.01730053685605526 0.13199999928474426 184 110 113
0.08132435381412506 -0.017169471830129623 0.13099999725818634 191 120 111
0.08163238316774368 -0.017169471830129623 0.13099999725818634 209 138 129
0.0819404199719429 -0.017169471830129623 0.13099999725818634 208 142 136
0.08224844932556152 -0.017169471830129623 0.13099999725818634 206 140 134
0.08255648612976074 -0.017169471830129623 0.13099999725818634 203 138 136
0.08286451548337936 -0.017169471830129623 0.13099999725818634 197 132 130
0.08317255228757858 -0.017169471830129623 0.13099999725818634 183 123 121
0.0834805816411972 -0.017169471830129623 0.13099999725818634 188 128 126
0.08378861099481583 -0.017169471830129623 0.13099999725818634 179 119 117
0.08409664779901505 -0.017169471830129623 0.13099999725818634 178 118 116
0.08504898846149445 -0.01730053685605526 0.13199999928474426 181 120 114
0.0853593721985817 -0.01730053685605526 0.13199999928474426 180 119 113
0.08566975593566895 -0.01730053685605526 0.13199999928474426 181 120 112
0.0859801396727562 -0.01730053685605526 0.13199999928474426 180 119 111
0.08629052340984344 -0.01730053685605526 0.13199999928474426 180 121 112
0.0866009071469307 -0.01730053685605526 0.13199999928474426 178 119 110
0.058695364743471146 -0.020594123750925064 0.1599999964237213 253 128 137
0.05907158926129341 -0.020594123750925064 0.1599999964237213 253 128 137
0.05944781005382538 -0.020594123750925064 0.1599999964237213 247 124 132
0.059824034571647644 -0.020594123750925064 0.1599999964237213 255 136 144
0.059824004769325256 -0.020465411245822906 0.1589999943971634 253 132 140
0.06019787862896919 -0.020465411245822906 0.1589999943971634 255 144 152
0.06057174876332283 -0.020465411245822906 0.1589999943971634 255 143 149
0.060562316328287125 -0.02033669874072075 0.15800000727176666 254 138 144
0.06093383580446243 -0.02033669874072075 0.15800000727176666 255 147 153
0.06091734766960144 -0.020207984372973442 0.15700000524520874 255 140 146
0.06128651648759842 -0.020207984372973442 0.15700000524520874 252 133 140
0.05646561458706856 -0.017762431874871254 0.1379999965429306 248 100 117
0.05679010599851608 -0.017762431874871254 0.1379999965429306 251 103 120
0.057114601135253906 -0.017762431874871254 0.1379999965429306 255 103 119
0.05743909254670143 -0.017762431874871254 0.1379999965429306 243 91 107
0.057763583958148956 -0.017762431874871254 0.1379999965429306 253 93 112
0.05850900709629059 -0.01789114624261856 0.13899999856948853 240 80 99
0.05883584916591644 -0.01789114624261856 0.13899999856948853 240 74 92
0.0591626912355423 -0.01789114624261856 0.13899999856948853 250 84 102
0.05948953703045845 -0.01789114624261856 0.13899999856948853 251 81 96
0.06024671345949173 -0.01801985874772072 0.14000000059604645 242 72 87
0.06057590991258621 -0.01801985874772072 0.14000000059604645 250 79 92
0.060905102640390396 -0.01801985874772072 0.14000000059604645 247 76 89
0.06123429909348488 -0.01801985874772072 0.14000000059604645 255 84 95
0.062003232538700104 -0.018148573115468025 0.14100000262260437 251 80 91
0.06730075180530548 -0.017376292496919632 0.13500000536441803 238 125 128
0.06761819124221802 -0.017376292496919632 0.13500000536441803 244 131 134
0.06843885779380798 -0.01750500500202179 0.13600000739097595 245 134 136
0.06875864416360855 -0.01750500500202179 0.13600000739097595 247 136 138
0.06907843798398972 -0.01750500500202179 0.13600000739097595 245 136 138
0.06939822435379028 -0.01750500500202179 0.13600000739097595 247 138 140
0.06971801817417145 -0.01750500500202179 0.13600000739097595 233 126 131
0.07003780454397202 -0.01750500500202179 0.13600000739097595 242 135 140
0.07035759091377258 -0.01750500500202179 0.13600000739097595 235 135 142
0.07067738473415375 -0.01750500500202179 0.13600000739097595 222 122 129
0.07099717110395432 -0.01750500500202179 0.13600000739097595 209 116 121
0.07079257071018219 -0.017376292496919632 0.13500000536441803 197 104 109
0.07111001014709473 -0.017376292496919632 0.13500000536441803 192 101 108
0.07364951819181442 -0.017376292496919632 0.13500000536441803 226 151 143
0.07341904938220978 -0.017247579991817474 0.1340000033378601 242 167 159
0.07373414188623428 -0.017247579991817474 0.1340000033378601 255 182 187
0.07404922693967819 -0.017247579991817474 0.1340000033378601 252 179 184
0.0743643119931221 -0.017247579991817474 0.1340000033378601 238 164 174
0.07467939704656601 -0.017247579991817474 0.1340000033378601 230 156 166
0.07499448955059052 -0.017247579991817474 0.1340000033378601 233 159 164
0.07530957460403442 -0.017247579991817474 0.1340000033378601 232 158 163
0.07562465965747833 -0.017247579991817474 0.1340000033378601 234 161 166
0.07537303119897842 -0.017118865624070168 0.13300000131130219 230 157 162
0.0756857693195343 -0.017118865624070168 0.13300000131130219 212 144 150
0.07599849998950958 -0.017118865624070168 0.13300000131130219 221 153 159
0.07631123811006546 -0.017118865624070168 0.13300000131130219 218 155 159
0.07662397623062134 -0.017118865624070168 0.13300000131130219 211 148 152
0.07693670690059662 -0.017118865624070168 0.13300000131130219 206 143 147
0.0766686201095581 -0.01699015311896801 0.13199999928474426 202 139 143
0.07697900384664536 -0.01699015311896801 0.13199999928474426 199 136 140
0.0772893875837326 -0.01699015311896801 0.13199999928474426 199 136 140
0.07759977132081985 -0.01699015311896801 0.13199999928474426 204 138 143
0.0779101550579071 -0.01699015311896801 0.13199999928474426 205 139 144
0.07822053879499435 -0.01699015311896801 0.13199999928474426 201 135 140
0.0785309225320816 -0.01699015311896801 0.13199999928474426 199 133 138
0.07884130626916885 -0.01699015311896801 0.13199999928474426 201 135 140
0.0791516974568367 -0.01699015311896801 0.13199999928474426 200 134 139
0.07946208119392395 -0.01699015311896801 0.13199999928474426 200 132 140
0.0797724649310112 -0.01699015311896801 0.13199999928474426 191 123 131
0.08008284866809845 -0.01699015311896801 0.13199999928474426 182 108 116
0.08132435381412506 -0.016861438751220703 0.13099999725818634 189 118 111
0.08163238316774368 -0.016861438751220703 0.13099999725818634 202 131 124
0.0819404199719429 -0.016861438751220703 0.13099999725818634 206 140 136
0.08224844932556152 -0.016861438751220703 0.13099999725818634 207 141 137
0.08255648612976074 -0.016861438751220703 0.13099999725818634 209 142 143
0.08286451548337936 -0.016861438751220703 0.13099999725818634 199 132 133
0.08317255228757858 -0.016861438751220703 0.13099999725818634 185 120 122
0.0834805816411972 -0.016861438751220703 0.13099999725818634 183 118 120
0.08378861099481583 -0.016861438751220703 0.13099999725818634 182 117 117
0.08409664779901505 -0.016861438751220703 0.13099999725818634 183 118 118
0.08440467715263367 -0.016861438751220703 0.13099999725818634 184 120 115
0.0853593721985817 -0.01699015311896801 0.13199999928474426 183 119 114
0.08566975593566895 -0.01699015311896801 0.13199999928474426 183 119 112
0.0859801396727562 -0.01699015311896801 0.13199999928474426 183 119 112
0.08629052340984344 -0.01699015311896801 0.13199999928474426 182 121 113
0.0866009071469307 -0.01699015311896801 0.13199999928474426 180 119 111
0.08691129088401794 -0.01699015311896801 0.13199999928474426 179 120 113
0.0872216746211052 -0.01699015311896801 0.13199999928474426 178 119 112
0.08753206580877304 -0.01699015311896801 0.13199999928474426 174 116 116
0.058695364743471146 -0.020217901095747948 0.1599999964237213 248 120 128
0.05907158926129341 -0.020217901095747948 0.1599999964237213 255 128 136
0.05944781005382538 -0.020217901095747948 0.1599999964237213 254 129 136
0.059824034571647644 -0.020217901095747948 0.1599999964237213 255 131 138
0.06020025908946991 -0.020217901095747948 0.1599999964237213 254 131 137
0.06019787862896919 -0.02009153924882412 0.1589999943971634 255 137 143
0.06057174876332283 -0.02009153924882412 0.1589999943971634 255 136 142
0.060562316328287125 -0.01996517740190029 0.15800000727176666 245 124 130
0.06093383580446243 -0.01996517740190029 0.15800000727176666 255 142 147
0.06091734766960144 -0.019838815554976463 0.15700000524520874 255 140 145
0.06128651648759842 -0.019838815554976463 0.15700000524520874 254 129 138
0.0563669428229332 -0.017817026004195213 0.14100000262260437 250 105 119
0.056296370923519135 -0.017690664157271385 0.14000000059604645 245 100 114
0.05662556737661362 -0.017690664157271385 0.14000000059604645 252 103 118
0.056547943502664566 -0.017564302310347557 0.13899999856948853 250 101 116
0.05646561458706856 -0.01743794046342373 0.1379999965429306 255 103 119
0.05679010599851608 -0.01743794046342373 0.1379999965429306 254 102 118
0.057114601135253906 -0.01743794046342373 0.1379999965429306 250 96 108
0.05743909254670143 -0.01743794046342373 0.1379999965429306 252 98 110
0.058182161301374435 -0.017564302310347557 0.13899999856948853 249 87 99
0.05958832427859306 -0.017690664157271385 0.14000000059604645 255 87 100
0.059917520731687546 -0.017690664157271385 0.14000000059604645 249 79 90
0.06167168915271759 -0.017817026004195213 0.14100000262260437 247 77 83
0.06277687102556229 -0.01794338785111904 0.1420000046491623 245 79 86
0.06299787014722824 -0.017817026004195213 0.14100000262260437 242 83 90
0.06332942098379135 -0.017817026004195213 0.14100000262260437 239 80 87
0.06698331236839294 -0.017058854922652245 0.13500000536441803 221 122 122
0.06730075180530548 -0.017058854922652245 0.13500000536441803 236 129 134
0.06811906397342682 -0.017185216769576073 0.13600000739097595 233 126 131
0.06843885779380798 -0.017185216769576073 0.13600000739097595 247 140 145
0.06875864416360855 -0.017185216769576073 0.13600000739097595 251 144 149
0.06907843798398972 -0.017185216769576073 0.13600000739097595 247 142 149
0.06939822435379028 -0.017185216769576073 0.13600000739097595 247 142 149
0.06971801817417145 -0.017185216769576073 0.13600000739097595 243 141 149
0.07003780454397202 -0.017185216769576073 0.13600000739097595 253 151 159
0.07035759091377258 -0.017185216769576073 0.13600000739097595 229 132 141
0.07067738473415375 -0.017185216769576073 0.13600000739097595 231 134 143
0.07099717110395432 -0.017185216769576073 0.13600000739097595 219 133 138
0.07079257071018219 -0.017058854922652245 0.13500000536441803 205 119 124
0.07111001014709473 -0.017058854922652245 0.13500000536441803 193 108 110
0.07333207875490189 -0.017058854922652245 0.13500000536441803 205 122 112
0.07364951819181442 -0.017058854922652245 0.13500000536441803 248 176 169
0.07396695762872696 -0.017058854922652245 0.13500000536441803 255 187 180
0.07373414188623428 -0.016932493075728416 0.1340000033378601 255 188 191
0.07404922693967819 -0.016932493075728416 0.1340000033378601 237 170 173
0.0743643119931221 -0.016932493075728416 0.1340000033378601 236 162 170
0.07467939704656601 -0.016932493075728416 0.1340000033378601 232 158 166
0.07499448955059052 -0.016932493075728416 0.1340000033378601 237 163 166
0.07530957460403442 -0.016932493075728416 0.1340000033378601 235 161 164
0.07562465965747833 -0.016932493075728416 0.1340000033378601 230 160 164
0.07537303119897842 -0.01680613122880459 0.13300000131130219 231 161 165
0.0756857693195343 -0.01680613122880459 0.13300000131130219 226 160 165
0.07599849998950958 -0.01680613122880459 0.13300000131130219 215 149 154
0.07631123811006546 -0.01680613122880459 0.13300000131130219 225 162 166
0.07662397623062134 -0.01680613122880459 0.13300000131130219 215 152 156
0.07693670690059662 -0.01680613122880459 0.13300000131130219 208 142 147
0.0766686201095581 -0.01667976938188076 0.13199999928474426 207 141 146
0.07697900384664536 -0.01667976938188076 0.13199999928474426 200 134 139
0.0772893875837326 -0.01667976938188076 0.13199999928474426 203 137 142
0.07759977132081985 -0.01667976938188076 0.13199999928474426 206 138 144
0.0779101550579071 -0.01667976938188076 0.13199999928474426 205 137 143
0.07822053879499435 -0.01667976938188076 0.13199999928474426 198 132 137
0.0785309225320816 -0.01667976938188076 0.13199999928474426 200 134 139
0.07884130626916885 -0.01667976938188076 0.13199999928474426 206 140 147
0.0791516974568367 -0.01667976938188076 0.13199999928474426 211 145 152
0.07946208119392395 -0.01667976938188076 0.13199999928474426 201 133 141
0.0797724649310112 -0.01667976938188076 0.13199999928474426 194 126 134
0.08008284866809845 -0.01667976938188076 0.13199999928474426 185 113 125
0.0803932324051857 -0.01667976938188076 0.13199999928474426 185 113 125
0.08101632446050644 -0.016553407534956932 0.13099999725818634 186 115 106
0.08132435381412506 -0.016553407534956932 0.13099999725818634 185 117 109
0.08163238316774368 -0.016553407534956932 0.13099999725818634 193 125 117
0.0819404199719429 -0.016553407534956932 0.13099999725818634 205 138 139
0.08224844932556152 -0.016553407534956932 0.13099999725818634 202 135 136
0.08255648612976074 -0.016553407534956932 0.13099999725818634 204 137 140
0.08286451548337936 -0.016553407534956932 0.13099999725818634 201 134 137
0.08317255228757858 -0.016553407534956932 0.13099999725818634 197 130 133
0.0834805816411972 -0.016553407534956932 0.13099999725818634 182 115 118
0.08378861099481583 -0.016553407534956932 0.13099999725818634 182 115 118
0.08409664779901505 -0.016553407534956932 0.13099999725818634 186 119 122
0.08440467715263367 -0.016553407534956932 0.13099999725818634 186 120 116
0.08471271395683289 -0.016553407534956932 0.13099999725818634 185 119 115
0.08566975593566895 -0.01667976938188076 0.13199999928474426 185 119 113
0.0859801396727562 -0.01667976938188076 0.13199999928474426 184 118 112
0.08753206580877304 -0.01667976938188076 0.13199999928474426 174 118 122
0.05906221270561218 -0.01996568962931633 0.16099999845027924 251 126 133
0.05907158926129341 -0.01984167844057083 0.1599999964237213 255 135 142
0.05944781005382538 -0.01984167844057083 0.1599999964237213 255 133 141
0.059824034571647644 -0.01984167844057083 0.1599999964237213 255 128 136
0.06020025908946991 -0.01984167844057083 0.1599999964237213 254 129 136
0.06019787862896919 -0.019717667251825333 0.1589999943971634 255 131 138
0.06057174876332283 -0.019717667251825333 0.1589999943971634 254 129 136
0.0563669428229332 -0.0174854788929224 0.14100000262260437 243 94 109
0.056296370923519135 -0.017361469566822052 0.14000000059604645 250 101 116
0.05662556737661362 -0.017361469566822052 0.14000000059604645 254 99 116
0.056547943502664566 -0.017237458378076553 0.13899999856948853 247 92 109
0.05687478557229042 -0.017237458378076553 0.13899999856948853 243 84 98
0.057201631367206573 -0.017237458378076553 0.13899999856948853 250 91 105
0.05752847343683243 -0.017237458378076553 0.13899999856948853 243 85 94
0.05785531923174858 -0.017237458378076553 0.13899999856948853 252 94 103
0.058182161301374435 -0.017237458378076553 0.13899999856948853 252 90 98
0.0589299350976944 -0.017361469566822052 0.14000000059604645 249 87 95
0.05925912782549858 -0.017361469566822052 0.14000000059604645 247 83 85
0.05958832427859306 -0.017361469566822052 0.14000000059604645 250 86 88
0.06034550070762634 -0.0174854788929224 0.14100000262260437 251 82 86
0.060677047818899155 -0.0174854788929224 0.14100000262260437 246 77 81
0.06277687102556229 -0.0176094900816679 0.1420000046491623 255 101 108
0.06311076879501343 -0.0176094900816679 0.1420000046491623 252 94 101
0.06344466656446457 -0.0176094900816679 0.1420000046491623 255 111 116
0.06332942098379135 -0.0174854788929224 0.14100000262260437 255 109 114
0.06320947408676147 -0.017361469566822052 0.14000000059604645 251 111 109
0.06353866308927536 -0.017361469566822052 0.14000000059604645 244 104 102
0.0634116604924202 -0.017237458378076553 0.13899999856948853 230 98 89
0.066665880382061 -0.016741415485739708 0.13500000536441803 213 118 119
0.06698331236839294 -0.016741415485739708 0.13500000536441803 229 134 135
0.06779927760362625 -0.016865426674485207 0.13600000739097595 253 156 160
0.06811906397342682 -0.016865426674485207 0.13600000739097595 249 152 156
0.06843885779380798 -0.016865426674485207 0.13600000739097595 253 156 162
0.06875864416360855 -0.016865426674485207 0.13600000739097595 253 156 162
0.06907843798398972 -0.016865426674485207 0.13600000739097595 252 155 164
0.069908507168293 -0.016989437863230705 0.13699999451637268 252 155 164
0.06971801817417145 -0.016865426674485207 0.13600000739097595 255 164 174
0.07003780454397202 -0.016865426674485207 0.13600000739097595 254 160 170
0.07035759091377258 -0.016865426674485207 0.13600000739097595 239 153 160
0.07067738473415375 -0.016865426674485207 0.13600000739097595 235 149 156
0.07099717110395432 -0.016865426674485207 0.13600000739097595 236 157 162
0.07079257071018219 -0.016741415485739708 0.13500000536441803 226 147 152
0.07111001014709473 -0.016741415485739708 0.13500000536441803 197 118 123
0.07142744958400726 -0.016741415485739708 0.13500000536441803 193 114 119
0.07333207875490189 -0.016741415485739708 0.13500000536441803 224 142 132
0.07364951819181442 -0.016741415485739708 0.13500000536441803 255 196 193
0.07396695762872696 -0.016741415485739708 0.13500000536441803 255 204 201
0.07373414188623428 -0.01661740615963936 0.1340000033378601 255 202 207
0.07404922693967819 -0.01661740615963936 0.1340000033378601 255 190 195
0.0743643119931221 -0.01661740615963936 0.1340000033378601 254 181 186
0.07467939704656601 -0.01661740615963936 0.1340000033378601 252 179 184
0.07499448955059052 -0.01661740615963936 0.1340000033378601 239 165 168
0.07530957460403442 -0.01661740615963936 0.1340000033378601 237 163 166
0.07562465965747833 -0.01661740615963936 0.1340000033378601 227 157 161
0.07537303119897842 -0.01649339497089386 0.13300000131130219 234 164 168
0.0756857693195343 -0.01649339497089386 0.13300000131130219 220 154 159
0.07599849998950958 -0.01649339497089386 0.13300000131130219 225 159 164
0.07631123811006546 -0.01649339497089386 0.13300000131130219 232 169 173
0.07662397623062134 -0.01649339497089386 0.13300000131130219 212 149 153
0.07693670690059662 -0.01649339497089386 0.13300000131130219 205 142 146
0.0766686201095581 -0.01636938564479351 0.13199999928474426 211 148 152
0.07697900384664536 -0.01636938564479351 0.13199999928474426 205 140 142
0.0772893875837326 -0.01636938564479351 0.13199999928474426 207 142 144
0.07759977132081985 -0.01636938564479351 0.13199999928474426 209 142 145
0.0779101550579071 -0.01636938564479351 0.13199999928474426 215 148 151
0.07822053879499435 -0.01636938564479351 0.13199999928474426 205 139 144
0.0785309225320816 -0.01636938564479351 0.13199999928474426 215 149 154
0.07884130626916885 -0.01636938564479351 0.13199999928474426 212 146 153
0.0791516974568367 -0.01636938564479351 0.13199999928474426 225 159 166
0.0788600891828537 -0.016245374456048012 0.13099999725818634 212 143 154
0.07916812598705292 -0.016245374456048012 0.13099999725818634 202 133 144
0.07947615534067154 -0.016245374456048012 0.13099999725818634 190 121 134
0.07978419214487076 -0.016245374456048012 0.13099999725818634 191 122 135
0.08101632446050644 -0.016245374456048012 0.13099999725818634 182 114 106
0.08132435381412506 -0.016245374456048012 0.13099999725818634 189 124 115
0.08163238316774368 -0.016245374456048012 0.13099999725818634 200 135 126
0.0819404199719429 -0.016245374456048012 0.13099999725818634 208 143 143
0.08224844932556152 -0.016245374456048012 0.13099999725818634 208 143 143
0.08255648612976074 -0.016245374456048012 0.13099999725818634 211 145 150
0.08286451548337936 -0.016245374456048012 0.13099999725818634 215 149 154
0.08317255228757858 -0.016245374456048012 0.13099999725818634 200 132 138
0.0834805816411972 -0.016245374456048012 0.13099999725818634 186 118 124
0.08378861099481583 -0.016245374456048012 0.13099999725818634 180 113 116
0.08409664779901505 -0.016245374456048012 0.13099999725818634 186 119 122
0.08440467715263367 -0.016245374456048012 0.13099999725818634 189 122 123
0.08471271395683289 -0.016245374456048012 0.13099999725818634 185 118 119
0.08502074331045151 -0.016245374456048012 0.13099999725818634 183 119 114
0.0859801396727562 -0.01636938564479351 0.13199999928474426 181 117 112
0.08629052340984344 -0.01636938564479351 0.13199999928474426 190 131 124
0.0866009071469307 -0.01636938564479351 0.13199999928474426 179 120 113
0.08686894178390503 -0.016245374456048012 0.13099999725818634 167 116 118
0.08748500794172287 -0.016245374456048012 0.13099999725818634 172 121 123
0.05906221270561218 -0.019587114453315735 0.16099999845027924 241 117 121
0.05944078415632248 -0.019587114453315735 0.16099999845027924 244 120 124
0.05944781005382538 -0.019465455785393715 0.1599999964237213 246 122 126
0.059824034571647644 -0.019465455785393715 0.1599999964237213 242 118 122
0.06020025908946991 -0.019465455785393715 0.1599999964237213 252 128 132
0.05669848993420601 -0.01715393178164959 0.14100000262260437 251 95 108
0.05703003704547882 -0.01715393178164959 0.14100000262260437 249 90 104
0.0569547638297081 -0.01703227311372757 0.14000000059604645 246 87 101
0.05728395655751228 -0.01703227311372757 0.14000000059604645 246 84 96
0.057613153010606766 -0.01703227311372757 0.14000000059604645 250 88 100
0.05794234946370125 -0.01703227311372757 0.14000000059604645 244 83 88
0.05827154219150543 -0.01703227311372757 0.14000000059604645 250 89 94
0.058600738644599915 -0.01703227311372757 0.14000000059604645 255 95 93
0.059350863099098206 -0.01715393178164959 0.14100000262260437 248 88 86
0.06254646182060242 -0.01739725098013878 0.14300000667572021 239 82 86
0.06288271397352219 -0.01739725098013878 0.14300000667572021 255 107 111
0.06321895867586136 -0.01739725098013878 0.14300000667572021 255 115 122
0.06355521082878113 -0.01739725098013878 0.14300000667572021 255 110 117
0.06344466656446457 -0.01727559231221676 0.1420000046491623 255 118 127
0.06377856433391571 -0.01727559231221676 0.1420000046491623 255 123 132
0.06366096436977386 -0.01715393178164959 0.14100000262260437 255 122 125
0.06353866308927536 -0.01703227311372757 0.14000000059604645 245 110 113
0.06386785954236984 -0.01703227311372757 0.14000000059604645 245 114 112
0.06373850256204605 -0.01691061444580555 0.13899999856948853 236 105 103
0.0640653520822525 -0.01691061444580555 0.13899999856948853 222 103 99
0.06392893940210342 -0.01678895577788353 0.1379999965429306 215 96 92
0.06683991104364395 -0.01654563657939434 0.13600000739097595 211 116 113
0.06715969741344452 -0.01654563657939434 0.13600000739097595 243 151 151
0.06747949123382568 -0.01654563657939434 0.13600000739097595 255 166 166
0.06779927760362625 -0.01654563657939434 0.13600000739097595 255 170 172
0.06811906397342682 -0.01654563657939434 0.13600000739097595 255 171 173
0.06843885779380798 -0.01654563657939434 0.13600000739097595 254 168 173
0.06926422566175461 -0.01666729710996151 0.13699999451637268 255 170 175
0.0695863664150238 -0.01666729710996151 0.13699999451637268 252 167 174
0.069908507168293 -0.01666729710996151 0.13699999451637268 255 171 178
0.06971801817417145 -0.01654563657939434 0.13600000739097595 253 168 177
0.07003780454397202 -0.01654563657939434 0.13600000739097595 251 166 175
0.07035759091377258 -0.01654563657939434 0.13600000739097595 250 171 178
0.07067738473415375 -0.01654563657939434 0.13600000739097595 247 168 175
0.07099717110395432 -0.01654563657939434 0.13600000739097595 244 167 173
0.07079257071018219 -0.01642397791147232 0.13500000536441803 237 160 166
0.07111001014709473 -0.01642397791147232 0.13500000536441803 215 136 141
0.07142744958400726 -0.01642397791147232 0.13500000536441803 198 119 124
0.0717448890209198 -0.01642397791147232 0.13500000536441803 194 113 112
0.07333207875490189 -0.01642397791147232 0.13500000536441803 233 151 141
0.07310396432876587 -0.0163023192435503 0.1340000033378601 255 202 201
0.07341904938220978 -0.0163023192435503 0.1340000033378601 255 200 199
0.07373414188623428 -0.0163023192435503 0.1340000033378601 255 201 210
0.07404922693967819 -0.0163023192435503 0.1340000033378601 254 190 199
0.0743643119931221 -0.0163023192435503 0.1340000033378601 252 180 192
0.07467939704656601 -0.0163023192435503 0.1340000033378601 249 177 189
0.07499448955059052 -0.0163023192435503 0.1340000033378601 244 170 173
0.07530957460403442 -0.0163023192435503 0.1340000033378601 251 177 180
0.07562465965747833 -0.0163023192435503 0.1340000033378601 222 155 156
0.07537303119897842 -0.01618066057562828 0.13300000131130219 233 166 167
0.0756857693195343 -0.01618066057562828 0.13300000131130219 227 164 168
0.07599849998950958 -0.01618066057562828 0.13300000131130219 226 163 167
0.07631123811006546 -0.01618066057562828 0.13300000131130219 227 164 170
0.07662397623062134 -0.01618066057562828 0.13300000131130219 227 164 170
0.07693670690059662 -0.01618066057562828 0.13300000131130219 216 157 162
0.0766686201095581 -0.01605900004506111 0.13199999928474426 213 154 159
0.07697900384664536 -0.01605900004506111 0.13199999928474426 210 151 154
0.0772893875837326 -0.01605900004506111 0.13199999928474426 216 157 160
0.07759977132081985 -0.01605900004506111 0.13199999928474426 218 158 158
0.0779101550579071 -0.01605900004506111 0.13199999928474426 216 156 156
0.07762796431779861 -0.01593734137713909 0.13099999725818634 203 143 143
0.07793599367141724 -0.01593734137713909 0.13099999725818634 210 150 150
0.07824403047561646 -0.01593734137713909 0.13099999725818634 212 149 155
0.07855205982923508 -0.01593734137713909 0.13099999725818634 217 154 160
0.0788600891828537 -0.01593734137713909 0.13099999725818634 207 140 154
0.07916812598705292 -0.01593734137713909 0.13099999725818634 207 140 154
0.07947615534067154 -0.01593734137713909 0.13099999725818634 198 131 143
0.07978419214487076 -0.01593734137713909 0.13099999725818634 192 125 137
0.08009222149848938 -0.01593734137713909 0.13099999725818634 183 115 123
0.08101632446050644 -0.01593734137713909 0.13099999725818634 186 120 114
0.08132435381412506 -0.01593734137713909 0.13099999725818634 200 137 125
0.08163238316774368 -0.01593734137713909 0.13099999725818634 197 134 122
0.0819404199719429 -0.01593734137713909 0.13099999725818634 208 146 143
0.08224844932556152 -0.01593734137713909 0.13099999725818634 210 148 145
0.08255648612976074 -0.01593734137713909 0.13099999725818634 212 151 154
0.08286451548337936 -0.01593734137713909 0.13099999725818634 207 146 149
0.08317255228757858 -0.01593734137713909 0.13099999725818634 195 132 138
0.0834805816411972 -0.01593734137713909 0.13099999725818634 194 131 137
0.08378861099481583 -0.01593734137713909 0.13099999725818634 186 121 123
0.08409664779901505 -0.01593734137713909 0.13099999725818634 186 121 123
0.08440467715263367 -0.01593734137713909 0.13099999725818634 184 119 119
0.08471271395683289 -0.01593734137713909 0.13099999725818634 184 119 119
0.08502074331045151 -0.01593734137713909 0.13099999725818634 184 119 117
0.08532878011465073 -0.01593734137713909 0.13099999725818634 190 125 123
0.08563680946826935 -0.01593734137713909 0.13099999725818634 190 132 128
0.08594484627246857 -0.01593734137713909 0.13099999725818634 180 122 118
0.08625287562608719 -0.01593734137713909 0.13099999725818634 170 122 116
0.08656090497970581 -0.01593734137713909 0.13099999725818634 177 129 123
0.08686894178390503 -0.01593734137713909 0.13099999725818634 173 127 123
0.08717697113752365 -0.01593734137713909 0.13099999725818634 177 131 127
0.08748500794172287 -0.01593734137713909 0.13099999725818634 171 125 121
0.08779303729534149 -0.01593734137713909 0.13099999725818634 171 125 121
0.08810107409954071 -0.01593734137713909 0.13099999725818634 169 122 123
0.08840910345315933 -0.01593734137713909 0.13099999725818634 166 119 120
0.09187743812799454 -0.01605900004506111 0.13199999928474426 163 124 122
0.05906221270561218 -0.01920853927731514 0.16099999845027924 251 124 129
0.05944078415632248 -0.01920853927731514 0.16099999845027924 250 123 128
0.059819359332323074 -0.01920853927731514 0.16099999845027924 253 126 131
0.059824034571647644 -0.0190892331302166 0.1599999964237213 247 120 125
0.06020025908946991 -0.0190892331302166 0.1599999964237213 250 123 128
0.06057647988200188 -0.0190892331302166 0.1599999964237213 254 127 132
0.05767916142940521 -0.01741892471909523 0.1459999978542328 244 88 101
0.05762505158782005 -0.01729961670935154 0.14499999582767487 245 89 102
0.05796600505709648 -0.01729961670935154 0.14499999582767487 245 83 93
0.057361580431461334 -0.016822386533021927 0.14100000262260437 254 89 98
0.057693127542734146 -0.016822386533021927 0.14100000262260437 254 88 93
0.05802467465400696 -0.016822386533021927 0.14100000262260437 255 89 94
0.05835622176527977 -0.016822386533021927 0.14100000262260437 246 81 81
0.062210213392972946 -0.01706100068986416 0.14300000667572021 244 85 76
0.06254646182060242 -0.01706100068986416 0.14300000667572021 255 109 111
0.06288271397352219 -0.01706100068986416 0.14300000667572021 255 110 112
0.06321895867586136 -0.01706100068986416 0.14300000667572021 254 119 120
0.06355521082878113 -0.01706100068986416 0.14300000667572021 255 120 121
0.0638914629817009 -0.01706100068986416 0.14300000667572021 254 122 127
0.06377856433391571 -0.016941694542765617 0.1420000046491623 252 120 125
0.06366096436977386 -0.016822386533021927 0.14100000262260437 250 118 125
0.06399251520633698 -0.016822386533021927 0.14100000262260437 243 111 118
0.06432405859231949 -0.016822386533021927 0.14100000262260437 250 123 128
0.06373850256204605 -0.016583770513534546 0.13899999856948853 244 117 122
0.0640653520822525 -0.016583770513534546 0.13899999856948853 238 118 121
0.06439219415187836 -0.016583770513534546 0.13899999856948853 233 113 116
0.06425343453884125 -0.016464462503790855 0.1379999965429306 211 103 111
0.06683991104364395 -0.016225848346948624 0.13600000739097595 241 149 145
0.06715969741344452 -0.016225848346948624 0.13600000739097595 255 168 170
0.06747949123382568 -0.016225848346948624 0.13600000739097595 255 169 171
0.06829780340194702 -0.016345154494047165 0.13699999451637268 249 171 171
0.06861994415521622 -0.016345154494047165 0.13699999451637268 255 177 177
0.06894208490848541 -0.016345154494047165 0.13699999451637268 255 178 184
0.06926422566175461 -0.016345154494047165 0.13699999451637268 254 177 183
0.0695863664150238 -0.016345154494047165 0.13699999451637268 251 176 184
0.069908507168293 -0.016345154494047165 0.13699999451637268 255 180 188
0.06971801817417145 -0.016225848346948624 0.13600000739097595 255 180 188
0.07003780454397202 -0.016225848346948624 0.13600000739097595 255 183 191
0.07035759091377258 -0.016225848346948624 0.13600000739097595 255 185 192
0.07067738473415375 -0.016225848346948624 0.13600000739097595 250 179 186
0.07099717110395432 -0.016225848346948624 0.13600000739097595 255 183 191
0.07079257071018219 -0.016106540337204933 0.13500000536441803 241 166 174
0.07111001014709473 -0.016106540337204933 0.13500000536441803 232 155 161
0.07142744958400726 -0.016106540337204933 0.13500000536441803 215 138 144
0.0717448890209198 -0.016106540337204933 0.13500000536441803 212 131 130
0.07333207875490189 -0.016106540337204933 0.13500000536441803 244 162 152
0.07310396432876587 -0.015987232327461243 0.1340000033378601 255 206 207
0.07341904938220978 -0.015987232327461243 0.1340000033378601 255 215 216
0.07373414188623428 -0.015987232327461243 0.1340000033378601 255 203 217
0.07404922693967819 -0.015987232327461243 0.1340000033378601 242 184 198
0.0743643119931221 -0.015987232327461243 0.1340000033378601 248 179 194
0.07467939704656601 -0.015987232327461243 0.1340000033378601 243 174 189
0.07499448955059052 -0.015987232327461243 0.1340000033378601 240 166 174
0.07530957460403442 -0.015987232327461243 0.1340000033378601 251 177 185
0.07562465965747833 -0.015987232327461243 0.1340000033378601 240 172 178
0.07537303119897842 -0.015867924317717552 0.13300000131130219 248 180 186
0.0756857693195343 -0.015867924317717552 0.13300000131130219 237 176 181
0.07599849998950958 -0.015867924317717552 0.13300000131130219 224 163 168
0.07631123811006546 -0.015867924317717552 0.13300000131130219 219 159 167
0.07662397623062134 -0.015867924317717552 0.13300000131130219 220 160 168
0.07693670690059662 -0.015867924317717552 0.13300000131130219 226 169 178
0.0766686201095581 -0.01574861630797386 0.13199999928474426 212 155 164
0.07697900384664536 -0.01574861630797386 0.13199999928474426 208 152 154
0.0772893875837326 -0.01574861630797386 0.13199999928474426 207 151 153
0.07759977132081985 -0.01574861630797386 0.13199999928474426 207 151 153
0.0773199275135994 -0.01562930829823017 0.13099999725818634 208 152 154
0.07762796431779861 -0.01562930829823017 0.13099999725818634 210 151 156
0.07793599367141724 -0.01562930829823017 0.13099999725818634 210 151 156
0.07824403047561646 -0.01562930829823017 0.13099999725818634 213 153 163
0.07855205982923508 -0.01562930829823017 0.13099999725818634 213 153 163
0.0788600891828537 -0.01562930829823017 0.13099999725818634 203 143 155
0.07916812598705292 -0.01562930829823017 0.13099999725818634 201 141 153
0.07947615534067154 -0.01562930829823017 0.13099999725818634 219 155 168
0.07978419214487076 -0.01562930829823017 0.13099999725818634 205 141 154
0.08009222149848938 -0.01562930829823017 0.13099999725818634 192 125 135
0.08101632446050644 -0.01562930829823017 0.13099999725818634 184 117 116
0.08132435381412506 -0.01562930829823017 0.13099999725818634 196 135 127
0.08163238316774368 -0.01562930829823017 0.13099999725818634 193 132 124
0.0819404199719429 -0.01562930829823017 0.13099999725818634 203 143 139
0.08162060379981995 -0.015510001219809055 0.12999999523162842 209 149 145
0.08192627876996994 -0.015510001219809055 0.12999999523162842 206 150 152
0.08223196119070053 -0.015510001219809055 0.12999999523162842 203 147 149
0.08253764361143112 -0.015510001219809055 0.12999999523162842 196 135 140
0.08284332603216171 -0.015510001219809055 0.12999999523162842 195 134 139
0.0831490084528923 -0.015510001219809055 0.12999999523162842 194 133 136
0.0834546908736229 -0.015510001219809055 0.12999999523162842 189 128 131
0.08440467715263367 -0.01562930829823017 0.13099999725818634 186 125 128
0.08471271395683289 -0.01562930829823017 0.13099999725818634 183 122 125
0.08502074331045151 -0.01562930829823017 0.13099999725818634 187 127 127
0.08532878011465073 -0.01562930829823017 0.13099999725818634 183 123 123
0.08563680946826935 -0.01562930829823017 0.13099999725818634 173 115 115
0.08594484627246857 -0.01562930829823017 0.13099999725818634 184 126 126
0.08625287562608719 -0.01562930829823017 0.13099999725818634 177 131 127
0.08656090497970581 -0.01562930829823017 0.13099999725818634 173 127 123
0.08686894178390503 -0.01562930829823017 0.13099999725818634 169 128 122
0.08717697113752365 -0.01562930829823017 0.13099999725818634 163 122 116
0.08748500794172287 -0.01562930829823017 0.13099999725818634 167 126 120
0.08779303729534149 -0.01562930829823017 0.13099999725818634 163 122 116
0.08840910345315933 -0.01562930829823017 0.13099999725818634 163 121 118
0.08871713280677795 -0.01562930829823017 0.13099999725818634 170 123 124
0.09094628691673279 -0.01574861630797386 0.13199999928474426 170 122 118
0.09156705439090729 -0.01574861630797386 0.13199999928474426 165 124 118
0.09187743812799454 -0.01574861630797386 0.13199999928474426 165 123 122
0.05906221270561218 -0.018829965963959694 0.16099999845027924 250 120 126
0.05944078415632248 -0.018829965963959694 0.16099999845027924 250 120 126
0.059819359332323074 -0.018829965963959694 0.16099999845027924 251 121 127
0.059824034571647644 -0.018713008612394333 0.1599999964237213 249 119 125
0.06020025908946991 -0.018713008612394333 0.1599999964237213 252 122 128
0.06057647988200188 -0.018713008612394333 0.1599999964237213 255 132 138
0.05664925277233124 -0.017075620591640472 0.1459999978542328 248 96 112
0.056992556899785995 -0.017075620591640472 0.1459999978542328 252 93 109
0.056943148374557495 -0.01695866510272026 0.14499999582767487 247 88 104
0.05728410184383392 -0.01695866510272026 0.14499999582767487 244 82 92
0.057227637618780136 -0.0168417077511549 0.14399999380111694 252 90 100
0.057566240429878235 -0.0168417077511549 0.14399999380111694 245 79 86
0.05851146951317787 -0.016724752262234688 0.14300000667572021 255 90 89
0.06264524906873703 -0.0168417077511549 0.14399999380111694 255 108 98
0.06298384815454483 -0.0168417077511549 0.14399999380111694 255 117 116
0.06332245469093323 -0.0168417077511549 0.14399999380111694 255 126 125
0.06366105377674103 -0.0168417077511549 0.14399999380111694 255 132 128
0.06355521082878113 -0.016724752262234688 0.14300000667572021 255 134 130
0.0638914629817009 -0.016724752262234688 0.14300000667572021 255 137 138
0.06377856433391571 -0.016607794910669327 0.1420000046491623 255 137 138
0.06411246210336685 -0.016607794910669327 0.1420000046491623 255 135 138
0.064446359872818 -0.016607794910669327 0.1420000046491623 247 125 128
0.06432405859231949 -0.016490839421749115 0.14100000262260437 250 127 133
0.06419705599546432 -0.016373883932828903 0.14000000059604645 250 127 133
0.06452625244855881 -0.016373883932828903 0.14000000059604645 241 125 131
0.06439219415187836 -0.016256926581263542 0.13899999856948853 245 129 135
0.06471903622150421 -0.016256926581263542 0.13899999856948853 213 111 119
0.06457792222499847 -0.01613997109234333 0.1379999965429306 214 112 120
0.06700924038887024 -0.01602301374077797 0.13699999451637268 209 121 113
0.06733138114213943 -0.01602301374077797 0.13699999451637268 255 169 161
0.06765352189540863 -0.01602301374077797 0.13699999451637268 255 186 185
0.06797566264867783 -0.01602301374077797 0.13699999451637268 255 186 185
0.06829780340194702 -0.01602301374077797 0.13699999451637268 250 183 186
0.06861994415521622 -0.01602301374077797 0.13699999451637268 255 191 194
0.06894208490848541 -0.01602301374077797 0.13699999451637268 255 198 209
0.06926422566175461 -0.01602301374077797 0.13699999451637268 255 191 202
0.0695863664150238 -0.01602301374077797 0.13699999451637268 251 187 200
0.069908507168293 -0.01602301374077797 0.13699999451637268 251 187 200
0.06971801817417145 -0.015906058251857758 0.13600000739097595 255 198 208
0.07003780454397202 -0.015906058251857758 0.13600000739097595 255 201 211
0.07035759091377258 -0.015906058251857758 0.13600000739097595 255 195 205
0.07067738473415375 -0.015906058251857758 0.13600000739097595 251 191 201
0.07099717110395432 -0.015906058251857758 0.13600000739097595 255 193 203
0.07079257071018219 -0.015789100900292397 0.13500000536441803 254 187 197
0.07111001014709473 -0.015789100900292397 0.13500000536441803 221 151 155
0.07142744958400726 -0.015789100900292397 0.13500000536441803 224 154 158
0.0717448890209198 -0.015789100900292397 0.13500000536441803 230 154 151
0.07206232845783234 -0.015789100900292397 0.13500000536441803 206 130 127
0.07278887927532196 -0.015672145411372185 0.1340000033378601 255 176 169
0.07310396432876587 -0.015672145411372185 0.1340000033378601 255 220 219
0.07341904938220978 -0.015672145411372185 0.1340000033378601 255 219 218
0.07373414188623428 -0.015672145411372185 0.1340000033378601 255 213 223
0.07404922693967819 -0.015672145411372185 0.1340000033378601 255 215 225
0.0743643119931221 -0.015672145411372185 0.1340000033378601 255 194 210
0.07467939704656601 -0.015672145411372185 0.1340000033378601 245 180 196
0.07499448955059052 -0.015672145411372185 0.1340000033378601 241 173 181
0.07530957460403442 -0.015672145411372185 0.1340000033378601 244 176 184
0.07506029307842255 -0.015555188991129398 0.13300000131130219 238 172 179
0.07537303119897842 -0.015555188991129398 0.13300000131130219 239 173 180
0.0756857693195343 -0.015555188991129398 0.13300000131130219 237 175 183
0.07599849998950958 -0.015555188991129398 0.13300000131130219 240 178 186
0.07631123811006546 -0.015555188991129398 0.13300000131130219 238 181 188
0.07662397623062134 -0.015555188991129398 0.13300000131130219 229 172 179
0.07693670690059662 -0.015555188991129398 0.13300000131130219 227 172 180
0.0766686201095581 -0.015438232570886612 0.13199999928474426 216 161 169
0.07697900384664536 -0.015438232570886612 0.13199999928474426 211 160 162
0.0772893875837326 -0.015438232570886612 0.13199999928474426 202 151 153
0.07701189815998077 -0.015321276150643826 0.13099999725818634 204 150 151
0.0773199275135994 -0.015321276150643826 0.13099999725818634 198 144 145
0.07762796431779861 -0.015321276150643826 0.13099999725818634 198 144 147
0.07793599367141724 -0.015321276150643826 0.13099999725818634 216 162 165
0.07824403047561646 -0.015321276150643826 0.13099999725818634 209 154 164
0.07855205982923508 -0.015321276150643826 0.13099999725818634 212 157 167
0.0788600891828537 -0.015321276150643826 0.13099999725818634 216 163 175
0.07916812598705292 -0.015321276150643826 0.13099999725818634 211 158 170
0.07947615534067154 -0.015321276150643826 0.13099999725818634 213 156 167
0.07978419214487076 -0.015321276150643826 0.13099999725818634 193 136 147
0.08009222149848938 -0.015321276150643826 0.13099999725818634 195 131 142
0.0804002583026886 -0.015321276150643826 0.13099999725818634 189 125 136
0.08101632446050644 -0.015321276150643826 0.13099999725818634 181 119 118
0.08070355653762817 -0.015204319730401039 0.12999999523162842 186 127 120
0.08100923895835876 -0.015204319730401039 0.12999999523162842 189 130 123
0.08131492137908936 -0.015204319730401039 0.12999999523162842 196 141 136
0.08162060379981995 -0.015204319730401039 0.12999999523162842 210 155 150
0.08192627876996994 -0.015204319730401039 0.12999999523162842 205 154 156
0.08223196119070053 -0.015204319730401039 0.12999999523162842 202 151 153
0.08253764361143112 -0.015204319730401039 0.12999999523162842 187 132 140
0.08284332603216171 -0.015204319730401039 0.12999999523162842 192 137 145
0.0831490084528923 -0.015204319730401039 0.12999999523162842 188 131 138
0.0834546908736229 -0.015204319730401039 0.12999999523162842 186 129 136
0.08376036584377289 -0.015204319730401039 0.12999999523162842 185 129 133
0.08406604826450348 -0.015204319730401039 0.12999999523162842 181 125 129
0.08502074331045151 -0.015321276150643826 0.13099999725818634 188 129 132
0.08532878011465073 -0.015321276150643826 0.13099999725818634 187 128 131
0.08563680946826935 -0.015321276150643826 0.13099999725818634 185 131 132
0.08594484627246857 -0.015321276150643826 0.13099999725818634 185 131 132
0.08625287562608719 -0.015321276150643826 0.13099999725818634 177 130 129
0.08656090497970581 -0.015321276150643826 0.13099999725818634 166 119 118
0.08686894178390503 -0.015321276150643826 0.13099999725818634 165 123 120
0.08717697113752365 -0.015321276150643826 0.13099999725818634 167 125 122
0.08748500794172287 -0.015321276150643826 0.13099999725818634 164 125 121
0.08779303729534149 -0.015321276150643826 0.13099999725818634 165 126 122
0.08840910345315933 -0.015321276150643826 0.13099999725818634 163 124 120
0.08871713280677795 -0.015321276150643826 0.13099999725818634 165 123 120
0.09187743812799454 -0.015438232570886612 0.13199999928474426 163 121 118
0.05906221270561218 -0.0184513907879591 0.16099999845027924 248 117 126
0.05944078415632248 -0.0184513907879591 0.16099999845027924 250 119 128
0.05638125166296959 -0.01696152798831463 0.14800000190734863 249 98 111
0.056345950812101364 -0.016846923157572746 0.1469999998807907 241 90 103
0.05669160559773445 -0.016846923157572746 0.1469999998807907 245 86 100
0.05664925277233124 -0.016732318326830864 0.1459999978542328 247 88 102
0.056992556899785995 -0.016732318326830864 0.1459999978542328 246 81 92
0.056943148374557495 -0.016617711633443832 0.14499999582767487 252 87 98
0.05728410184383392 -0.016617711633443832 0.14499999582767487 254 85 93
0.057227637618780136 -0.01650310680270195 0.14399999380111694 255 94 102
0.057566240429878235 -0.01650310680270195 0.14399999380111694 255 79 78
0.06264524906873703 -0.01650310680270195 0.14399999380111694 255 117 109
0.06298384815454483 -0.01650310680270195 0.14399999380111694 255 131 124
0.06332245469093323 -0.01650310680270195 0.14399999380111694 255 131 124
0.06366105377674103 -0.01650310680270195 0.14399999380111694 252 133 129
0.06355521082878113 -0.016388501971960068 0.14300000667572021 255 137 133
0.0638914629817009 -0.016388501971960068 0.14300000667572021 254 143 138
0.06422770768404007 -0.016388501971960068 0.14300000667572021 255 147 142
0.06411246210336685 -0.016273897141218185 0.1420000046491623 255 143 143
0.064446359872818 -0.016273897141218185 0.1420000046491623 244 132 132
0.06432405859231949 -0.016159292310476303 0.14100000262260437 245 132 135
0.06419705599546432 -0.01604468747973442 0.14000000059604645 255 144 147
0.06452625244855881 -0.01604468747973442 0.14000000059604645 243 133 142
0.06485544890165329 -0.01604468747973442 0.14000000059604645 247 137 146
0.06471903622150421 -0.01593008264899254 0.13899999856948853 214 114 121
0.06504587829113007 -0.01593008264899254 0.13899999856948853 225 125 132
0.06537272781133652 -0.01593008264899254 0.13899999856948853 214 118 124
0.06700924038887024 -0.015700872987508774 0.13699999451637268 232 148 143
0.06733138114213943 -0.015700872987508774 0.13699999451637268 255 183 178
0.06814733892679214 -0.015815477818250656 0.1379999965429306 255 192 192
0.06847183406352997 -0.015815477818250656 0.1379999965429306 255 198 198
0.06829780340194702 -0.015700872987508774 0.13699999451637268 250 198 203
0.06861994415521622 -0.015700872987508774 0.13699999451637268 253 201 206
0.06894208490848541 -0.015700872987508774 0.13699999451637268 253 202 213
0.06926422566175461 -0.015700872987508774 0.13699999451637268 252 201 212
0.0695863664150238 -0.015700872987508774 0.13699999451637268 247 198 211
0.069908507168293 -0.015700872987508774 0.13699999451637268 254 205 218
0.06971801817417145 -0.015586268156766891 0.13600000739097595 248 202 212
0.07003780454397202 -0.015586268156766891 0.13600000739097595 248 202 212
0.07035759091377258 -0.015586268156766891 0.13600000739097595 249 203 213
0.07067738473415375 -0.015586268156766891 0.13600000739097595 249 203 213
0.07099717110395432 -0.015586268156766891 0.13600000739097595 255 201 211
0.07079257071018219 -0.01547166332602501 0.13500000536441803 249 194 204
0.07111001014709473 -0.01547166332602501 0.13500000536441803 243 177 182
0.07142744958400726 -0.01547166332602501 0.13500000536441803 231 165 170
0.0717448890209198 -0.01547166332602501 0.13500000536441803 234 162 160
0.07206232845783234 -0.01547166332602501 0.13500000536441803 229 157 155
0.07278887927532196 -0.015357058495283127 0.1340000033378601 255 185 179
