0.027474040165543556 -0.0007238226244226098 0.1770000010728836 255 229 215
0.027890237048268318 -0.0007238226244226098 0.1770000010728836 204 146 132
0.029555024579167366 -0.0007238226244226098 0.1770000010728836 255 238 207
0.029971221461892128 -0.0007238226244226098 0.1770000010728836 255 255 227
0.03038741834461689 -0.0007238226244226098 0.1770000010728836 255 254 226
0.030803615227341652 -0.0007238226244226098 0.1770000010728836 255 254 232
0.031219812110066414 -0.0007238226244226098 0.1770000010728836 255 254 232
0.03163600713014603 -0.0007238226244226098 0.1770000010728836 255 254 234
0.03205220401287079 -0.0007238226244226098 0.1770000010728836 255 253 233
0.03246840089559555 -0.0007238226244226098 0.1770000010728836 255 252 231
0.03288459777832031 -0.0007238226244226098 0.1770000010728836 243 236 215
0.033300794661045074 -0.0007238226244226098 0.1770000010728836 249 240 223
0.033716991543769836 -0.0007238226244226098 0.1770000010728836 255 253 236
0.0341331884264946 -0.0007238226244226098 0.1770000010728836 249 226 223
0.03454938530921936 -0.0007238226244226098 0.1770000010728836 248 225 222
0.03496558219194412 -0.0007238226244226098 0.1770000010728836 255 225 226
0.035381779074668884 -0.0007238226244226098 0.1770000010728836 255 223 224
0.03600022569298744 -0.0007279120618477464 0.17800000309944153 255 198 205
0.03641877323389053 -0.0007279120618477464 0.17800000309944153 243 172 179
0.03934860974550247 -0.0007279120618477464 0.17800000309944153 255 199 203
0.03999056667089462 -0.000732001441065222 0.17900000512599945 255 207 211
0.04041146859526634 -0.000732001441065222 0.17900000512599945 251 199 208
0.04083236679434776 -0.000732001441065222 0.17900000512599945 255 212 221
0.041253264993429184 -0.000732001441065222 0.17900000512599945 249 186 201
0.0416741669178009 -0.000732001441065222 0.17900000512599945 233 170 185
0.042095065116882324 -0.000732001441065222 0.17900000512599945 255 187 200
0.010558397509157658 -0.0003250058798585087 0.18700000643730164 255 255 181
0.010939294472336769 -0.00032326788641512394 0.1860000044107437 255 255 180
0.011376653797924519 -0.00032326788641512394 0.1860000044107437 255 247 189
0.011750496923923492 -0.0003215298929717392 0.1850000023841858 255 247 189
0.012119636870920658 -0.0003197918995283544 0.18400000035762787 255 239 190
0.015411531552672386 -0.0003163158835377544 0.18199999630451202 255 249 208
0.015839485451579094 -0.0003163158835377544 0.18199999630451202 255 250 209
0.0162674393504858 -0.0003163158835377544 0.18199999630451202 255 255 233
0.016603659838438034 -0.00031457789009436965 0.1809999942779541 255 255 233
0.017029263079166412 -0.00031457789009436965 0.1809999942779541 255 255 237
0.01745486445724964 -0.00031457789009436965 0.1809999942779541 255 255 237
0.01788046769797802 -0.00031457789009436965 0.1809999942779541 255 255 231
0.018204931169748306 -0.0003128398966509849 0.18000000715255737 255 255 230
0.018628181889653206 -0.0003128398966509849 0.18000000715255737 255 252 216
0.019051432609558105 -0.0003128398966509849 0.18000000715255737 245 225 189
0.020629189908504486 -0.0003111019032076001 0.17900000512599945 255 244 211
0.021050089970231056 -0.0003111019032076001 0.17900000512599945 255 255 233
0.021470988169312477 -0.0003111019032076001 0.17900000512599945 255 255 233
0.021891888231039047 -0.0003111019032076001 0.17900000512599945 254 255 245
0.022312788292765617 -0.0003111019032076001 0.17900000512599945 254 255 245
0.022606683894991875 -0.0003093638806603849 0.17800000309944153 254 255 247
0.023025231435894966 -0.0003093638806603849 0.17800000309944153 254 255 247
0.023443778976798058 -0.0003093638806603849 0.17800000309944153 254 255 247
0.023862328380346298 -0.0003093638806603849 0.17800000309944153 254 255 247
0.02428087592124939 -0.0003093638806603849 0.17800000309944153 254 255 247
0.02469942346215248 -0.0003093638806603849 0.17800000309944153 254 255 247
0.025117972865700722 -0.0003093638806603849 0.17800000309944153 254 255 247
0.025536520406603813 -0.0003093638806603849 0.17800000309944153 254 255 247
0.02580925263464451 -0.0003076258872170001 0.1770000010728836 254 255 247
0.02622544951736927 -0.0003076258872170001 0.1770000010728836 254 255 247
0.026641646400094032 -0.0003076258872170001 0.1770000010728836 255 255 243
0.027057843282818794 -0.0003076258872170001 0.1770000010728836 255 255 243
0.027474040165543556 -0.0003076258872170001 0.1770000010728836 255 244 224
0.027890237048268318 -0.0003076258872170001 0.1770000010728836 221 187 167
0.029138827696442604 -0.0003076258872170001 0.1770000010728836 254 208 177
0.029555024579167366 -0.0003076258872170001 0.1770000010728836 255 244 213
0.029971221461892128 -0.0003076258872170001 0.1770000010728836 255 255 231
0.03038741834461689 -0.0003076258872170001 0.1770000010728836 255 255 231
0.030803615227341652 -0.0003076258872170001 0.1770000010728836 255 255 239
0.031219812110066414 -0.0003076258872170001 0.1770000010728836 255 255 239
0.03163600713014603 -0.0003076258872170001 0.1770000010728836 255 255 241
0.03205220401287079 -0.0003076258872170001 0.1770000010728836 255 255 241
0.03246840089559555 -0.0003076258872170001 0.1770000010728836 255 255 241
0.03288459777832031 -0.0003076258872170001 0.1770000010728836 255 255 240
0.033300794661045074 -0.0003076258872170001 0.1770000010728836 254 252 240
0.033716991543769836 -0.0003076258872170001 0.1770000010728836 255 255 243
0.0341331884264946 -0.0003076258872170001 0.1770000010728836 252 245 239
0.03454938530921936 -0.0003076258872170001 0.1770000010728836 252 245 239
0.03496558219194412 -0.0003076258872170001 0.1770000010728836 255 246 244
0.035381779074668884 -0.0003076258872170001 0.1770000010728836 255 246 244
0.03600022569298744 -0.0003093638806603849 0.17800000309944153 255 228 232
0.03641877323389053 -0.0003093638806603849 0.17800000309944153 255 211 215
0.03851151093840599 -0.0003093638806603849 0.17800000309944153 255 197 191
0.03893006220459938 -0.0003093638806603849 0.17800000309944153 255 219 213
0.03934860974550247 -0.0003093638806603849 0.17800000309944153 255 239 236
0.03976715728640556 -0.0003093638806603849 0.17800000309944153 255 234 231
0.04041146859526634 -0.0003111019032076001 0.17900000512599945 251 222 226
0.04083236679434776 -0.0003111019032076001 0.17900000512599945 255 235 239
0.041253264993429184 -0.0003111019032076001 0.17900000512599945 255 226 233
0.0416741669178009 -0.0003111019032076001 0.17900000512599945 255 220 227
0.042095065116882324 -0.0003111019032076001 0.17900000512599945 255 210 218
0.042515967041254044 -0.0003111019032076001 0.17900000512599945 253 185 193
0.04630406200885773 -0.0003111019032076001 0.17900000512599945 255 197 207
0.04672496020793915 -0.0003111019032076001 0.17900000512599945 255 205 215
0.04740924388170242 -0.0003128398966509849 0.18000000715255737 255 192 209
0.04783249646425247 -0.0003128398966509849 0.18000000715255737 253 185 202
0.048523835837841034 -0.00031457789009436965 0.1809999942779541 244 168 185
0.048949435353279114 -0.00031457789009436965 0.1809999942779541 252 176 193
0.010558397509157658 0.0001147048023995012 0.18700000643730164 255 255 194
0.010998107492923737 0.0001147048023995012 0.18700000643730164 255 255 195
0.011376653797924519 0.00011409141006879508 0.1860000044107437 255 255 217
0.011750496923923492 0.00011347801046213135 0.1850000023841858 255 255 218
0.012185504660010338 0.00011347801046213135 0.1850000023841858 255 254 218
0.012552293948829174 0.00011286461813142523 0.18400000035762787 255 253 217
0.014983577653765678 0.00011163782619405538 0.18199999630451202 255 223 186
0.015411531552672386 0.00011163782619405538 0.18199999630451202 255 255 227
0.015839485451579094 0.00011163782619405538 0.18199999630451202 255 255 227
0.0162674393504858 0.00011163782619405538 0.18199999630451202 254 255 239
0.01669539324939251 0.00011163782619405538 0.18199999630451202 254 255 239
0.017029263079166412 0.00011102443386334926 0.1809999942779541 254 255 245
0.01745486445724964 0.00011102443386334926 0.1809999942779541 254 255 245
0.01788046769797802 0.00011102443386334926 0.1809999942779541 254 255 243
0.018204931169748306 0.00011041104153264314 0.18000000715255737 253 255 242
0.018628181889653206 0.00011041104153264314 0.18000000715255737 255 255 230
0.019051432609558105 0.00011041104153264314 0.18000000715255737 255 255 230
0.019474683329463005 0.00011041104153264314 0.18000000715255737 237 209 181
0.019787389785051346 0.0001097976419259794 0.17900000512599945 190 162 134
0.020208289846777916 0.0001097976419259794 0.17900000512599945 255 239 214
0.020629189908504486 0.0001097976419259794 0.17900000512599945 255 250 225
0.021050089970231056 0.0001097976419259794 0.17900000512599945 255 255 241
0.021470988169312477 0.0001097976419259794 0.17900000512599945 255 255 241
0.021769586950540543 0.00010918424959527329 0.17800000309944153 254 255 249
0.022188134491443634 0.00010918424959527329 0.17800000309944153 254 255 249
0.022606683894991875 0.00010918424959527329 0.17800000309944153 254 255 249
0.023025231435894966 0.00010918424959527329 0.17800000309944153 254 255 249
0.023443778976798058 0.00010918424959527329 0.17800000309944153 254 255 251
0.023862328380346298 0.00010918424959527329 0.17800000309944153 254 255 251
0.02428087592124939 0.00010918424959527329 0.17800000309944153 254 255 249
0.02469942346215248 0.00010918424959527329 0.17800000309944153 254 255 249
0.024976860731840134 0.00010857085726456717 0.1770000010728836 254 255 249
0.025393057614564896 0.00010857085726456717 0.1770000010728836 254 255 249
0.02580925263464451 0.00010857085726456717 0.1770000010728836 254 255 249
0.02622544951736927 0.00010857085726456717 0.1770000010728836 254 255 249
0.026641646400094032 0.00010857085726456717 0.1770000010728836 254 255 247
0.027057843282818794 0.00010857085726456717 0.1770000010728836 254 255 247
0.027474040165543556 0.00010857085726456717 0.1770000010728836 255 251 231
0.027890237048268318 0.00010857085726456717 0.1770000010728836 255 235 215
0.029138827696442604 0.00010857085726456717 0.1770000010728836 255 239 210
0.029555024579167366 0.00010857085726456717 0.1770000010728836 255 248 219
0.029971221461892128 0.00010857085726456717 0.1770000010728836 255 255 237
0.03038741834461689 0.00010857085726456717 0.1770000010728836 255 255 237
0.030803615227341652 0.00010857085726456717 0.1770000010728836 254 255 245
0.031219812110066414 0.00010857085726456717 0.1770000010728836 254 255 245
0.03163600713014603 0.00010857085726456717 0.1770000010728836 254 255 245
0.03205220401287079 0.00010857085726456717 0.1770000010728836 254 255 245
0.03246840089559555 0.00010857085726456717 0.1770000010728836 254 255 247
0.03288459777832031 0.00010857085726456717 0.1770000010728836 254 255 247
0.033300794661045074 0.00010857085726456717 0.1770000010728836 254 255 249
0.033716991543769836 0.00010857085726456717 0.1770000010728836 254 255 249
0.0341331884264946 0.00010857085726456717 0.1770000010728836 255 255 249
0.03454938530921936 0.00010857085726456717 0.1770000010728836 252 252 246
0.03496558219194412 0.00010857085726456717 0.1770000010728836 250 247 242
0.035381779074668884 0.00010857085726456717 0.1770000010728836 255 253 248
0.035797975957393646 0.00010857085726456717 0.1770000010728836 255 248 245
0.03621417284011841 0.00010857085726456717 0.1770000010728836 255 237 234
0.036837320774793625 0.00010918424959527329 0.17800000309944153 246 170 169
0.03704656660556793 0.00010857085726456717 0.1770000010728836 189 113 112
0.0380929633975029 0.00010918424959527329 0.17800000309944153 255 197 187
0.03851151093840599 0.00010918424959527329 0.17800000309944153 255 240 226
0.03893006220459938 0.00010918424959527329 0.17800000309944153 255 243 229
0.03934860974550247 0.00010918424959527329 0.17800000309944153 255 251 243
0.03976715728640556 0.00010918424959527329 0.17800000309944153 255 251 243
0.040185704827308655 0.00010918424959527329 0.17800000309944153 255 249 247
0.04083236679434776 0.0001097976419259794 0.17900000512599945 255 251 249
0.041253264993429184 0.0001097976419259794 0.17900000512599945 255 244 244
0.0416741669178009 0.0001097976419259794 0.17900000512599945 255 246 246
0.042095065116882324 0.0001097976419259794 0.17900000512599945 255 225 233
0.042515967041254044 0.0001097976419259794 0.17900000512599945 255 216 224
0.04546226188540459 0.0001097976419259794 0.17900000512599945 255 195 203
0.04588316008448601 0.0001097976419259794 0.17900000512599945 255 215 223
0.04630406200885773 0.0001097976419259794 0.17900000512599945 255 215 224
0.04698599502444267 0.00011041104153264314 0.18000000715255737 255 211 220
0.04740924388170242 0.00011041104153264314 0.18000000715255737 255 222 237
0.048098232597112656 0.00011102443386334926 0.1809999942779541 255 220 235
0.048523835837841034 0.00011102443386334926 0.1809999942779541 255 206 223
0.049219876527786255 0.00011163782619405538 0.18199999630451202 247 186 203
0.010558397509157658 0.0005544155137613416 0.18700000643730164 255 255 211
0.010998107492923737 0.0005544155137613416 0.18700000643730164 255 255 213
0.011376653797924519 0.0005514507065527141 0.1860000044107437 255 255 233
0.011814013123512268 0.0005514507065527141 0.1860000044107437 255 255 233
0.012185504660010338 0.0005484858993440866 0.1850000023841858 255 255 233
0.012620512396097183 0.0005484858993440866 0.1850000023841858 255 255 233
0.012984950095415115 0.0005455211503431201 0.18400000035762787 255 253 220
0.013417607173323631 0.0005455211503431201 0.18400000035762787 252 238 205
0.013774990104138851 0.0005425563431344926 0.18299999833106995 249 203 172
0.014205295592546463 0.0005425563431344926 0.18299999833106995 212 166 135
0.0146356001496315 0.0005425563431344926 0.18299999833106995 211 180 153
0.014983577653765678 0.0005395915359258652 0.18199999630451202 255 247 220
0.015411531552672386 0.0005395915359258652 0.18199999630451202 255 255 241
0.015839485451579094 0.0005395915359258652 0.18199999630451202 255 255 241
0.0162674393504858 0.0005395915359258652 0.18199999630451202 254 255 247
0.016603659838438034 0.0005366267869248986 0.1809999942779541 254 255 247
0.017029263079166412 0.0005366267869248986 0.1809999942779541 254 255 247
0.01745486445724964 0.0005366267869248986 0.1809999942779541 254 255 247
0.01788046769797802 0.0005366267869248986 0.1809999942779541 254 255 247
0.018204931169748306 0.0005336619797162712 0.18000000715255737 254 255 247
0.018628181889653206 0.0005336619797162712 0.18000000715255737 255 255 243
0.019051432609558105 0.0005336619797162712 0.18000000715255737 255 255 243
0.019474683329463005 0.0005336619797162712 0.18000000715255737 255 245 228
0.019787389785051346 0.0005306971725076437 0.17900000512599945 208 194 177
0.020208289846777916 0.0005306971725076437 0.17900000512599945 246 233 220
0.020629189908504486 0.0005306971725076437 0.17900000512599945 255 252 239
0.021050089970231056 0.0005306971725076437 0.17900000512599945 254 255 245
0.02135103940963745 0.0005277323652990162 0.17800000309944153 254 255 245
0.021769586950540543 0.0005277323652990162 0.17800000309944153 254 255 249
0.022188134491443634 0.0005277323652990162 0.17800000309944153 254 255 249
0.022606683894991875 0.0005277323652990162 0.17800000309944153 254 255 249
0.023025231435894966 0.0005277323652990162 0.17800000309944153 254 255 249
0.023312073200941086 0.0005247676162980497 0.1770000010728836 254 255 251
0.023728270083665848 0.0005247676162980497 0.1770000010728836 254 255 251
0.02414446696639061 0.0005247676162980497 0.1770000010728836 254 255 251
0.02456066384911537 0.0005247676162980497 0.1770000010728836 254 255 251
0.024976860731840134 0.0005247676162980497 0.1770000010728836 254 255 251
0.025393057614564896 0.0005247676162980497 0.1770000010728836 254 255 251
0.02580925263464451 0.0005247676162980497 0.1770000010728836 254 255 251
0.02622544951736927 0.0005247676162980497 0.1770000010728836 254 255 251
0.026641646400094032 0.0005247676162980497 0.1770000010728836 254 255 249
0.027057843282818794 0.0005247676162980497 0.1770000010728836 254 255 249
0.027474040165543556 0.0005247676162980497 0.1770000010728836 255 254 237
0.027890237048268318 0.0005247676162980497 0.1770000010728836 255 246 229
0.02830643393099308 0.0005247676162980497 0.1770000010728836 210 176 152
0.028722630813717842 0.0005247676162980497 0.1770000010728836 231 197 173
0.029138827696442604 0.0005247676162980497 0.1770000010728836 255 250 223
0.029555024579167366 0.0005247676162980497 0.1770000010728836 255 252 225
0.029971221461892128 0.0005247676162980497 0.1770000010728836 255 255 241
0.03038741834461689 0.0005247676162980497 0.1770000010728836 255 255 241
0.030803615227341652 0.0005247676162980497 0.1770000010728836 254 255 247
0.031219812110066414 0.0005247676162980497 0.1770000010728836 254 255 247
0.03163600713014603 0.0005247676162980497 0.1770000010728836 254 255 249
0.03205220401287079 0.0005247676162980497 0.1770000010728836 254 255 249
0.03246840089559555 0.0005247676162980497 0.1770000010728836 254 255 249
0.03288459777832031 0.0005247676162980497 0.1770000010728836 254 255 249
0.033300794661045074 0.0005247676162980497 0.1770000010728836 254 255 251
0.033716991543769836 0.0005247676162980497 0.1770000010728836 254 255 251
0.0341331884264946 0.0005247676162980497 0.1770000010728836 254 255 251
0.03454938530921936 0.0005247676162980497 0.1770000010728836 254 255 251
0.03496558219194412 0.0005247676162980497 0.1770000010728836 254 255 249
0.035381779074668884 0.0005247676162980497 0.1770000010728836 254 255 249
0.035797975957393646 0.0005247676162980497 0.1770000010728836 255 252 245
0.03621417284011841 0.0005247676162980497 0.1770000010728836 255 249 242
0.036837320774793625 0.0005277323652990162 0.17800000309944153 254 205 195
0.03704656660556793 0.0005247676162980497 0.1770000010728836 196 147 137
0.037462763488292694 0.0005247676162980497 0.1770000010728836 244 184 169
0.037878960371017456 0.0005247676162980497 0.1770000010728836 255 227 212
0.03851151093840599 0.0005277323652990162 0.17800000309944153 255 248 233
0.03893006220459938 0.0005277323652990162 0.17800000309944153 255 248 233
0.03934860974550247 0.0005277323652990162 0.17800000309944153 255 254 245
0.03976715728640556 0.0005277323652990162 0.17800000309944153 255 254 245
0.040185704827308655 0.0005277323652990162 0.17800000309944153 255 255 247
0.04083236679434776 0.0005306971725076437 0.17900000512599945 255 255 247
0.041253264993429184 0.0005306971725076437 0.17900000512599945 255 250 247
0.0416741669178009 0.0005306971725076437 0.17900000512599945 255 250 247
0.042095065116882324 0.0005306971725076437 0.17900000512599945 255 242 245
0.042515967041254044 0.0005306971725076437 0.17900000512599945 255 230 233
0.042936865240335464 0.0005306971725076437 0.17900000512599945 241 173 181
0.043357763439416885 0.0005306971725076437 0.17900000512599945 176 108 116
0.04462046176195145 0.0005306971725076437 0.17900000512599945 216 142 150
0.045041363686323166 0.0005306971725076437 0.17900000512599945 255 201 209
0.04546226188540459 0.0005306971725076437 0.17900000512599945 255 239 244
0.046139493584632874 0.0005336619797162712 0.18000000715255737 255 233 238
0.046562742441892624 0.0005336619797162712 0.18000000715255737 255 249 251
0.04698599502444267 0.0005336619797162712 0.18000000715255737 255 249 251
0.04767262935638428 0.0005366267869248986 0.1809999942779541 255 246 254
0.048098232597112656 0.0005366267869248986 0.1809999942779541 255 234 242
0.048523835837841034 0.0005366267869248986 0.1809999942779541 255 225 239
0.049219876527786255 0.0005395915359258652 0.18199999630451202 255 214 228
0.00973073486238718 0.0009994424181059003 0.18799999356269836 255 239 185
0.010172797366976738 0.0009994424181059003 0.18799999356269836 255 242 188
0.010558397509157658 0.0009941261960193515 0.18700000643730164 255 255 226
0.010998107492923737 0.0009941261960193515 0.18700000643730164 255 255 227
0.01143781840801239 0.0009941261960193515 0.18700000643730164 254 255 243
0.011814013123512268 0.0009888099739328027 0.1860000044107437 254 255 243
0.012251372449100018 0.0009888099739328027 0.1860000044107437 254 255 245
0.012620512396097183 0.0009834938682615757 0.1850000023841858 254 255 245
0.013055521063506603 0.0009834938682615757 0.1850000023841858 255 255 234
0.013417607173323631 0.000978177646175027 0.18400000035762787 255 255 235
0.013850263319909573 0.000978177646175027 0.18400000035762787 255 251 226
0.014205295592546463 0.0009728614240884781 0.18299999833106995 236 219 194
0.0146356001496315 0.0009728614240884781 0.18299999833106995 208 196 176
0.015065905638039112 0.0009728614240884781 0.18299999833106995 250 238 218
0.015411531552672386 0.0009675452602095902 0.18199999630451202 255 255 245
0.015839485451579094 0.0009675452602095902 0.18199999630451202 255 255 245
0.0162674393504858 0.0009675452602095902 0.18199999630451202 254 255 249
0.016603659838438034 0.0009622290963307023 0.1809999942779541 254 255 249
0.017029263079166412 0.0009622290963307023 0.1809999942779541 254 255 249
0.01745486445724964 0.0009622290963307023 0.1809999942779541 254 255 249
0.01788046769797802 0.0009622290963307023 0.1809999942779541 254 255 249
0.018204931169748306 0.0009569128742441535 0.18000000715255737 254 255 249
0.018628181889653206 0.0009569128742441535 0.18000000715255737 254 255 249
0.019051432609558105 0.0009569128742441535 0.18000000715255737 254 255 249
0.019366491585969925 0.0009515967103652656 0.17900000512599945 254 252 242
0.019787389785051346 0.0009515967103652656 0.17900000512599945 228 226 216
0.020208289846777916 0.0009515967103652656 0.17900000512599945 250 246 239
0.020629189908504486 0.0009515967103652656 0.17900000512599945 255 254 247
0.02093249000608921 0.0009462805464863777 0.17800000309944153 254 255 249
0.02135103940963745 0.0009462805464863777 0.17800000309944153 254 255 249
0.021769586950540543 0.0009462805464863777 0.17800000309944153 254 255 249
0.022188134491443634 0.0009462805464863777 0.17800000309944153 254 255 249
0.022606683894991875 0.0009462805464863777 0.17800000309944153 254 255 251
0.022895876318216324 0.0009409643243998289 0.1770000010728836 254 255 251
0.023312073200941086 0.0009409643243998289 0.1770000010728836 254 255 251
0.023728270083665848 0.0009409643243998289 0.1770000010728836 254 255 251
0.02414446696639061 0.0009409643243998289 0.1770000010728836 254 255 251
0.02456066384911537 0.0009409643243998289 0.1770000010728836 254 255 251
0.024976860731840134 0.0009409643243998289 0.1770000010728836 254 255 251
0.025393057614564896 0.0009409643243998289 0.1770000010728836 254 255 251
0.02580925263464451 0.0009409643243998289 0.1770000010728836 254 255 251
0.02622544951736927 0.0009409643243998289 0.1770000010728836 254 255 251
0.026641646400094032 0.0009409643243998289 0.1770000010728836 254 255 251
0.027057843282818794 0.0009409643243998289 0.1770000010728836 254 255 251
0.027474040165543556 0.0009409643243998289 0.1770000010728836 255 254 241
0.027890237048268318 0.0009409643243998289 0.1770000010728836 250 244 231
0.02830643393099308 0.0009409643243998289 0.1770000010728836 214 195 170
0.028722630813717842 0.0009409643243998289 0.1770000010728836 232 213 188
0.029138827696442604 0.0009409643243998289 0.1770000010728836 255 253 230
0.029555024579167366 0.0009409643243998289 0.1770000010728836 255 254 231
0.029971221461892128 0.0009409643243998289 0.1770000010728836 254 255 243
0.03038741834461689 0.0009409643243998289 0.1770000010728836 254 255 243
0.030803615227341652 0.0009409643243998289 0.1770000010728836 254 255 249
0.031219812110066414 0.0009409643243998289 0.1770000010728836 254 255 249
0.03163600713014603 0.0009409643243998289 0.1770000010728836 254 255 249
0.03205220401287079 0.0009409643243998289 0.1770000010728836 254 255 249
0.03246840089559555 0.0009409643243998289 0.1770000010728836 254 255 251
0.03288459777832031 0.0009409643243998289 0.1770000010728836 254 255 251
0.033300794661045074 0.0009409643243998289 0.1770000010728836 254 255 251
0.033716991543769836 0.0009409643243998289 0.1770000010728836 254 255 251
0.0341331884264946 0.0009409643243998289 0.1770000010728836 254 255 251
0.03454938530921936 0.0009409643243998289 0.1770000010728836 254 255 251
0.03496558219194412 0.0009409643243998289 0.1770000010728836 254 255 251
0.035381779074668884 0.0009409643243998289 0.1770000010728836 254 255 251
0.035797975957393646 0.0009409643243998289 0.1770000010728836 255 255 245
0.03621417284011841 0.0009409643243998289 0.1770000010728836 255 255 245
0.03663036972284317 0.0009409643243998289 0.1770000010728836 255 242 227
0.03704656660556793 0.0009409643243998289 0.1770000010728836 221 188 173
0.037462763488292694 0.0009409643243998289 0.1770000010728836 230 189 170
0.037878960371017456 0.0009409643243998289 0.1770000010728836 255 233 214
0.03851151093840599 0.0009462805464863777 0.17800000309944153 255 251 234
0.03893006220459938 0.0009462805464863777 0.17800000309944153 255 248 231
0.03934860974550247 0.0009462805464863777 0.17800000309944153 255 255 245
0.03976715728640556 0.0009462805464863777 0.17800000309944153 255 255 245
0.040185704827308655 0.0009462805464863777 0.17800000309944153 254 255 249
0.04083236679434776 0.0009515967103652656 0.17900000512599945 254 255 249
0.041253264993429184 0.0009515967103652656 0.17900000512599945 255 253 248
0.0416741669178009 0.0009515967103652656 0.17900000512599945 236 233 228
0.042095065116882324 0.0009515967103652656 0.17900000512599945 254 233 232
0.042515967041254044 0.0009515967103652656 0.17900000512599945 253 232 231
0.042936865240335464 0.0009515967103652656 0.17900000512599945 255 211 217
0.043357763439416885 0.0009515967103652656 0.17900000512599945 204 149 155
0.043778665363788605 0.0009515967103652656 0.17900000512599945 197 131 138
0.04444648697972298 0.0009569128742441535 0.18000000715255737 229 163 170
0.044869739562273026 0.0009569128742441535 0.18000000715255737 255 225 229
0.045292992144823074 0.0009569128742441535 0.18000000715255737 255 224 228
0.045716241002082825 0.0009569128742441535 0.18000000715255737 255 249 246
0.046139493584632874 0.0009569128742441535 0.18000000715255737 255 250 247
0.046562742441892624 0.0009569128742441535 0.18000000715255737 255 253 249
0.04698599502444267 0.0009569128742441535 0.18000000715255737 255 253 249
0.04767262935638428 0.0009622290963307023 0.1809999942779541 255 252 251
0.048098232597112656 0.0009622290963307023 0.1809999942779541 251 243 242
0.048523835837841034 0.0009622290963307023 0.1809999942779541 255 237 247
0.049219876527786255 0.0009675452602095902 0.18199999630451202 255 215 225
0.049920618534088135 0.0009728614240884781 0.18299999833106995 255 176 203
0.00973073486238718 0.0014415044570341706 0.18799999356269836 255 237 203
0.010172797366976738 0.0014415044570341706 0.18799999356269836 255 241 207
0.010558397509157658 0.0014338368782773614 0.18700000643730164 255 255 237
0.010998107492923737 0.0014338368782773614 0.18700000643730164 255 255 237
0.01143781840801239 0.0014338368782773614 0.18700000643730164 254 255 247
0.011814013123512268 0.0014261692995205522 0.1860000044107437 254 255 247
0.012251372449100018 0.0014261692995205522 0.1860000044107437 254 255 249
0.012620512396097183 0.001418501720763743 0.1850000023841858 254 255 249
0.013055521063506603 0.001418501720763743 0.1850000023841858 254 255 245
0.013417607173323631 0.0014108341420069337 0.18400000035762787 254 255 245
0.013850263319909573 0.0014108341420069337 0.18400000035762787 255 255 239
0.014282919466495514 0.0014108341420069337 0.18400000035762787 255 255 238
0.0146356001496315 0.0014031665632501245 0.18299999833106995 252 253 240
0.015065905638039112 0.0014031665632501245 0.18299999833106995 255 255 243
0.015411531552672386 0.0013954989844933152 0.18199999630451202 254 255 247
0.015839485451579094 0.0013954989844933152 0.18199999630451202 254 255 247
0.0162674393504858 0.0013954989844933152 0.18199999630451202 254 255 249
0.016603659838438034 0.001387831405736506 0.1809999942779541 254 255 249
0.017029263079166412 0.001387831405736506 0.1809999942779541 254 255 251
0.01745486445724964 0.001387831405736506 0.1809999942779541 254 255 251
0.017781680449843407 0.0013801638269796968 0.18000000715255737 254 255 251
0.018204931169748306 0.0013801638269796968 0.18000000715255737 254 255 251
0.018628181889653206 0.0013801638269796968 0.18000000715255737 254 255 251
0.019051432609558105 0.0013801638269796968 0.18000000715255737 254 255 251
0.019366491585969925 0.0013724962482228875 0.17900000512599945 253 254 250
0.019787389785051346 0.0013724962482228875 0.17900000512599945 249 250 246
0.020208289846777916 0.0013724962482228875 0.17900000512599945 254 255 251
0.020629189908504486 0.0013724962482228875 0.17900000512599945 254 255 251
0.02093249000608921 0.0013648286694660783 0.17800000309944153 254 255 251
0.02135103940963745 0.0013648286694660783 0.17800000309944153 254 255 251
0.021769586950540543 0.0013648286694660783 0.17800000309944153 254 255 251
0.022188134491443634 0.0013648286694660783 0.17800000309944153 254 255 251
0.022479679435491562 0.001357161090709269 0.1770000010728836 254 255 251
0.022895876318216324 0.001357161090709269 0.1770000010728836 254 255 251
0.023312073200941086 0.001357161090709269 0.1770000010728836 254 255 251
0.023728270083665848 0.001357161090709269 0.1770000010728836 254 255 251
0.02414446696639061 0.001357161090709269 0.1770000010728836 254 255 251
0.024421902373433113 0.0013494935119524598 0.17599999904632568 254 255 251
0.024835748597979546 0.0013494935119524598 0.17599999904632568 254 255 251
0.02524959295988083 0.0013494935119524598 0.17599999904632568 254 255 251
0.02566343918442726 0.0013494935119524598 0.17599999904632568 254 255 251
0.026077283546328545 0.0013494935119524598 0.17599999904632568 254 255 251
0.026491129770874977 0.0013494935119524598 0.17599999904632568 254 255 251
0.027057843282818794 0.001357161090709269 0.1770000010728836 254 255 251
0.027474040165543556 0.001357161090709269 0.1770000010728836 255 255 243
0.027890237048268318 0.001357161090709269 0.1770000010728836 255 255 243
0.02830643393099308 0.001357161090709269 0.1770000010728836 231 222 201
0.028722630813717842 0.001357161090709269 0.1770000010728836 238 229 208
0.029138827696442604 0.001357161090709269 0.1770000010728836 255 255 233
0.029555024579167366 0.001357161090709269 0.1770000010728836 255 255 233
0.029971221461892128 0.001357161090709269 0.1770000010728836 254 255 245
0.03038741834461689 0.001357161090709269 0.1770000010728836 254 255 245
0.030803615227341652 0.001357161090709269 0.1770000010728836 254 255 249
0.031219812110066414 0.001357161090709269 0.1770000010728836 254 255 249
0.03163600713014603 0.001357161090709269 0.1770000010728836 254 255 249
0.03205220401287079 0.001357161090709269 0.1770000010728836 254 255 249
0.03246840089559555 0.001357161090709269 0.1770000010728836 254 255 251
0.03288459777832031 0.001357161090709269 0.1770000010728836 254 255 251
0.033300794661045074 0.001357161090709269 0.1770000010728836 254 255 251
0.033716991543769836 0.001357161090709269 0.1770000010728836 254 255 251
0.0341331884264946 0.001357161090709269 0.1770000010728836 254 255 251
0.03454938530921936 0.001357161090709269 0.1770000010728836 254 255 251
0.03496558219194412 0.001357161090709269 0.1770000010728836 254 255 251
0.035381779074668884 0.001357161090709269 0.1770000010728836 254 255 251
0.035797975957393646 0.001357161090709269 0.1770000010728836 255 255 247
0.03621417284011841 0.001357161090709269 0.1770000010728836 254 255 246
0.03663036972284317 0.001357161090709269 0.1770000010728836 255 250 237
0.03704656660556793 0.001357161090709269 0.1770000010728836 239 218 205
0.037462763488292694 0.001357161090709269 0.1770000010728836 228 199 185
0.037878960371017456 0.001357161090709269 0.1770000010728836 255 237 223
0.03829515725374222 0.001357161090709269 0.1770000010728836 255 254 241
0.03871135413646698 0.001357161090709269 0.1770000010728836 255 254 241
0.03934860974550247 0.0013648286694660783 0.17800000309944153 254 255 247
0.03976715728640556 0.0013648286694660783 0.17800000309944153 254 255 247
0.040185704827308655 0.0013648286694660783 0.17800000309944153 254 255 249
0.040604252368211746 0.0013648286694660783 0.17800000309944153 254 255 249
0.041253264993429184 0.0013724962482228875 0.17900000512599945 254 255 249
0.0416741669178009 0.0013724962482228875 0.17900000512599945 252 253 247
0.042095065116882324 0.0013724962482228875 0.17900000512599945 254 245 240
0.042515967041254044 0.0013724962482228875 0.17900000512599945 247 238 233
0.042936865240335464 0.0013724962482228875 0.17900000512599945 251 211 216
0.043357763439416885 0.0013724962482228875 0.17900000512599945 221 181 186
0.043778665363788605 0.0013724962482228875 0.17900000512599945 229 177 184
0.04444648697972298 0.0013801638269796968 0.18000000715255737 255 219 226
0.044869739562273026 0.0013801638269796968 0.18000000715255737 255 245 244
0.045292992144823074 0.0013801638269796968 0.18000000715255737 255 241 240
0.045716241002082825 0.0013801638269796968 0.18000000715255737 255 254 247
0.046139493584632874 0.0013801638269796968 0.18000000715255737 255 254 247
0.046562742441892624 0.0013801638269796968 0.18000000715255737 255 255 249
0.04698599502444267 0.0013801638269796968 0.18000000715255737 255 255 249
0.04767262935638428 0.001387831405736506 0.1809999942779541 255 254 251
0.048098232597112656 0.001387831405736506 0.1809999942779541 255 254 251
0.048523835837841034 0.001387831405736506 0.1809999942779541 255 242 252
0.049219876527786255 0.0013954989844933152 0.18199999630451202 249 219 229
0.00973073486238718 0.001883566495962441 0.18799999356269836 255 238 206
0.010172797366976738 0.001883566495962441 0.18799999356269836 255 243 211
0.010558397509157658 0.0018735475605353713 0.18700000643730164 255 255 239
0.010998107492923737 0.0018735475605353713 0.18700000643730164 255 255 239
0.011376653797924519 0.0018635286251083016 0.1860000044107437 254 255 249
0.011814013123512268 0.0018635286251083016 0.1860000044107437 254 255 249
0.012251372449100018 0.0018635286251083016 0.1860000044107437 254 255 249
0.012620512396097183 0.0018535095732659101 0.1850000023841858 254 255 249
0.013055521063506603 0.0018535095732659101 0.1850000023841858 254 255 249
0.013417607173323631 0.0018434906378388405 0.18400000035762787 254 255 249
0.013850263319909573 0.0018434906378388405 0.18400000035762787 254 255 247
0.014205295592546463 0.0018334717024117708 0.18299999833106995 254 255 247
0.0146356001496315 0.0018334717024117708 0.18299999833106995 254 255 247
0.015065905638039112 0.0018334717024117708 0.18299999833106995 254 255 247
0.015411531552672386 0.0018234526505693793 0.18199999630451202 254 255 247
0.015839485451579094 0.0018234526505693793 0.18199999630451202 254 255 247
0.0162674393504858 0.0018234526505693793 0.18199999630451202 254 255 249
0.016603659838438034 0.0018134337151423097 0.1809999942779541 254 255 249
0.017029263079166412 0.0018134337151423097 0.1809999942779541 254 255 249
0.01745486445724964 0.0018134337151423097 0.1809999942779541 254 255 249
0.017781680449843407 0.00180341477971524 0.18000000715255737 254 255 249
0.018204931169748306 0.00180341477971524 0.18000000715255737 254 255 249
0.018628181889653206 0.00180341477971524 0.18000000715255737 254 255 249
0.018945591524243355 0.0017933958442881703 0.17900000512599945 254 255 249
0.019366491585969925 0.0017933958442881703 0.17900000512599945 254 255 249
0.019787389785051346 0.0017933958442881703 0.17900000512599945 254 255 249
0.020208289846777916 0.0017933958442881703 0.17900000512599945 254 255 249
0.02051394246518612 0.0017833767924457788 0.17800000309944153 254 255 249
0.02093249000608921 0.0017833767924457788 0.17800000309944153 254 255 249
0.02135103940963745 0.0017833767924457788 0.17800000309944153 254 255 249
0.021769586950540543 0.0017833767924457788 0.17800000309944153 254 255 249
0.022188134491443634 0.0017833767924457788 0.17800000309944153 254 255 249
0.022479679435491562 0.0017733578570187092 0.1770000010728836 254 255 249
0.022895876318216324 0.0017733578570187092 0.1770000010728836 254 255 249
0.023180365562438965 0.0017633389215916395 0.17599999904632568 254 255 249
0.023594211786985397 0.0017633389215916395 0.17599999904632568 254 255 249
0.02400805801153183 0.0017633389215916395 0.17599999904632568 254 255 249
0.024421902373433113 0.0017633389215916395 0.17599999904632568 254 255 249
0.024835748597979546 0.0017633389215916395 0.17599999904632568 254 255 249
0.02524959295988083 0.0017633389215916395 0.17599999904632568 254 255 249
0.02566343918442726 0.0017633389215916395 0.17599999904632568 254 255 249
0.026077283546328545 0.0017633389215916395 0.17599999904632568 254 255 249
0.026491129770874977 0.0017633389215916395 0.17599999904632568 254 255 249
0.02690497413277626 0.0017633389215916395 0.17599999904632568 254 255 249
0.027474040165543556 0.0017733578570187092 0.1770000010728836 255 255 247
0.027890237048268318 0.0017733578570187092 0.1770000010728836 255 255 247
0.02830643393099308 0.0017733578570187092 0.1770000010728836 241 239 220
0.028722630813717842 0.0017733578570187092 0.1770000010728836 234 232 213
0.029138827696442604 0.0017733578570187092 0.1770000010728836 255 255 235
0.029555024579167366 0.0017733578570187092 0.1770000010728836 255 255 235
0.029971221461892128 0.0017733578570187092 0.1770000010728836 254 255 245
0.03038741834461689 0.0017733578570187092 0.1770000010728836 254 255 245
0.030803615227341652 0.0017733578570187092 0.1770000010728836 254 255 249
0.031219812110066414 0.0017733578570187092 0.1770000010728836 254 255 249
0.03163600713014603 0.0017733578570187092 0.1770000010728836 254 255 249
0.03205220401287079 0.0017733578570187092 0.1770000010728836 254 255 249
0.03246840089559555 0.0017733578570187092 0.1770000010728836 254 255 251
0.03288459777832031 0.0017733578570187092 0.1770000010728836 254 255 251
0.033300794661045074 0.0017733578570187092 0.1770000010728836 254 255 251
0.033716991543769836 0.0017733578570187092 0.1770000010728836 254 255 251
0.0341331884264946 0.0017733578570187092 0.1770000010728836 254 255 251
0.03454938530921936 0.0017733578570187092 0.1770000010728836 254 255 251
0.03496558219194412 0.0017733578570187092 0.1770000010728836 254 255 251
0.035381779074668884 0.0017733578570187092 0.1770000010728836 254 255 251
0.035797975957393646 0.0017733578570187092 0.1770000010728836 254 255 249
0.03621417284011841 0.0017733578570187092 0.1770000010728836 254 255 249
0.03663036972284317 0.0017733578570187092 0.1770000010728836 253 239 231
0.03704656660556793 0.0017733578570187092 0.1770000010728836 235 221 213
0.037462763488292694 0.0017733578570187092 0.1770000010728836 229 211 202
0.037878960371017456 0.0017733578570187092 0.1770000010728836 255 247 238
0.03829515725374222 0.0017733578570187092 0.1770000010728836 255 255 243
0.03871135413646698 0.0017733578570187092 0.1770000010728836 255 255 243
0.03912755101919174 0.0017733578570187092 0.1770000010728836 254 255 249
0.03976715728640556 0.0017833767924457788 0.17800000309944153 254 255 249
0.040185704827308655 0.0017833767924457788 0.17800000309944153 254 255 249
0.040604252368211746 0.0017833767924457788 0.17800000309944153 254 255 249
0.041253264993429184 0.0017933958442881703 0.17900000512599945 254 255 249
0.0416741669178009 0.0017933958442881703 0.17900000512599945 254 255 249
0.042095065116882324 0.0017933958442881703 0.17900000512599945 255 253 248
0.042515967041254044 0.0017933958442881703 0.17900000512599945 255 253 248
0.042936865240335464 0.0017933958442881703 0.17900000512599945 253 229 231
0.043357763439416885 0.0017933958442881703 0.17900000512599945 227 203 205
0.043778665363788605 0.0017933958442881703 0.17900000512599945 253 220 223
0.04444648697972298 0.00180341477971524 0.18000000715255737 255 229 232
0.044869739562273026 0.00180341477971524 0.18000000715255737 255 251 246
0.045292992144823074 0.00180341477971524 0.18000000715255737 255 251 246
0.045716241002082825 0.00180341477971524 0.18000000715255737 254 255 249
0.046139493584632874 0.00180341477971524 0.18000000715255737 254 255 249
0.046562742441892624 0.00180341477971524 0.18000000715255737 254 255 249
0.04698599502444267 0.00180341477971524 0.18000000715255737 254 255 249
0.04767262935638428 0.0018134337151423097 0.1809999942779541 254 255 251
0.048098232597112656 0.0018134337151423097 0.1809999942779541 253 254 250
0.048523835837841034 0.0018134337151423097 0.1809999942779541 255 243 251
0.049219876527786255 0.0018234526505693793 0.18199999630451202 255 238 246
0.049920618534088135 0.0018334717024117708 0.18299999833106995 250 186 207
0.05035092309117317 0.0018334717024117708 0.18299999833106995 173 109 130
0.00973073486238718 0.002325628651306033 0.18799999356269836 255 243 208
0.010172797366976738 0.002325628651306033 0.18799999356269836 255 248 213
0.010558397509157658 0.002313258359208703 0.18700000643730164 255 255 241
0.010998107492923737 0.002313258359208703 0.18700000643730164 255 255 241
0.011376653797924519 0.0023008878342807293 0.1860000044107437 254 255 249
0.011814013123512268 0.0023008878342807293 0.1860000044107437 254 255 249
0.012185504660010338 0.002288517542183399 0.1850000023841858 254 255 251
0.012620512396097183 0.002288517542183399 0.1850000023841858 254 255 251
0.013055521063506603 0.002288517542183399 0.1850000023841858 254 255 251
0.013417607173323631 0.002276147250086069 0.18400000035762787 254 255 251
0.013850263319909573 0.002276147250086069 0.18400000035762787 254 255 249
0.014205295592546463 0.0022637767251580954 0.18299999833106995 254 255 249
0.0146356001496315 0.0022637767251580954 0.18299999833106995 254 255 249
0.015065905638039112 0.0022637767251580954 0.18299999833106995 254 255 249
0.015411531552672386 0.0022514064330607653 0.18199999630451202 254 255 249
0.015839485451579094 0.0022514064330607653 0.18199999630451202 254 255 249
0.016178058460354805 0.002239036140963435 0.1809999942779541 254 255 249
0.016603659838438034 0.002239036140963435 0.1809999942779541 254 255 249
0.017029263079166412 0.002239036140963435 0.1809999942779541 254 255 249
0.01745486445724964 0.002239036140963435 0.1809999942779541 254 255 249
0.017781680449843407 0.0022266656160354614 0.18000000715255737 254 255 249
0.018204931169748306 0.0022266656160354614 0.18000000715255737 254 255 249
0.018628181889653206 0.0022266656160354614 0.18000000715255737 254 255 249
0.018945591524243355 0.0022142953239381313 0.17900000512599945 254 255 249
0.019366491585969925 0.0022142953239381313 0.17900000512599945 254 255 249
0.019787389785051346 0.0022142953239381313 0.17900000512599945 254 255 249
0.020208289846777916 0.0022142953239381313 0.17900000512599945 254 255 249
0.02051394246518612 0.0022019250318408012 0.17800000309944153 254 255 249
0.02093249000608921 0.0022019250318408012 0.17800000309944153 254 255 249
0.02135103940963745 0.0022019250318408012 0.17800000309944153 254 255 249
0.021769586950540543 0.0022019250318408012 0.17800000309944153 254 255 249
0.022188134491443634 0.0022019250318408012 0.17800000309944153 254 255 249
0.022479679435491562 0.0021895545069128275 0.1770000010728836 254 255 249
0.022895876318216324 0.0021895545069128275 0.1770000010728836 254 255 249
0.023180365562438965 0.0021771842148154974 0.17599999904632568 254 255 249
0.023594211786985397 0.0021771842148154974 0.17599999904632568 254 255 249
0.02400805801153183 0.0021771842148154974 0.17599999904632568 254 255 249
0.024421902373433113 0.0021771842148154974 0.17599999904632568 254 255 249
0.024835748597979546 0.0021771842148154974 0.17599999904632568 254 255 249
0.02524959295988083 0.0021771842148154974 0.17599999904632568 254 255 249
0.02566343918442726 0.0021771842148154974 0.17599999904632568 254 255 249
0.026077283546328545 0.0021771842148154974 0.17599999904632568 254 255 249
0.026491129770874977 0.0021771842148154974 0.17599999904632568 254 255 249
0.02690497413277626 0.0021771842148154974 0.17599999904632568 254 255 249
0.027318820357322693 0.0021771842148154974 0.17599999904632568 255 255 249
0.027732664719223976 0.0021771842148154974 0.17599999904632568 255 255 249
0.02830643393099308 0.0021895545069128275 0.1770000010728836 248 245 231
0.028722630813717842 0.0021895545069128275 0.1770000010728836 225 222 208
0.029138827696442604 0.0021895545069128275 0.1770000010728836 255 254 238
0.029555024579167366 0.0021895545069128275 0.1770000010728836 255 255 239
0.029971221461892128 0.0021895545069128275 0.1770000010728836 254 255 245
0.03038741834461689 0.0021895545069128275 0.1770000010728836 254 255 245
0.030803615227341652 0.0021895545069128275 0.1770000010728836 254 255 249
0.031219812110066414 0.0021895545069128275 0.1770000010728836 254 255 249
0.03163600713014603 0.0021895545069128275 0.1770000010728836 254 255 249
0.03205220401287079 0.0021895545069128275 0.1770000010728836 254 255 249
0.03246840089559555 0.0021895545069128275 0.1770000010728836 254 255 251
0.03288459777832031 0.0021895545069128275 0.1770000010728836 254 255 251
0.033300794661045074 0.0021895545069128275 0.1770000010728836 254 255 251
0.033716991543769836 0.0021895545069128275 0.1770000010728836 254 255 251
0.0341331884264946 0.0021895545069128275 0.1770000010728836 254 255 251
0.03454938530921936 0.0021895545069128275 0.1770000010728836 254 255 251
0.03496558219194412 0.0021895545069128275 0.1770000010728836 254 255 251
0.035381779074668884 0.0021895545069128275 0.1770000010728836 254 255 251
0.035797975957393646 0.0021895545069128275 0.1770000010728836 254 255 251
0.03621417284011841 0.0021895545069128275 0.1770000010728836 254 255 251
0.03663036972284317 0.0021895545069128275 0.1770000010728836 255 249 246
0.03704656660556793 0.0021895545069128275 0.1770000010728836 237 229 226
0.037462763488292694 0.0021895545069128275 0.1770000010728836 230 221 216
0.037878960371017456 0.0021895545069128275 0.1770000010728836 255 252 247
0.03829515725374222 0.0021895545069128275 0.1770000010728836 255 255 247
0.03871135413646698 0.0021895545069128275 0.1770000010728836 255 255 247
0.03912755101919174 0.0021895545069128275 0.1770000010728836 254 255 249
0.039543747901916504 0.0021895545069128275 0.1770000010728836 254 255 249
0.040185704827308655 0.0022019250318408012 0.17800000309944153 254 255 251
0.040604252368211746 0.0022019250318408012 0.17800000309944153 254 255 251
0.04102279990911484 0.0022019250318408012 0.17800000309944153 254 255 251
0.0416741669178009 0.0022142953239381313 0.17900000512599945 254 255 251
0.042095065116882324 0.0022142953239381313 0.17900000512599945 254 255 251
0.042515967041254044 0.0022142953239381313 0.17900000512599945 254 255 251
0.042936865240335464 0.0022142953239381313 0.17900000512599945 255 247 247
0.043357763439416885 0.0022142953239381313 0.17900000512599945 229 219 219
0.043778665363788605 0.0022142953239381313 0.17900000512599945 242 227 226
0.044199563562870026 0.0022142953239381313 0.17900000512599945 255 242 241
0.04462046176195145 0.0022142953239381313 0.17900000512599945 255 254 249
0.045292992144823074 0.0022266656160354614 0.18000000715255737 255 254 249
0.045716241002082825 0.0022266656160354614 0.18000000715255737 254 255 249
0.046139493584632874 0.0022266656160354614 0.18000000715255737 254 255 249
0.046562742441892624 0.0022266656160354614 0.18000000715255737 254 255 251
0.04698599502444267 0.0022266656160354614 0.18000000715255737 254 255 251
0.04767262935638428 0.002239036140963435 0.1809999942779541 255 255 251
0.048098232597112656 0.002239036140963435 0.1809999942779541 251 251 247
0.048523835837841034 0.002239036140963435 0.1809999942779541 246 223 231
0.049219876527786255 0.0022514064330607653 0.18199999630451202 250 227 235
0.049920618534088135 0.0022637767251580954 0.18299999833106995 255 209 230
0.05035092309117317 0.0022637767251580954 0.18299999833106995 186 134 155
0.05105872452259064 0.002276147250086069 0.18400000035762787 184 107 135
0.05177122354507446 0.002288517542183399 0.1850000023841858 237 160 188
0.00973073486238718 0.0027676906902343035 0.18799999356269836 255 250 211
