0.07387516647577286 -0.01233439240604639 0.13199999928474426 228 223 219
0.07418555021286011 -0.01233439240604639 0.13199999928474426 220 215 211
0.07449593394994736 -0.01233439240604639 0.13199999928474426 225 213 211
0.07423960417509079 -0.012240950018167496 0.13099999725818634 237 225 223
0.07454763352870941 -0.012240950018167496 0.13099999725818634 232 214 220
0.07485567033290863 -0.012240950018167496 0.13099999725818634 255 241 247
0.07516369968652725 -0.012240950018167496 0.13099999725818634 255 248 253
0.07547173649072647 -0.012240950018167496 0.13099999725818634 255 249 254
0.07520129531621933 -0.012147507630288601 0.12999999523162842 255 242 253
0.07550697773694992 -0.012147507630288601 0.12999999523162842 246 225 236
0.07581266015768051 -0.012147507630288601 0.12999999523162842 231 200 217
0.0761183351278305 -0.012147507630288601 0.12999999523162842 206 175 192
0.07701189815998077 -0.012240950018167496 0.13099999725818634 201 171 183
0.0773199275135994 -0.012240950018167496 0.13099999725818634 200 170 182
0.07762796431779861 -0.012240950018167496 0.13099999725818634 201 173 182
0.07793599367141724 -0.012240950018167496 0.13099999725818634 205 177 186
0.07824403047561646 -0.012240950018167496 0.13099999725818634 208 178 190
0.07855205982923508 -0.012240950018167496 0.13099999725818634 208 178 190
0.0788600891828537 -0.012240950018167496 0.13099999725818634 209 181 194
0.07916812598705292 -0.012240950018167496 0.13099999725818634 207 179 192
0.07947615534067154 -0.012240950018167496 0.13099999725818634 197 180 192
0.07978419214487076 -0.012240950018167496 0.13099999725818634 193 176 188
0.08009222149848938 -0.012240950018167496 0.13099999725818634 189 172 184
0.0804002583026886 -0.012240950018167496 0.13099999725818634 177 160 172
0.08009219169616699 -0.012147507630288601 0.12999999523162842 186 157 161
0.08039787411689758 -0.012147507630288601 0.12999999523162842 162 133 137
0.08192627876996994 -0.012147507630288601 0.12999999523162842 218 182 186
0.08223196119070053 -0.012147507630288601 0.12999999523162842 218 182 186
0.08253764361143112 -0.012147507630288601 0.12999999523162842 204 166 179
0.08284332603216171 -0.012147507630288601 0.12999999523162842 190 152 165
0.0831490084528923 -0.012147507630288601 0.12999999523162842 192 155 162
0.0834546908736229 -0.012147507630288601 0.12999999523162842 183 146 153
0.08376036584377289 -0.012147507630288601 0.12999999523162842 180 147 146
0.08406604826450348 -0.012147507630288601 0.12999999523162842 181 148 147
0.08437173068523407 -0.012147507630288601 0.12999999523162842 180 147 148
0.08467741310596466 -0.012147507630288601 0.12999999523162842 178 145 146
0.08498309552669525 -0.012147507630288601 0.12999999523162842 175 147 146
0.08528877794742584 -0.012147507630288601 0.12999999523162842 180 152 151
0.08559445291757584 -0.012147507630288601 0.12999999523162842 180 154 150
0.08590013533830643 -0.012147507630288601 0.12999999523162842 178 152 148
0.08620581775903702 -0.012147507630288601 0.12999999523162842 171 145 141
0.08651150017976761 -0.012147507630288601 0.12999999523162842 170 144 140
0.0868171826004982 -0.012147507630288601 0.12999999523162842 172 146 144
0.08712286502122879 -0.012147507630288601 0.12999999523162842 171 145 143
0.08742854744195938 -0.012147507630288601 0.12999999523162842 164 137 142
0.08773422241210938 -0.012147507630288601 0.12999999523162842 157 130 135
0.08803990483283997 -0.012147507630288601 0.12999999523162842 163 135 144
0.08834558725357056 -0.012147507630288601 0.12999999523162842 168 140 149
0.08865126967430115 -0.012147507630288601 0.12999999523162842 164 136 149
0.08895695209503174 -0.012147507630288601 0.12999999523162842 149 121 134
0.08926263451576233 -0.012147507630288601 0.12999999523162842 145 110 126
0.08956830948591232 -0.012147507630288601 0.12999999523162842 154 119 135
0.08987399190664291 -0.012147507630288601 0.12999999523162842 161 123 138
0.0901796743273735 -0.012147507630288601 0.12999999523162842 163 125 140
0.09118139743804932 -0.012240950018167496 0.13099999725818634 153 123 133
0.09148942679166794 -0.012240950018167496 0.13099999725818634 157 127 137
0.09179746359586716 -0.012240950018167496 0.13099999725818634 156 131 141
0.09210549294948578 -0.012240950018167496 0.13099999725818634 160 135 145
0.092413529753685 -0.012240950018167496 0.13099999725818634 160 139 150
0.09272155910730362 -0.012240950018167496 0.13099999725818634 153 132 143
0.09302959591150284 -0.012240950018167496 0.13099999725818634 146 125 132
0.09333762526512146 -0.012240950018167496 0.13099999725818634 145 124 131
0.09364565461874008 -0.012240950018167496 0.13099999725818634 145 125 128
0.09467089176177979 -0.01233439240604639 0.13199999928474426 142 122 125
0.09498127549886703 -0.01233439240604639 0.13199999928474426 142 119 118
0.09529165923595428 -0.01233439240604639 0.13199999928474426 140 117 116
0.0963263064622879 -0.012427834793925285 0.13300000131130219 158 127 129
0.09663903713226318 -0.012427834793925285 0.13300000131130219 164 133 135
0.09695177525281906 -0.012427834793925285 0.13300000131130219 157 128 132
0.09726451337337494 -0.012427834793925285 0.13300000131130219 158 129 133
0.09757724404335022 -0.012427834793925285 0.13300000131130219 159 136 146
0.0978899821639061 -0.012427834793925285 0.13300000131130219 154 131 141
0.09820272028446198 -0.012427834793925285 0.13300000131130219 150 132 140
0.09851545095443726 -0.012427834793925285 0.13300000131130219 150 132 140
0.09882818907499313 -0.012427834793925285 0.13300000131130219 155 132 142
0.09914091974496841 -0.012427834793925285 0.13300000131130219 155 132 142
0.06366105377674103 -0.013117100112140179 0.14399999380111694 255 231 220
0.06355521082878113 -0.013026009313762188 0.14300000667572021 255 242 231
0.0638914629817009 -0.013026009313762188 0.14300000667572021 255 254 245
0.06422770768404007 -0.013026009313762188 0.14300000667572021 255 254 245
0.06411246210336685 -0.012934918515384197 0.1420000046491623 253 255 246
0.064446359872818 -0.012934918515384197 0.1420000046491623 253 255 246
0.06478025764226913 -0.012934918515384197 0.1420000046491623 254 255 249
0.06511415541172028 -0.012934918515384197 0.1420000046491623 254 255 249
0.06544805318117142 -0.012934918515384197 0.1420000046491623 254 255 249
0.06531869620084763 -0.012843827717006207 0.14100000262260437 254 255 249
0.06565024703741074 -0.012843827717006207 0.14100000262260437 255 255 249
0.06598179042339325 -0.012843827717006207 0.14100000262260437 255 255 249
0.06584303081035614 -0.012752735987305641 0.14000000059604645 255 242 246
0.06617222726345062 -0.012752735987305641 0.14000000059604645 240 218 222
0.0674983561038971 -0.01257055439054966 0.1379999965429306 255 254 237
0.06782285124063492 -0.01257055439054966 0.1379999965429306 255 254 237
0.06814733892679214 -0.01257055439054966 0.1379999965429306 254 255 247
0.06847183406352997 -0.01257055439054966 0.1379999965429306 254 255 247
0.06879632920026779 -0.01257055439054966 0.1379999965429306 254 255 249
0.06912081688642502 -0.01257055439054966 0.1379999965429306 254 255 249
0.06894208490848541 -0.012479463592171669 0.13699999451637268 254 255 249
0.06926422566175461 -0.012479463592171669 0.13699999451637268 254 255 249
0.0695863664150238 -0.012479463592171669 0.13699999451637268 254 255 249
0.069908507168293 -0.012479463592171669 0.13699999451637268 254 255 249
0.0702306479215622 -0.012479463592171669 0.13699999451637268 254 255 249
0.07055278867483139 -0.012479463592171669 0.13699999451637268 254 255 249
0.07035759091377258 -0.012388372793793678 0.13600000739097595 254 255 249
0.07067738473415375 -0.012388372793793678 0.13600000739097595 254 255 249
0.07047513872385025 -0.012297281064093113 0.13500000536441803 254 255 249
0.07079257071018219 -0.012297281064093113 0.13500000536441803 254 255 249
0.07111001014709473 -0.012297281064093113 0.13500000536441803 254 255 249
0.07089836150407791 -0.012206190265715122 0.1340000033378601 254 255 249
0.07068200409412384 -0.012115099467337132 0.13300000131130219 255 249 249
0.07099473476409912 -0.012115099467337132 0.13300000131130219 230 220 220
0.071307472884655 -0.012115099467337132 0.13300000131130219 246 218 215
0.07162020355463028 -0.012115099467337132 0.13300000131130219 231 203 200
0.07255841046571732 -0.012115099467337132 0.13300000131130219 255 251 227
0.0728711485862732 -0.012115099467337132 0.13300000131130219 255 252 228
0.07318388670682907 -0.012115099467337132 0.13300000131130219 254 255 241
0.07349661737680435 -0.012115099467337132 0.13300000131130219 254 255 241
0.07325439900159836 -0.01202400866895914 0.13199999928474426 254 255 249
0.07356478273868561 -0.01202400866895914 0.13199999928474426 250 251 245
0.07387516647577286 -0.01202400866895914 0.13199999928474426 229 223 225
0.07418555021286011 -0.01202400866895914 0.13199999928474426 219 213 215
0.07449593394994736 -0.01202400866895914 0.13199999928474426 215 202 208
0.07423960417509079 -0.01193291787058115 0.13099999725818634 216 203 209
0.07454763352870941 -0.01193291787058115 0.13099999725818634 225 207 213
0.07485567033290863 -0.01193291787058115 0.13099999725818634 255 237 243
0.07516369968652725 -0.01193291787058115 0.13099999725818634 255 250 254
0.07489561289548874 -0.011841826140880585 0.12999999523162842 255 250 254
0.07520129531621933 -0.011841826140880585 0.12999999523162842 255 249 255
0.07550697773694992 -0.011841826140880585 0.12999999523162842 251 240 246
0.07581266015768051 -0.011841826140880585 0.12999999523162842 228 206 220
0.0761183351278305 -0.011841826140880585 0.12999999523162842 203 181 195
0.0764240175485611 -0.011841826140880585 0.12999999523162842 204 179 189
0.0773199275135994 -0.01193291787058115 0.13099999725818634 196 171 181
0.07762796431779861 -0.01193291787058115 0.13099999725818634 198 170 181
0.07793599367141724 -0.01193291787058115 0.13099999725818634 201 173 184
0.07824403047561646 -0.01193291787058115 0.13099999725818634 205 175 189
0.07855205982923508 -0.01193291787058115 0.13099999725818634 209 179 193
0.0788600891828537 -0.01193291787058115 0.13099999725818634 210 185 197
0.07916812598705292 -0.01193291787058115 0.13099999725818634 198 173 185
0.07947615534067154 -0.01193291787058115 0.13099999725818634 192 178 189
0.07978419214487076 -0.01193291787058115 0.13099999725818634 187 173 184
0.08009222149848938 -0.01193291787058115 0.13099999725818634 197 181 190
0.079786516726017 -0.011841826140880585 0.12999999523162842 173 157 166
0.08009219169616699 -0.011841826140880585 0.12999999523162842 185 157 158
0.08039787411689758 -0.011841826140880585 0.12999999523162842 155 127 128
0.08192627876996994 -0.011841826140880585 0.12999999523162842 220 186 194
0.08223196119070053 -0.011841826140880585 0.12999999523162842 210 176 184
0.08253764361143112 -0.011841826140880585 0.12999999523162842 189 160 166
0.08284332603216171 -0.011841826140880585 0.12999999523162842 191 162 168
0.0831490084528923 -0.011841826140880585 0.12999999523162842 189 160 164
0.0834546908736229 -0.011841826140880585 0.12999999523162842 179 150 154
0.08376036584377289 -0.011841826140880585 0.12999999523162842 174 147 150
0.08406604826450348 -0.011841826140880585 0.12999999523162842 180 153 156
0.08437173068523407 -0.011841826140880585 0.12999999523162842 179 158 157
0.08467741310596466 -0.011841826140880585 0.12999999523162842 180 159 158
0.08498309552669525 -0.011841826140880585 0.12999999523162842 176 157 153
0.08528877794742584 -0.011841826140880585 0.12999999523162842 175 156 152
0.08559445291757584 -0.011841826140880585 0.12999999523162842 176 157 153
0.08590013533830643 -0.011841826140880585 0.12999999523162842 174 155 151
0.08620581775903702 -0.011841826140880585 0.12999999523162842 170 146 148
0.08651150017976761 -0.011841826140880585 0.12999999523162842 166 142 144
0.0868171826004982 -0.011841826140880585 0.12999999523162842 168 140 151
0.08712286502122879 -0.011841826140880585 0.12999999523162842 165 137 148
0.08742854744195938 -0.011841826140880585 0.12999999523162842 165 137 150
0.08773422241210938 -0.011841826140880585 0.12999999523162842 163 135 148
0.08803990483283997 -0.011841826140880585 0.12999999523162842 156 130 147
0.08834558725357056 -0.011841826140880585 0.12999999523162842 154 128 145
0.08865126967430115 -0.011841826140880585 0.12999999523162842 152 126 143
0.08895695209503174 -0.011841826140880585 0.12999999523162842 149 123 140
0.08926263451576233 -0.011841826140880585 0.12999999523162842 143 115 128
0.08956830948591232 -0.011841826140880585 0.12999999523162842 144 116 129
0.08987399190664291 -0.011841826140880585 0.12999999523162842 158 123 137
0.0908733680844307 -0.01193291787058115 0.13099999725818634 156 121 135
0.09118139743804932 -0.01193291787058115 0.13099999725818634 153 123 135
0.09148942679166794 -0.01193291787058115 0.13099999725818634 155 125 137
0.09179746359586716 -0.01193291787058115 0.13099999725818634 154 129 141
0.09210549294948578 -0.01193291787058115 0.13099999725818634 154 129 141
0.092413529753685 -0.01193291787058115 0.13099999725818634 152 130 144
0.09272155910730362 -0.01193291787058115 0.13099999725818634 150 128 142
0.09302959591150284 -0.01193291787058115 0.13099999725818634 142 124 132
0.09333762526512146 -0.01193291787058115 0.13099999725818634 142 124 132
0.09436050802469254 -0.01202400866895914 0.13199999928474426 143 123 126
0.09467089176177979 -0.01202400866895914 0.13199999928474426 142 122 125
0.09498127549886703 -0.01202400866895914 0.13199999928474426 143 119 121
0.09529165923595428 -0.01202400866895914 0.13199999928474426 139 115 117
0.0963263064622879 -0.012115099467337132 0.13300000131130219 153 122 124
0.09663903713226318 -0.012115099467337132 0.13300000131130219 160 129 131
0.09695177525281906 -0.012115099467337132 0.13300000131130219 152 125 128
0.09726451337337494 -0.012115099467337132 0.13300000131130219 155 128 131
0.09757724404335022 -0.012115099467337132 0.13300000131130219 161 140 147
0.0978899821639061 -0.012115099467337132 0.13300000131130219 159 138 145
0.09820272028446198 -0.012115099467337132 0.13300000131130219 151 133 141
0.09851545095443726 -0.012115099467337132 0.13300000131130219 150 132 140
0.09882818907499313 -0.012115099467337132 0.13300000131130219 154 131 139
0.09914091974496841 -0.012115099467337132 0.13300000131130219 160 137 145
0.06366105377674103 -0.01277849916368723 0.14399999380111694 255 239 226
0.06355521082878113 -0.012689759954810143 0.14300000667572021 255 245 232
0.0638914629817009 -0.012689759954810143 0.14300000667572021 255 255 243
0.06422770768404007 -0.012689759954810143 0.14300000667572021 255 255 243
0.06411246210336685 -0.012601020745933056 0.1420000046491623 254 255 249
0.064446359872818 -0.012601020745933056 0.1420000046491623 254 255 249
0.06478025764226913 -0.012601020745933056 0.1420000046491623 254 255 249
0.06511415541172028 -0.012601020745933056 0.1420000046491623 254 255 249
0.06544805318117142 -0.012601020745933056 0.1420000046491623 254 255 249
0.06531869620084763 -0.012512280605733395 0.14100000262260437 254 255 249
0.06565024703741074 -0.012512280605733395 0.14100000262260437 254 255 249
0.06598179042339325 -0.012512280605733395 0.14100000262260437 254 255 249
0.06584303081035614 -0.012423541396856308 0.14000000059604645 255 250 251
0.06617222726345062 -0.012423541396856308 0.14000000059604645 254 239 240
0.0674983561038971 -0.01224606204777956 0.1379999965429306 255 253 236
0.06782285124063492 -0.01224606204777956 0.1379999965429306 255 253 236
0.06814733892679214 -0.01224606204777956 0.1379999965429306 254 255 247
0.06847183406352997 -0.01224606204777956 0.1379999965429306 254 255 247
0.06879632920026779 -0.01224606204777956 0.1379999965429306 254 255 249
0.06912081688642502 -0.01224606204777956 0.1379999965429306 254 255 249
0.06944531202316284 -0.01224606204777956 0.1379999965429306 254 255 249
0.06926422566175461 -0.012157322838902473 0.13699999451637268 254 255 249
0.0695863664150238 -0.012157322838902473 0.13699999451637268 254 255 249
0.069908507168293 -0.012157322838902473 0.13699999451637268 254 255 249
0.0702306479215622 -0.012157322838902473 0.13699999451637268 254 255 249
0.07055278867483139 -0.012157322838902473 0.13699999451637268 254 255 249
0.07035759091377258 -0.012068582698702812 0.13600000739097595 254 255 249
0.07067738473415375 -0.012068582698702812 0.13600000739097595 254 255 249
0.07047513872385025 -0.011979843489825726 0.13500000536441803 254 255 249
0.07079257071018219 -0.011979843489825726 0.13500000536441803 254 255 249
0.07111001014709473 -0.011979843489825726 0.13500000536441803 253 254 248
0.07089836150407791 -0.011891103349626064 0.1340000033378601 253 254 248
0.07121344655752182 -0.011891103349626064 0.1340000033378601 255 252 251
0.07099473476409912 -0.011802364140748978 0.13300000131130219 241 233 232
0.071307472884655 -0.011802364140748978 0.13300000131130219 235 209 207
0.07162020355463028 -0.011802364140748978 0.13300000131130219 236 210 208
0.0728711485862732 -0.011802364140748978 0.13300000131130219 255 252 225
0.07318388670682907 -0.011802364140748978 0.13300000131130219 255 255 239
0.07349661737680435 -0.011802364140748978 0.13300000131130219 255 255 239
0.07325439900159836 -0.011713624931871891 0.13199999928474426 254 255 249
0.07356478273868561 -0.011713624931871891 0.13199999928474426 254 255 249
0.07387516647577286 -0.011713624931871891 0.13199999928474426 243 237 241
0.07418555021286011 -0.011713624931871891 0.13199999928474426 227 221 225
0.07449593394994736 -0.011713624931871891 0.13199999928474426 224 211 219
0.07423960417509079 -0.01162488479167223 0.13099999725818634 224 211 219
0.07454763352870941 -0.01162488479167223 0.13099999725818634 229 211 219
0.07485567033290863 -0.01162488479167223 0.13099999725818634 249 231 239
0.07516369968652725 -0.01162488479167223 0.13099999725818634 255 249 253
0.07489561289548874 -0.011536145582795143 0.12999999523162842 255 250 254
0.07520129531621933 -0.011536145582795143 0.12999999523162842 255 252 255
0.07550697773694992 -0.011536145582795143 0.12999999523162842 250 244 250
0.07581266015768051 -0.011536145582795143 0.12999999523162842 214 202 213
0.0761183351278305 -0.011536145582795143 0.12999999523162842 206 194 205
0.0764240175485611 -0.011536145582795143 0.12999999523162842 217 196 203
0.0773199275135994 -0.01162488479167223 0.13099999725818634 193 172 179
0.07762796431779861 -0.01162488479167223 0.13099999725818634 197 169 178
0.07793599367141724 -0.01162488479167223 0.13099999725818634 198 170 179
0.07824403047561646 -0.01162488479167223 0.13099999725818634 200 172 185
0.07855205982923508 -0.01162488479167223 0.13099999725818634 202 174 187
0.0788600891828537 -0.01162488479167223 0.13099999725818634 205 180 192
0.07916812598705292 -0.01162488479167223 0.13099999725818634 205 180 192
0.07947615534067154 -0.01162488479167223 0.13099999725818634 193 176 188
0.07978419214487076 -0.01162488479167223 0.13099999725818634 191 174 186
0.07948083430528641 -0.011536145582795143 0.12999999523162842 186 170 179
0.079786516726017 -0.011536145582795143 0.12999999523162842 180 164 173
0.08009219169616699 -0.011536145582795143 0.12999999523162842 181 150 150
0.08039787411689758 -0.011536145582795143 0.12999999523162842 143 112 112
0.08192627876996994 -0.011536145582795143 0.12999999523162842 216 184 189
0.08223196119070053 -0.011536145582795143 0.12999999523162842 212 180 185
0.08253764361143112 -0.011536145582795143 0.12999999523162842 199 175 179
0.08284332603216171 -0.011536145582795143 0.12999999523162842 193 169 173
0.0831490084528923 -0.011536145582795143 0.12999999523162842 188 162 162
0.0834546908736229 -0.011536145582795143 0.12999999523162842 173 147 147
0.08376036584377289 -0.011536145582795143 0.12999999523162842 166 145 152
0.08406604826450348 -0.011536145582795143 0.12999999523162842 172 151 158
0.08437173068523407 -0.011536145582795143 0.12999999523162842 171 154 156
0.08467741310596466 -0.011536145582795143 0.12999999523162842 172 155 157
0.08498309552669525 -0.011536145582795143 0.12999999523162842 178 159 155
0.08528877794742584 -0.011536145582795143 0.12999999523162842 176 157 153
0.08559445291757584 -0.011536145582795143 0.12999999523162842 174 158 151
0.08590013533830643 -0.011536145582795143 0.12999999523162842 169 153 146
0.08620581775903702 -0.011536145582795143 0.12999999523162842 167 147 150
0.08651150017976761 -0.011536145582795143 0.12999999523162842 167 147 150
0.0868171826004982 -0.011536145582795143 0.12999999523162842 155 131 148
0.08712286502122879 -0.011536145582795143 0.12999999523162842 152 128 145
0.08742854744195938 -0.011536145582795143 0.12999999523162842 157 133 152
0.08773422241210938 -0.011536145582795143 0.12999999523162842 159 135 154
0.08803990483283997 -0.011536145582795143 0.12999999523162842 158 135 158
0.08834558725357056 -0.011536145582795143 0.12999999523162842 150 127 150
0.08865126967430115 -0.011536145582795143 0.12999999523162842 151 129 145
0.08895695209503174 -0.011536145582795143 0.12999999523162842 136 114 130
0.08926263451576233 -0.011536145582795143 0.12999999523162842 137 114 126
0.09025730192661285 -0.01162488479167223 0.13099999725818634 133 110 122
0.09056533128023148 -0.01162488479167223 0.13099999725818634 141 113 124
0.0908733680844307 -0.01162488479167223 0.13099999725818634 144 116 127
0.09118139743804932 -0.01162488479167223 0.13099999725818634 146 116 128
0.09148942679166794 -0.01162488479167223 0.13099999725818634 145 115 127
0.09179746359586716 -0.01162488479167223 0.13099999725818634 146 121 133
0.09210549294948578 -0.01162488479167223 0.13099999725818634 155 130 142
0.092413529753685 -0.01162488479167223 0.13099999725818634 151 127 142
0.09272155910730362 -0.01162488479167223 0.13099999725818634 146 122 137
0.09302959591150284 -0.01162488479167223 0.13099999725818634 142 121 130
0.09333762526512146 -0.01162488479167223 0.13099999725818634 139 118 127
0.09436050802469254 -0.011713624931871891 0.13199999928474426 140 117 125
0.09467089176177979 -0.011713624931871891 0.13199999928474426 139 116 124
0.09498127549886703 -0.011713624931871891 0.13199999928474426 140 116 118
0.09529165923595428 -0.011713624931871891 0.13199999928474426 143 119 121
0.0963263064622879 -0.011802364140748978 0.13300000131130219 150 122 123
0.09663903713226318 -0.011802364140748978 0.13300000131130219 153 125 126
0.09695177525281906 -0.011802364140748978 0.13300000131130219 154 128 128
0.09726451337337494 -0.011802364140748978 0.13300000131130219 156 130 130
0.09757724404335022 -0.011802364140748978 0.13300000131130219 158 138 141
0.0978899821639061 -0.011802364140748978 0.13300000131130219 159 139 142
0.09820272028446198 -0.011802364140748978 0.13300000131130219 155 137 145
0.09851545095443726 -0.011802364140748978 0.13300000131130219 155 137 145
0.09882818907499313 -0.011802364140748978 0.13300000131130219 161 140 149
0.09914091974496841 -0.011802364140748978 0.13300000131130219 164 143 152
0.06355521082878113 -0.012353510595858097 0.14300000667572021 255 244 227
0.0638914629817009 -0.012353510595858097 0.14300000667572021 255 254 242
0.06422770768404007 -0.012353510595858097 0.14300000667572021 255 255 243
0.06411246210336685 -0.01226712204515934 0.1420000046491623 254 255 249
0.064446359872818 -0.01226712204515934 0.1420000046491623 254 255 249
0.06478025764226913 -0.01226712204515934 0.1420000046491623 254 255 249
0.06511415541172028 -0.01226712204515934 0.1420000046491623 254 255 249
0.06544805318117142 -0.01226712204515934 0.1420000046491623 254 255 249
0.06531869620084763 -0.012180734425783157 0.14100000262260437 254 255 249
0.06565024703741074 -0.012180734425783157 0.14100000262260437 254 255 249
0.06598179042339325 -0.012180734425783157 0.14100000262260437 254 255 249
0.06584303081035614 -0.0120943458750844 0.14000000059604645 255 249 253
0.06617222726345062 -0.0120943458750844 0.14000000059604645 252 241 245
0.0674983561038971 -0.01192156970500946 0.1379999965429306 255 248 233
0.06782285124063492 -0.01192156970500946 0.1379999965429306 255 252 237
0.06814733892679214 -0.01192156970500946 0.1379999965429306 254 255 243
0.06847183406352997 -0.01192156970500946 0.1379999965429306 254 255 243
0.06879632920026779 -0.01192156970500946 0.1379999965429306 254 255 249
0.06912081688642502 -0.01192156970500946 0.1379999965429306 254 255 249
0.06944531202316284 -0.01192156970500946 0.1379999965429306 254 255 249
0.06976979970932007 -0.01192156970500946 0.1379999965429306 254 255 249
0.07009429484605789 -0.01192156970500946 0.1379999965429306 254 255 249
0.069908507168293 -0.011835181154310703 0.13699999451637268 254 255 249
0.0702306479215622 -0.011835181154310703 0.13699999451637268 254 255 249
0.07055278867483139 -0.011835181154310703 0.13699999451637268 254 255 249
0.07035759091377258 -0.01174879353493452 0.13600000739097595 254 255 249
0.07067738473415375 -0.01174879353493452 0.13600000739097595 254 255 249
0.07047513872385025 -0.011662404984235764 0.13500000536441803 254 255 249
0.07079257071018219 -0.011662404984235764 0.13500000536441803 254 255 249
0.0705832690000534 -0.011576016433537006 0.1340000033378601 253 254 250
0.07089836150407791 -0.011576016433537006 0.1340000033378601 253 254 250
0.07121344655752182 -0.011576016433537006 0.1340000033378601 255 249 253
0.07099473476409912 -0.011489628814160824 0.13300000131130219 236 225 229
0.071307472884655 -0.011489628814160824 0.13300000131130219 212 184 185
0.07162020355463028 -0.011489628814160824 0.13300000131130219 214 186 187
0.0728711485862732 -0.011489628814160824 0.13300000131130219 255 247 223
0.07318388670682907 -0.011489628814160824 0.13300000131130219 255 255 235
0.07349661737680435 -0.011489628814160824 0.13300000131130219 255 255 235
0.07325439900159836 -0.011403240263462067 0.13199999928474426 255 255 245
0.07356478273868561 -0.011403240263462067 0.13199999928474426 255 255 245
0.07387516647577286 -0.011403240263462067 0.13199999928474426 229 220 225
0.07418555021286011 -0.011403240263462067 0.13199999928474426 215 206 211
0.07449593394994736 -0.011403240263462067 0.13199999928474426 222 208 219
0.07423960417509079 -0.011316852644085884 0.13099999725818634 223 209 220
0.07454763352870941 -0.011316852644085884 0.13099999725818634 232 216 225
0.07485567033290863 -0.011316852644085884 0.13099999725818634 248 232 241
0.07516369968652725 -0.011316852644085884 0.13099999725818634 255 246 253
0.07547173649072647 -0.011316852644085884 0.13099999725818634 255 249 255
0.07520129531621933 -0.011230464093387127 0.12999999523162842 255 251 255
0.07550697773694992 -0.011230464093387127 0.12999999523162842 250 243 252
0.07581266015768051 -0.011230464093387127 0.12999999523162842 220 208 219
0.0761183351278305 -0.011230464093387127 0.12999999523162842 211 199 210
0.0764240175485611 -0.011230464093387127 0.12999999523162842 203 182 189
0.0773199275135994 -0.011316852644085884 0.13099999725818634 185 164 171
0.07762796431779861 -0.011316852644085884 0.13099999725818634 191 166 178
0.07793599367141724 -0.011316852644085884 0.13099999725818634 197 172 184
0.07824403047561646 -0.011316852644085884 0.13099999725818634 193 164 182
0.07855205982923508 -0.011316852644085884 0.13099999725818634 190 161 179
0.0788600891828537 -0.011316852644085884 0.13099999725818634 196 172 187
0.07916812598705292 -0.011316852644085884 0.13099999725818634 204 180 195
0.07886946946382523 -0.011230464093387127 0.12999999523162842 198 179 192
0.07917515188455582 -0.011230464093387127 0.12999999523162842 183 164 177
0.07948083430528641 -0.011230464093387127 0.12999999523162842 181 160 171
0.079786516726017 -0.011230464093387127 0.12999999523162842 185 164 175
0.08009219169616699 -0.011230464093387127 0.12999999523162842 158 121 128
0.08039787411689758 -0.011230464093387127 0.12999999523162842 129 92 99
0.08192627876996994 -0.011230464093387127 0.12999999523162842 195 162 163
0.08223196119070053 -0.011230464093387127 0.12999999523162842 197 164 165
0.08253764361143112 -0.011230464093387127 0.12999999523162842 199 173 173
0.08284332603216171 -0.011230464093387127 0.12999999523162842 186 160 160
0.0831490084528923 -0.011230464093387127 0.12999999523162842 181 157 159
0.0834546908736229 -0.011230464093387127 0.12999999523162842 174 150 152
0.08376036584377289 -0.011230464093387127 0.12999999523162842 156 141 142
0.08406604826450348 -0.011230464093387127 0.12999999523162842 173 158 159
0.08437173068523407 -0.011230464093387127 0.12999999523162842 163 151 151
0.08467741310596466 -0.011230464093387127 0.12999999523162842 156 144 144
0.08498309552669525 -0.011230464093387127 0.12999999523162842 180 166 162
0.08528877794742584 -0.011230464093387127 0.12999999523162842 171 157 153
0.08559445291757584 -0.011230464093387127 0.12999999523162842 172 158 154
0.08590013533830643 -0.011230464093387127 0.12999999523162842 158 144 140
0.08620581775903702 -0.011230464093387127 0.12999999523162842 165 144 151
0.08651150017976761 -0.011230464093387127 0.12999999523162842 165 144 151
0.0868171826004982 -0.011230464093387127 0.12999999523162842 157 132 154
0.08712286502122879 -0.011230464093387127 0.12999999523162842 152 127 149
0.08742854744195938 -0.011230464093387127 0.12999999523162842 150 123 145
0.08773422241210938 -0.011230464093387127 0.12999999523162842 156 129 151
0.08803990483283997 -0.011230464093387127 0.12999999523162842 140 117 138
0.08834558725357056 -0.011230464093387127 0.12999999523162842 135 112 133
0.08865126967430115 -0.011230464093387127 0.12999999523162842 136 114 128
0.08964123576879501 -0.011316852644085884 0.13099999725818634 128 106 120
0.08994926512241364 -0.011316852644085884 0.13099999725818634 144 121 131
0.09025730192661285 -0.011316852644085884 0.13099999725818634 141 118 128
0.09056533128023148 -0.011316852644085884 0.13099999725818634 141 116 124
0.0908733680844307 -0.011316852644085884 0.13099999725818634 142 117 125
0.09118139743804932 -0.011316852644085884 0.13099999725818634 143 113 123
0.09148942679166794 -0.011316852644085884 0.13099999725818634 139 109 119
0.09179746359586716 -0.011316852644085884 0.13099999725818634 141 111 123
0.09210549294948578 -0.011316852644085884 0.13099999725818634 142 112 124
0.092413529753685 -0.011316852644085884 0.13099999725818634 144 116 129
0.09272155910730362 -0.011316852644085884 0.13099999725818634 144 116 129
0.09373974055051804 -0.011403240263462067 0.13199999928474426 144 116 125
0.09405012428760529 -0.011403240263462067 0.13199999928474426 143 115 124
0.09436050802469254 -0.011403240263462067 0.13199999928474426 140 113 118
0.09467089176177979 -0.011403240263462067 0.13199999928474426 141 114 119
0.09498127549886703 -0.011403240263462067 0.13199999928474426 139 110 114
0.09601356834173203 -0.011489628814160824 0.13300000131130219 145 116 120
0.0963263064622879 -0.011489628814160824 0.13300000131130219 160 123 130
0.09663903713226318 -0.011489628814160824 0.13300000131130219 165 128 135
0.09695177525281906 -0.011489628814160824 0.13300000131130219 161 134 137
0.09726451337337494 -0.011489628814160824 0.13300000131130219 158 131 134
0.09757724404335022 -0.011489628814160824 0.13300000131130219 151 131 134
0.0978899821639061 -0.011489628814160824 0.13300000131130219 152 132 135
0.09820272028446198 -0.011489628814160824 0.13300000131130219 154 136 144
0.09851545095443726 -0.011489628814160824 0.13300000131130219 157 139 147
0.09882818907499313 -0.011489628814160824 0.13300000131130219 165 147 157
0.09914091974496841 -0.011489628814160824 0.13300000131130219 169 151 161
0.06366105377674103 -0.012101298198103905 0.14399999380111694 255 231 218
0.06355521082878113 -0.012017261236906052 0.14300000667572021 255 244 231
0.0638914629817009 -0.012017261236906052 0.14300000667572021 255 255 245
0.06422770768404007 -0.012017261236906052 0.14300000667572021 255 255 245
0.06411246210336685 -0.011933224275708199 0.1420000046491623 254 255 249
0.064446359872818 -0.011933224275708199 0.1420000046491623 254 255 249
0.06478025764226913 -0.011933224275708199 0.1420000046491623 254 255 249
0.06511415541172028 -0.011933224275708199 0.1420000046491623 254 255 249
0.06498715281486511 -0.011849187314510345 0.14100000262260437 254 255 249
0.06531869620084763 -0.011849187314510345 0.14100000262260437 254 255 249
0.06565024703741074 -0.011849187314510345 0.14100000262260437 254 255 251
0.06598179042339325 -0.011849187314510345 0.14100000262260437 254 255 251
0.06584303081035614 -0.011765150353312492 0.14000000059604645 255 252 251
0.06617222726345062 -0.011765150353312492 0.14000000059604645 255 250 249
0.0665014237165451 -0.011765150353312492 0.14000000059604645 245 207 220
0.06683062016963959 -0.011765150353312492 0.14000000059604645 232 194 207
0.0674983561038971 -0.01159707736223936 0.1379999965429306 255 240 227
0.06782285124063492 -0.01159707736223936 0.1379999965429306 255 250 237
0.06814733892679214 -0.01159707736223936 0.1379999965429306 255 255 243
0.06847183406352997 -0.01159707736223936 0.1379999965429306 255 255 243
0.06879632920026779 -0.01159707736223936 0.1379999965429306 254 255 249
0.06912081688642502 -0.01159707736223936 0.1379999965429306 254 255 249
0.06944531202316284 -0.01159707736223936 0.1379999965429306 254 255 249
0.06976979970932007 -0.01159707736223936 0.1379999965429306 254 255 249
0.07009429484605789 -0.01159707736223936 0.1379999965429306 254 255 249
0.069908507168293 -0.011513040401041508 0.13699999451637268 254 255 249
0.0702306479215622 -0.011513040401041508 0.13699999451637268 254 255 249
0.07055278867483139 -0.011513040401041508 0.13699999451637268 254 255 249
0.07087492942810059 -0.011513040401041508 0.13699999451637268 254 255 249
0.07119707018136978 -0.011513040401041508 0.13699999451637268 254 255 249
0.07079257071018219 -0.011344966478645802 0.13500000536441803 254 255 249
0.0705832690000534 -0.011260930448770523 0.1340000033378601 255 254 251
0.07089836150407791 -0.011260930448770523 0.1340000033378601 253 250 247
0.07121344655752182 -0.011260930448770523 0.1340000033378601 238 218 221
0.07099473476409912 -0.01117689348757267 0.13300000131130219 202 182 185
0.07318388670682907 -0.01117689348757267 0.13300000131130219 255 251 231
0.07349661737680435 -0.01117689348757267 0.13300000131130219 255 250 230
0.07325439900159836 -0.011092856526374817 0.13199999928474426 255 253 243
0.07356478273868561 -0.011092856526374817 0.13199999928474426 255 252 242
0.07387516647577286 -0.011092856526374817 0.13199999928474426 255 246 250
0.07418555021286011 -0.011092856526374817 0.13199999928474426 243 232 236
0.07449593394994736 -0.011092856526374817 0.13199999928474426 220 208 219
0.07423960417509079 -0.011008819565176964 0.13099999725818634 225 213 224
0.07454763352870941 -0.011008819565176964 0.13099999725818634 235 221 234
0.07485567033290863 -0.011008819565176964 0.13099999725818634 234 220 233
0.07516369968652725 -0.011008819565176964 0.13099999725818634 244 227 239
0.07489561289548874 -0.01092478260397911 0.12999999523162842 247 230 242
0.07520129531621933 -0.01092478260397911 0.12999999523162842 239 227 242
0.07550697773694992 -0.01092478260397911 0.12999999523162842 227 215 230
0.07581266015768051 -0.01092478260397911 0.12999999523162842 210 196 209
0.0761183351278305 -0.01092478260397911 0.12999999523162842 206 192 205
0.0764240175485611 -0.01092478260397911 0.12999999523162842 207 186 195
0.07672969996929169 -0.01092478260397911 0.12999999523162842 186 165 174
0.07703538239002228 -0.01092478260397911 0.12999999523162842 182 159 171
0.07734106481075287 -0.01092478260397911 0.12999999523162842 177 154 166
0.07764674723148346 -0.01092478260397911 0.12999999523162842 179 155 174
0.07795242220163345 -0.01092478260397911 0.12999999523162842 180 156 175
0.07825810462236404 -0.01092478260397911 0.12999999523162842 181 157 174
0.07916812598705292 -0.011008819565176964 0.13099999725818634 182 158 175
0.07886946946382523 -0.01092478260397911 0.12999999523162842 180 156 171
0.07917515188455582 -0.01092478260397911 0.12999999523162842 172 148 163
0.07948083430528641 -0.01092478260397911 0.12999999523162842 163 133 147
0.079786516726017 -0.01092478260397911 0.12999999523162842 173 143 157
0.08253764361143112 -0.01092478260397911 0.12999999523162842 184 152 148
0.08284332603216171 -0.01092478260397911 0.12999999523162842 178 146 142
0.0831490084528923 -0.01092478260397911 0.12999999523162842 171 145 143
0.0834546908736229 -0.01092478260397911 0.12999999523162842 169 143 141
0.08376036584377289 -0.01092478260397911 0.12999999523162842 156 136 137
0.08406604826450348 -0.01092478260397911 0.12999999523162842 161 141 142
0.08437173068523407 -0.01092478260397911 0.12999999523162842 155 139 136
0.08467741310596466 -0.01092478260397911 0.12999999523162842 148 132 129
0.08498309552669525 -0.01092478260397911 0.12999999523162842 151 135 132
0.08528877794742584 -0.01092478260397911 0.12999999523162842 165 149 146
0.08559445291757584 -0.01092478260397911 0.12999999523162842 174 155 153
0.08590013533830643 -0.01092478260397911 0.12999999523162842 158 139 137
0.08620581775903702 -0.01092478260397911 0.12999999523162842 160 136 140
0.08651150017976761 -0.01092478260397911 0.12999999523162842 152 128 132
0.0868171826004982 -0.01092478260397911 0.12999999523162842 150 119 136
0.08712286502122879 -0.01092478260397911 0.12999999523162842 150 119 136
0.08742854744195938 -0.01092478260397911 0.12999999523162842 151 120 137
0.08773422241210938 -0.01092478260397911 0.12999999523162842 153 122 139
0.08803990483283997 -0.01092478260397911 0.12999999523162842 147 118 134
0.08834558725357056 -0.01092478260397911 0.12999999523162842 138 109 125
0.0893331989645958 -0.011008819565176964 0.13099999725818634 135 107 118
0.08964123576879501 -0.011008819565176964 0.13099999725818634 154 126 137
0.08994926512241364 -0.011008819565176964 0.13099999725818634 154 129 137
0.09025730192661285 -0.011008819565176964 0.13099999725818634 153 128 136
0.09056533128023148 -0.011008819565176964 0.13099999725818634 142 114 125
0.0908733680844307 -0.011008819565176964 0.13099999725818634 147 119 130
0.09118139743804932 -0.011008819565176964 0.13099999725818634 142 107 119
0.09148942679166794 -0.011008819565176964 0.13099999725818634 131 96 108
0.09179746359586716 -0.011008819565176964 0.13099999725818634 128 90 103
0.09210549294948578 -0.011008819565176964 0.13099999725818634 128 90 103
0.09373974055051804 -0.011092856526374817 0.13199999928474426 137 98 105
0.09405012428760529 -0.011092856526374817 0.13199999928474426 137 98 105
0.09436050802469254 -0.011092856526374817 0.13199999928474426 137 101 103
0.09467089176177979 -0.011092856526374817 0.13199999928474426 146 110 112
0.09498127549886703 -0.011092856526374817 0.13199999928474426 142 104 106
0.09601356834173203 -0.01117689348757267 0.13300000131130219 129 91 93
0.09695177525281906 -0.01117689348757267 0.13300000131130219 158 125 128
0.09726451337337494 -0.01117689348757267 0.13300000131130219 165 132 135
0.0983109101653099 -0.011260930448770523 0.1340000033378601 157 137 140
0.09862599521875381 -0.011260930448770523 0.1340000033378601 157 137 140
0.09894108027219772 -0.011260930448770523 0.1340000033378601 155 139 146
0.09925617277622223 -0.011260930448770523 0.1340000033378601 155 139 146
0.09882818907499313 -0.01117689348757267 0.13300000131130219 159 145 156
0.09914091974496841 -0.01117689348757267 0.13300000131130219 146 132 143
0.09945365786552429 -0.01117689348757267 0.13300000131130219 149 110 130
0.09976639598608017 -0.01117689348757267 0.13300000131130219 148 109 129
0.06355521082878113 -0.011681011877954006 0.14300000667572021 255 246 237
0.0638914629817009 -0.011681011877954006 0.14300000667572021 255 255 245
0.06422770768404007 -0.011681011877954006 0.14300000667572021 255 255 245
0.06411246210336685 -0.011599326506257057 0.1420000046491623 254 255 249
0.064446359872818 -0.011599326506257057 0.1420000046491623 254 255 249
0.06432405859231949 -0.011517641134560108 0.14100000262260437 254 255 249
0.0646556094288826 -0.011517641134560108 0.14100000262260437 254 255 249
0.06498715281486511 -0.011517641134560108 0.14100000262260437 254 255 249
0.06531869620084763 -0.011517641134560108 0.14100000262260437 254 255 249
0.06565024703741074 -0.011517641134560108 0.14100000262260437 254 255 251
0.06598179042339325 -0.011517641134560108 0.14100000262260437 254 255 251
0.06584303081035614 -0.01143595576286316 0.14000000059604645 255 250 254
0.06617222726345062 -0.01143595576286316 0.14000000059604645 255 247 251
0.06782285124063492 -0.011272585019469261 0.1379999965429306 255 244 229
0.06814733892679214 -0.011272585019469261 0.1379999965429306 255 255 241
0.06847183406352997 -0.011272585019469261 0.1379999965429306 255 255 241
0.06879632920026779 -0.011272585019469261 0.1379999965429306 254 255 247
0.06912081688642502 -0.011272585019469261 0.1379999965429306 254 255 247
0.06944531202316284 -0.011272585019469261 0.1379999965429306 254 255 249
0.06976979970932007 -0.011272585019469261 0.1379999965429306 254 255 249
0.07009429484605789 -0.011272585019469261 0.1379999965429306 254 255 249
0.069908507168293 -0.011190899647772312 0.13699999451637268 254 255 249
0.0702306479215622 -0.011190899647772312 0.13699999451637268 254 255 249
0.07055278867483139 -0.011190899647772312 0.13699999451637268 254 255 249
0.07087492942810059 -0.011190899647772312 0.13699999451637268 254 255 249
0.07067738473415375 -0.011109214276075363 0.13600000739097595 254 255 249
0.07099717110395432 -0.011109214276075363 0.13600000739097595 255 253 249
0.07079257071018219 -0.011027528904378414 0.13500000536441803 255 253 249
0.0705832690000534 -0.010945843532681465 0.1340000033378601 255 246 247
0.07089836150407791 -0.010945843532681465 0.1340000033378601 244 224 225
0.07349661737680435 -0.010864158160984516 0.13300000131130219 255 234 219
0.07325439900159836 -0.010782472789287567 0.13199999928474426 255 244 230
0.07356478273868561 -0.010782472789287567 0.13199999928474426 255 239 225
0.07387516647577286 -0.010782472789287567 0.13199999928474426 249 229 230
0.07418555021286011 -0.010782472789287567 0.13199999928474426 239 219 220
0.07449593394994736 -0.010782472789287567 0.13199999928474426 214 196 204
0.07423960417509079 -0.010700787417590618 0.13099999725818634 214 196 204
0.07454763352870941 -0.010700787417590618 0.13099999725818634 224 202 216
0.07485567033290863 -0.010700787417590618 0.13099999725818634 210 188 202
0.07516369968652725 -0.010700787417590618 0.13099999725818634 222 200 216
0.07489561289548874 -0.010619102045893669 0.12999999523162842 220 198 214
0.07520129531621933 -0.010619102045893669 0.12999999523162842 207 185 201
0.07550697773694992 -0.010619102045893669 0.12999999523162842 196 174 190
0.07581266015768051 -0.010619102045893669 0.12999999523162842 188 167 176
0.0761183351278305 -0.010619102045893669 0.12999999523162842 180 159 168
0.0764240175485611 -0.010619102045893669 0.12999999523162842 183 158 168
0.07672969996929169 -0.010619102045893669 0.12999999523162842 182 157 167
0.07703538239002228 -0.010619102045893669 0.12999999523162842 181 156 168
0.07734106481075287 -0.010619102045893669 0.12999999523162842 169 144 156
0.07764674723148346 -0.010619102045893669 0.12999999523162842 174 148 167
0.07795242220163345 -0.010619102045893669 0.12999999523162842 181 155 174
0.07825810462236404 -0.010619102045893669 0.12999999523162842 183 154 172
0.07856378704309464 -0.010619102045893669 0.12999999523162842 178 149 167
0.07886946946382523 -0.010619102045893669 0.12999999523162842 176 138 151
0.07917515188455582 -0.010619102045893669 0.12999999523162842 170 132 145
0.08437173068523407 -0.010619102045893669 0.12999999523162842 166 136 131
0.08467741310596466 -0.010619102045893669 0.12999999523162842 158 128 123
0.08498309552669525 -0.010619102045893669 0.12999999523162842 152 122 117
0.08528877794742584 -0.010619102045893669 0.12999999523162842 159 129 124
0.08559445291757584 -0.010619102045893669 0.12999999523162842 159 128 126
0.08590013533830643 -0.010619102045893669 0.12999999523162842 153 122 120
0.08620581775903702 -0.010619102045893669 0.12999999523162842 154 118 122
0.08651150017976761 -0.010619102045893669 0.12999999523162842 147 111 115
0.0868171826004982 -0.010619102045893669 0.12999999523162842 149 111 115
0.08779303729534149 -0.010700787417590618 0.13099999725818634 139 101 105
0.08810107409954071 -0.010700787417590618 0.13099999725818634 141 102 109
0.08840910345315933 -0.010700787417590618 0.13099999725818634 145 106 113
0.08871713280677795 -0.010700787417590618 0.13099999725818634 149 110 119
0.08902516961097717 -0.010700787417590618 0.13099999725818634 148 109 118
0.0893331989645958 -0.010700787417590618 0.13099999725818634 146 111 123
0.08964123576879501 -0.010700787417590618 0.13099999725818634 154 119 131
0.08994926512241364 -0.010700787417590618 0.13099999725818634 149 121 132
0.09025730192661285 -0.010700787417590618 0.13099999725818634 154 126 137
0.09056533128023148 -0.010700787417590618 0.13099999725818634 150 120 134
0.0908733680844307 -0.010700787417590618 0.13099999725818634 148 118 132
0.09373974055051804 -0.010782472789287567 0.13199999928474426 135 97 99
0.09405012428760529 -0.010782472789287567 0.13199999928474426 139 101 103
0.09436050802469254 -0.010782472789287567 0.13199999928474426 143 107 107
0.09467089176177979 -0.010782472789287567 0.13199999928474426 148 112 112
0.0983109101653099 -0.010945843532681465 0.1340000033378601 156 127 131
0.09862599521875381 -0.010945843532681465 0.1340000033378601 158 129 133
0.09894108027219772 -0.010945843532681465 0.1340000033378601 156 138 144
0.09925617277622223 -0.010945843532681465 0.1340000033378601 154 136 142
0.09957125782966614 -0.010945843532681465 0.1340000033378601 155 137 145
0.09988634288311005 -0.010945843532681465 0.1340000033378601 155 137 145
0.06366105377674103 -0.011424096301198006 0.14399999380111694 255 228 218
0.06355521082878113 -0.01134476251900196 0.14300000667572021 255 244 234
0.0638914629817009 -0.01134476251900196 0.14300000667572021 254 252 242
0.06377856433391571 -0.011265428736805916 0.1420000046491623 255 255 245
0.06411246210336685 -0.011265428736805916 0.1420000046491623 254 255 249
0.064446359872818 -0.011265428736805916 0.1420000046491623 254 255 249
0.06432405859231949 -0.011186094023287296 0.14100000262260437 254 255 249
0.0646556094288826 -0.011186094023287296 0.14100000262260437 254 255 249
0.06498715281486511 -0.011186094023287296 0.14100000262260437 254 255 249
0.06531869620084763 -0.011186094023287296 0.14100000262260437 254 255 249
0.06565024703741074 -0.011186094023287296 0.14100000262260437 255 255 251
0.06551383435726166 -0.011106760241091251 0.14000000059604645 255 255 251
0.06584303081035614 -0.011106760241091251 0.14000000059604645 255 247 253
0.06617222726345062 -0.011106760241091251 0.14000000059604645 248 230 236
0.06814733892679214 -0.010948092676699162 0.1379999965429306 255 254 235
0.06847183406352997 -0.010948092676699162 0.1379999965429306 255 254 235
0.06879632920026779 -0.010948092676699162 0.1379999965429306 254 255 243
0.06912081688642502 -0.010948092676699162 0.1379999965429306 254 255 243
0.06944531202316284 -0.010948092676699162 0.1379999965429306 254 255 247
0.06976979970932007 -0.010948092676699162 0.1379999965429306 254 255 247
0.07009429484605789 -0.010948092676699162 0.1379999965429306 254 255 247
0.07041878998279572 -0.010948092676699162 0.1379999965429306 254 255 247
0.0702306479215622 -0.010868758894503117 0.13699999451637268 252 254 245
0.07055278867483139 -0.010868758894503117 0.13699999451637268 252 254 245
0.07087492942810059 -0.010868758894503117 0.13699999451637268 255 252 247
0.07067738473415375 -0.010789424180984497 0.13600000739097595 255 250 245
0.07099717110395432 -0.010789424180984497 0.13600000739097595 255 228 227
0.07079257071018219 -0.010710090398788452 0.13500000536441803 241 213 212
0.07581266015768051 -0.010313420556485653 0.12999999523162842 201 162 169
0.0761183351278305 -0.010313420556485653 0.12999999523162842 191 152 159
0.0764240175485611 -0.010313420556485653 0.12999999523162842 183 146 153
0.07672969996929169 -0.010313420556485653 0.12999999523162842 176 139 146
