0.06828825175762177 -0.020714761689305305 0.13199999928474426 255 104 112
0.06859863549470901 -0.020714761689305305 0.13199999928474426 253 98 106
0.06890901923179626 -0.020714761689305305 0.13199999928474426 253 98 106
0.06921940296888351 -0.020714761689305305 0.13199999928474426 251 96 104
0.06952978670597076 -0.020714761689305305 0.13199999928474426 244 91 98
0.06931108236312866 -0.0205578301101923 0.13099999725818634 246 93 100
0.06961911171674728 -0.0205578301101923 0.13099999725818634 242 92 100
0.0699271485209465 -0.0205578301101923 0.13099999725818634 234 84 92
0.07023517787456512 -0.0205578301101923 0.13099999725818634 234 87 92
0.07054321467876434 -0.0205578301101923 0.13099999725818634 239 92 97
0.05504577234387398 -0.023495949804782867 0.15199999511241913 247 128 135
0.05540318414568901 -0.023495949804782867 0.15199999511241913 248 129 136
0.055760595947504044 -0.023495949804782867 0.15199999511241913 251 130 138
0.05611800774931908 -0.023495949804782867 0.15199999511241913 255 135 143
0.05647541955113411 -0.023495949804782867 0.15199999511241913 255 138 149
0.05683283135294914 -0.023495949804782867 0.15199999511241913 255 145 156
0.05681399255990982 -0.02334137074649334 0.1509999930858612 255 139 152
0.057169053703546524 -0.02334137074649334 0.1509999930858612 255 139 152
0.057143159210681915 -0.02318679168820381 0.15000000596046448 255 143 155
0.05749586969614029 -0.02318679168820381 0.15000000596046448 255 146 158
0.057462919503450394 -0.023032212629914284 0.14900000393390656 255 141 156
0.05781327933073044 -0.023032212629914284 0.14900000393390656 253 129 144
0.057773277163505554 -0.022877635434269905 0.14800000190734863 248 110 130
0.05772856995463371 -0.022723056375980377 0.1469999998807907 242 104 124
0.0580742247402668 -0.022723056375980377 0.1469999998807907 250 104 127
0.05796600505709648 -0.02241389825940132 0.14499999582767487 254 106 125
0.05750272423028946 -0.022104742005467415 0.14300000667572021 246 98 117
0.057434502989053726 -0.021950162947177887 0.1420000046491623 246 97 114
0.05776840075850487 -0.021950162947177887 0.1420000046491623 254 105 122
0.05810229852795601 -0.021950162947177887 0.1420000046491623 251 104 116
0.05802467465400696 -0.02179558388888836 0.14100000262260437 255 113 125
0.05835622176527977 -0.02179558388888836 0.14100000262260437 255 109 119
0.05827154219150543 -0.02164100669324398 0.14000000059604645 248 101 111
0.058600738644599915 -0.02164100669324398 0.14000000059604645 250 100 106
0.0589299350976944 -0.02164100669324398 0.14000000059604645 249 99 105
0.05925912782549858 -0.02164100669324398 0.14000000059604645 251 101 105
0.05958832427859306 -0.02164100669324398 0.14000000059604645 251 101 105
0.059917520731687546 -0.02164100669324398 0.14000000059604645 251 101 105
0.06024671345949173 -0.02164100669324398 0.14000000059604645 249 99 103
0.06057590991258621 -0.02164100669324398 0.14000000059604645 251 101 105
0.060905102640390396 -0.02164100669324398 0.14000000059604645 255 106 110
0.06123429909348488 -0.02164100669324398 0.14000000059604645 249 102 107
0.06156349554657936 -0.02164100669324398 0.14000000059604645 255 110 115
0.061892688274383545 -0.02164100669324398 0.14000000059604645 255 113 118
0.06222188472747803 -0.02164100669324398 0.14000000059604645 254 107 112
0.06255108118057251 -0.02164100669324398 0.14000000059604645 255 108 123
0.06332942098379135 -0.02179558388888836 0.14100000262260437 255 116 131
0.0674983561038971 -0.021331848576664925 0.1379999965429306 245 103 113
0.06733138114213943 -0.021177269518375397 0.13699999451637268 253 111 121
0.06765352189540863 -0.021177269518375397 0.13699999451637268 255 115 119
0.06747949123382568 -0.02102269046008587 0.13600000739097595 250 107 111
0.06779927760362625 -0.02102269046008587 0.13600000739097595 251 101 107
0.06711731851100922 -0.020713534206151962 0.1340000033378601 249 99 105
0.06743240356445312 -0.020713534206151962 0.1340000033378601 248 89 100
0.06724191457033157 -0.020558955147862434 0.13300000131130219 244 85 96
0.06704671680927277 -0.020404376089572906 0.13199999928474426 249 90 101
0.06735710054636002 -0.020404376089572906 0.13199999928474426 255 97 108
0.06766748428344727 -0.020404376089572906 0.13199999928474426 246 88 99
0.06797786802053452 -0.020404376089572906 0.13199999928474426 240 82 93
0.06828825175762177 -0.020404376089572906 0.13199999928474426 248 90 97
0.06859863549470901 -0.020404376089572906 0.13199999928474426 240 82 89
0.05504577234387398 -0.023138538002967834 0.15199999511241913 255 136 144
0.05540318414568901 -0.023138538002967834 0.15199999511241913 248 127 135
0.055760595947504044 -0.023138538002967834 0.15199999511241913 249 128 136
0.05611800774931908 -0.023138538002967834 0.15199999511241913 252 131 139
0.05647541955113411 -0.023138538002967834 0.15199999511241913 255 138 152
0.05683283135294914 -0.023138538002967834 0.15199999511241913 255 142 156
0.05681399255990982 -0.022986309602856636 0.1509999930858612 255 139 157
0.057169053703546524 -0.022986309602856636 0.1509999930858612 255 141 159
0.057143159210681915 -0.022834083065390587 0.15000000596046448 255 142 158
0.05749586969614029 -0.022834083065390587 0.15000000596046448 255 141 157
0.057462919503450394 -0.022681856527924538 0.14900000393390656 255 135 150
0.05781327933073044 -0.022681856527924538 0.14900000393390656 251 127 142
0.057773277163505554 -0.02252962812781334 0.14800000190734863 252 118 137
0.05772856995463371 -0.02237740159034729 0.1469999998807907 245 111 130
0.0580742247402668 -0.02237740159034729 0.1469999998807907 253 109 131
0.057566240429878235 -0.021920720115303993 0.14399999380111694 251 103 122
0.05750272423028946 -0.021768491715192795 0.14300000667572021 251 103 122
0.05783897265791893 -0.021768491715192795 0.14300000667572021 245 97 114
0.05776840075850487 -0.021616265177726746 0.1420000046491623 255 107 124
0.057693127542734146 -0.021464038640260696 0.14100000262260437 255 110 122
0.05802467465400696 -0.021464038640260696 0.14100000262260437 255 108 120
0.05794234946370125 -0.021311810240149498 0.14000000059604645 254 106 116
0.05827154219150543 -0.021311810240149498 0.14000000059604645 250 102 112
0.058600738644599915 -0.021311810240149498 0.14000000059604645 248 98 104
0.0589299350976944 -0.021311810240149498 0.14000000059604645 252 102 108
0.05925912782549858 -0.021311810240149498 0.14000000059604645 255 105 110
0.05958832427859306 -0.021311810240149498 0.14000000059604645 253 100 105
0.059917520731687546 -0.021311810240149498 0.14000000059604645 255 105 109
0.06024671345949173 -0.021311810240149498 0.14000000059604645 255 105 109
0.06057590991258621 -0.021311810240149498 0.14000000059604645 247 97 101
0.060905102640390396 -0.021311810240149498 0.14000000059604645 249 99 103
0.06123429909348488 -0.021311810240149498 0.14000000059604645 255 117 122
0.06156349554657936 -0.021311810240149498 0.14000000059604645 255 117 122
0.061892688274383545 -0.021311810240149498 0.14000000059604645 255 115 121
0.06222188472747803 -0.021311810240149498 0.14000000059604645 254 111 117
0.06255108118057251 -0.021311810240149498 0.14000000059604645 255 110 124
0.06288027763366699 -0.021311810240149498 0.14000000059604645 255 119 133
0.06717386096715927 -0.02100735530257225 0.1379999965429306 250 101 116
0.0674983561038971 -0.02100735530257225 0.1379999965429306 247 99 109
0.06733138114213943 -0.0208551287651062 0.13699999451637268 252 104 114
0.06765352189540863 -0.0208551287651062 0.13699999451637268 252 102 108
0.06747949123382568 -0.020702902227640152 0.13600000739097595 251 101 107
0.06730075180530548 -0.020550673827528954 0.13500000536441803 246 88 99
0.06711731851100922 -0.020398447290062904 0.1340000033378601 247 89 100
0.06743240356445312 -0.020398447290062904 0.1340000033378601 249 87 99
0.06724191457033157 -0.020246220752596855 0.13300000131130219 250 88 100
0.06755464524030685 -0.020246220752596855 0.13300000131130219 250 87 102
0.06786738336086273 -0.020246220752596855 0.13300000131130219 245 82 97
0.06818011403083801 -0.020246220752596855 0.13300000131130219 248 90 101
0.06849285215139389 -0.020246220752596855 0.13300000131130219 239 81 92
0.06880559027194977 -0.020246220752596855 0.13300000131130219 235 83 85
0.06859863549470901 -0.020093992352485657 0.13199999928474426 239 87 89
0.06890901923179626 -0.020093992352485657 0.13199999928474426 233 87 85
0.05504577234387398 -0.0227811262011528 0.15199999511241913 251 128 136
0.05540318414568901 -0.0227811262011528 0.15199999511241913 251 128 136
0.055760595947504044 -0.0227811262011528 0.15199999511241913 252 129 137
0.05611800774931908 -0.0227811262011528 0.15199999511241913 251 128 136
0.05647541955113411 -0.0227811262011528 0.15199999511241913 250 130 144
0.05645893141627312 -0.022631250321865082 0.1509999930858612 254 134 148
0.05681399255990982 -0.022631250321865082 0.1509999930858612 255 137 155
0.057169053703546524 -0.022631250321865082 0.1509999930858612 254 136 154
0.057143159210681915 -0.022481374442577362 0.15000000596046448 253 135 151
0.05749586969614029 -0.022481374442577362 0.15000000596046448 250 132 148
0.057848576456308365 -0.022481374442577362 0.15000000596046448 253 131 144
0.05820128694176674 -0.022481374442577362 0.15000000596046448 249 127 140
0.058163635432720184 -0.022331498563289642 0.14900000393390656 253 119 136
0.05772856995463371 -0.022031746804714203 0.1469999998807907 247 113 130
0.0580742247402668 -0.022031746804714203 0.1469999998807907 242 101 120
0.057566240429878235 -0.021582119166851044 0.14399999380111694 249 104 122
0.057904839515686035 -0.021582119166851044 0.14399999380111694 253 108 126
0.057693127542734146 -0.021132491528987885 0.14100000262260437 250 101 116
0.057613153010606766 -0.020982615649700165 0.14000000059604645 252 103 118
0.05794234946370125 -0.020982615649700165 0.14000000059604645 249 101 113
0.05827154219150543 -0.020982615649700165 0.14000000059604645 246 98 110
0.058600738644599915 -0.020982615649700165 0.14000000059604645 248 98 106
0.0589299350976944 -0.020982615649700165 0.14000000059604645 249 99 107
0.05925912782549858 -0.020982615649700165 0.14000000059604645 252 99 108
0.05958832427859306 -0.020982615649700165 0.14000000059604645 246 93 102
0.059917520731687546 -0.020982615649700165 0.14000000059604645 255 107 111
0.06024671345949173 -0.020982615649700165 0.14000000059604645 255 109 113
0.06057590991258621 -0.020982615649700165 0.14000000059604645 251 101 107
0.060905102640390396 -0.020982615649700165 0.14000000059604645 252 102 108
0.06123429909348488 -0.020982615649700165 0.14000000059604645 255 120 127
0.06156349554657936 -0.020982615649700165 0.14000000059604645 255 117 124
0.061892688274383545 -0.020982615649700165 0.14000000059604645 246 105 110
0.06222188472747803 -0.020982615649700165 0.14000000059604645 255 115 120
0.06255108118057251 -0.020982615649700165 0.14000000059604645 255 114 127
0.06288027763366699 -0.020982615649700165 0.14000000059604645 255 114 127
0.06717386096715927 -0.020682863891124725 0.1379999965429306 240 87 96
0.0674983561038971 -0.020682863891124725 0.1379999965429306 253 98 106
0.066665880382061 -0.020233236253261566 0.13500000536441803 248 93 101
0.06698331236839294 -0.020233236253261566 0.13500000536441803 254 99 107
0.06730075180530548 -0.020233236253261566 0.13500000536441803 240 81 90
0.06711731851100922 -0.020083360373973846 0.1340000033378601 239 80 89
0.06743240356445312 -0.020083360373973846 0.1340000033378601 242 82 96
0.06724191457033157 -0.019933484494686127 0.13300000131130219 246 86 100
0.06755464524030685 -0.019933484494686127 0.13300000131130219 253 93 109
0.06818011403083801 -0.019933484494686127 0.13300000131130219 238 83 91
0.06911832094192505 -0.019933484494686127 0.13300000131130219 234 88 88
0.05504577234387398 -0.02242371439933777 0.15199999511241913 249 123 137
0.05540318414568901 -0.02242371439933777 0.15199999511241913 251 125 139
0.055760595947504044 -0.02242371439933777 0.15199999511241913 248 125 135
0.05611800774931908 -0.02242371439933777 0.15199999511241913 253 130 140
0.05647541955113411 -0.02242371439933777 0.15199999511241913 252 132 144
0.05645893141627312 -0.02227618917822838 0.1509999930858612 255 138 150
0.05681399255990982 -0.02227618917822838 0.1509999930858612 247 130 143
0.057169053703546524 -0.02227618917822838 0.1509999930858612 254 137 150
0.057143159210681915 -0.022128663957118988 0.15000000596046448 255 141 157
0.05749586969614029 -0.022128663957118988 0.15000000596046448 255 137 153
0.057848576456308365 -0.022128663957118988 0.15000000596046448 255 134 149
0.05820128694176674 -0.022128663957118988 0.15000000596046448 252 128 143
0.057773277163505554 -0.021833615377545357 0.14800000190734863 251 117 136
0.05772856995463371 -0.021686092019081116 0.1469999998807907 247 113 132
0.05767916142940521 -0.021538566797971725 0.1459999978542328 250 112 130
0.05802246555685997 -0.021538566797971725 0.1459999978542328 242 104 122
0.057566240429878235 -0.021243518218398094 0.14399999380111694 249 104 122
0.057100605219602585 -0.020948469638824463 0.1420000046491623 251 106 124
0.05703003704547882 -0.020800944417715073 0.14100000262260437 246 98 115
0.057361580431461334 -0.020800944417715073 0.14100000262260437 246 98 115
0.05728395655751228 -0.02065342105925083 0.14000000059604645 241 93 105
0.057613153010606766 -0.02065342105925083 0.14000000059604645 248 100 112
0.05794234946370125 -0.02065342105925083 0.14000000059604645 247 99 109
0.05827154219150543 -0.02065342105925083 0.14000000059604645 247 99 109
0.058600738644599915 -0.02065342105925083 0.14000000059604645 250 99 110
0.0589299350976944 -0.02065342105925083 0.14000000059604645 245 94 105
0.05925912782549858 -0.02065342105925083 0.14000000059604645 242 92 100
0.0591626912355423 -0.02050589583814144 0.13899999856948853 242 92 100
0.05948953703045845 -0.02050589583814144 0.13899999856948853 254 103 114
0.059816379100084305 -0.02050589583814144 0.13899999856948853 255 107 118
0.06014322489500046 -0.02050589583814144 0.13899999856948853 253 105 115
0.06047006696462631 -0.02050589583814144 0.13899999856948853 254 106 116
0.060796912759542465 -0.02050589583814144 0.13899999856948853 255 112 122
0.06112375482916832 -0.02050589583814144 0.13899999856948853 255 115 125
0.06145060062408447 -0.02050589583814144 0.13899999856948853 247 103 112
0.06177744269371033 -0.02050589583814144 0.13899999856948853 255 113 122
0.06210428848862648 -0.02050589583814144 0.13899999856948853 255 113 124
0.066665880382061 -0.01991579867899418 0.13500000536441803 249 91 100
0.06698331236839294 -0.01991579867899418 0.13500000536441803 243 85 94
0.06680222600698471 -0.01976827345788479 0.1340000033378601 236 81 89
0.06724191457033157 -0.019620750099420547 0.13300000131130219 237 82 92
0.06755464524030685 -0.019620750099420547 0.13300000131130219 236 83 92
0.05504577234387398 -0.022066300734877586 0.15199999511241913 251 125 141
0.05540318414568901 -0.022066300734877586 0.15199999511241913 253 127 143
0.055760595947504044 -0.022066300734877586 0.15199999511241913 253 129 142
0.05611800774931908 -0.022066300734877586 0.15199999511241913 255 133 146
0.05647541955113411 -0.022066300734877586 0.15199999511241913 255 135 147
0.05645893141627312 -0.021921128034591675 0.1509999930858612 255 139 151
0.05681399255990982 -0.021921128034591675 0.1509999930858612 250 133 144
0.057169053703546524 -0.021921128034591675 0.1509999930858612 247 130 141
0.05752411484718323 -0.021921128034591675 0.1509999930858612 252 135 148
0.05749586969614029 -0.021775955334305763 0.15000000596046448 255 140 153
0.057848576456308365 -0.021775955334305763 0.15000000596046448 246 124 139
0.05820128694176674 -0.021775955334305763 0.15000000596046448 243 121 136
0.057773277163505554 -0.02148560993373394 0.14800000190734863 247 118 133
0.05772856995463371 -0.02134043723344803 0.1469999998807907 246 117 132
0.05767916142940521 -0.021195262670516968 0.1459999978542328 255 118 133
0.05802246555685997 -0.021195262670516968 0.1459999978542328 249 112 127
0.05716647207736969 -0.020759744569659233 0.14300000667572021 247 102 116
0.057100605219602585 -0.02061457186937332 0.1420000046491623 249 104 118
0.05703003704547882 -0.02046939730644226 0.14100000262260437 247 103 114
0.057361580431461334 -0.02046939730644226 0.14100000262260437 249 105 116
0.05728395655751228 -0.02032422460615635 0.14000000059604645 251 104 114
0.057613153010606766 -0.02032422460615635 0.14000000059604645 251 104 114
0.05794234946370125 -0.02032422460615635 0.14000000059604645 248 100 110
0.05827154219150543 -0.02032422460615635 0.14000000059604645 246 98 108
0.058600738644599915 -0.02032422460615635 0.14000000059604645 255 107 119
0.0589299350976944 -0.02032422460615635 0.14000000059604645 255 108 120
0.05925912782549858 -0.02032422460615635 0.14000000059604645 252 104 116
0.0591626912355423 -0.020179051905870438 0.13899999856948853 248 100 112
0.05948953703045845 -0.020179051905870438 0.13899999856948853 247 98 113
0.059816379100084305 -0.020179051905870438 0.13899999856948853 253 104 119
0.06014322489500046 -0.020179051905870438 0.13899999856948853 254 106 121
0.06047006696462631 -0.020179051905870438 0.13899999856948853 253 105 120
0.060796912759542465 -0.020179051905870438 0.13899999856948853 254 107 119
0.06112375482916832 -0.020179051905870438 0.13899999856948853 255 110 122
0.06145060062408447 -0.020179051905870438 0.13899999856948853 255 110 122
0.06177744269371033 -0.020179051905870438 0.13899999856948853 255 110 122
0.06210428848862648 -0.020179051905870438 0.13899999856948853 253 109 120
0.06275797635316849 -0.020179051905870438 0.13899999856948853 255 116 127
0.06308481842279434 -0.020179051905870438 0.13899999856948853 250 106 117
0.0640653520822525 -0.020179051905870438 0.13899999856948853 239 91 101
0.06439219415187836 -0.020179051905870438 0.13899999856948853 242 94 104
0.06471903622150421 -0.020179051905870438 0.13899999856948853 248 93 103
0.066665880382061 -0.019598359242081642 0.13500000536441803 240 85 91
0.06698331236839294 -0.019598359242081642 0.13500000536441803 238 83 89
0.06680222600698471 -0.01945318654179573 0.1340000033378601 238 86 88
0.06711731851100922 -0.01945318654179573 0.1340000033378601 239 87 89
0.06743240356445312 -0.01945318654179573 0.1340000033378601 232 85 90
0.07511670142412186 -0.019162841141223907 0.13199999928474426 199 112 110
0.0754270851612091 -0.019162841141223907 0.13199999928474426 197 110 108
0.05504577234387398 -0.021708888933062553 0.15199999511241913 248 124 137
0.05540318414568901 -0.021708888933062553 0.15199999511241913 251 127 140
0.055760595947504044 -0.021708888933062553 0.15199999511241913 252 130 143
0.05611800774931908 -0.021708888933062553 0.15199999511241913 255 134 147
0.05647541955113411 -0.021708888933062553 0.15199999511241913 255 135 148
0.05645893141627312 -0.02156606875360012 0.1509999930858612 255 137 150
0.05681399255990982 -0.02156606875360012 0.1509999930858612 255 144 156
0.057169053703546524 -0.02156606875360012 0.1509999930858612 250 130 142
0.05752411484718323 -0.02156606875360012 0.1509999930858612 255 137 149
0.05787917599081993 -0.02156606875360012 0.1509999930858612 255 135 147
0.057848576456308365 -0.02142324671149254 0.15000000596046448 248 128 142
0.05820128694176674 -0.02142324671149254 0.15000000596046448 249 129 143
0.057773277163505554 -0.021137602627277374 0.14800000190734863 245 119 133
0.05772856995463371 -0.020994780585169792 0.1469999998807907 239 113 127
0.0580742247402668 -0.020994780585169792 0.1469999998807907 243 108 120
0.05716647207736969 -0.020423494279384613 0.14300000667572021 240 101 110
0.057100605219602585 -0.02028067409992218 0.1420000046491623 243 104 113
0.05703003704547882 -0.020137852057814598 0.14100000262260437 250 108 116
0.057361580431461334 -0.020137852057814598 0.14100000262260437 250 108 116
0.05728395655751228 -0.019995030015707016 0.14000000059604645 250 106 115
0.057613153010606766 -0.019995030015707016 0.14000000059604645 250 106 115
0.05794234946370125 -0.019995030015707016 0.14000000059604645 248 101 111
0.05827154219150543 -0.019995030015707016 0.14000000059604645 246 99 109
0.058600738644599915 -0.019995030015707016 0.14000000059604645 255 111 126
0.0589299350976944 -0.019995030015707016 0.14000000059604645 255 111 126
0.05925912782549858 -0.019995030015707016 0.14000000059604645 255 108 127
0.0591626912355423 -0.019852207973599434 0.13899999856948853 255 107 126
0.05948953703045845 -0.019852207973599434 0.13899999856948853 255 106 128
0.059816379100084305 -0.019852207973599434 0.13899999856948853 255 108 130
0.06014322489500046 -0.019852207973599434 0.13899999856948853 255 111 128
0.06047006696462631 -0.019852207973599434 0.13899999856948853 255 109 126
0.060796912759542465 -0.019852207973599434 0.13899999856948853 246 101 115
0.06112375482916832 -0.019852207973599434 0.13899999856948853 251 106 120
0.06145060062408447 -0.019852207973599434 0.13899999856948853 255 111 120
0.06177744269371033 -0.019852207973599434 0.13899999856948853 255 114 123
0.06210428848862648 -0.019852207973599434 0.13899999856948853 255 109 119
0.062431130558252335 -0.019852207973599434 0.13899999856948853 255 108 118
0.06275797635316849 -0.019852207973599434 0.13899999856948853 255 107 117
0.06308481842279434 -0.019852207973599434 0.13899999856948853 253 105 115
0.0634116604924202 -0.019852207973599434 0.13899999856948853 251 100 111
0.06373850256204605 -0.019852207973599434 0.13899999856948853 250 99 110
0.0640653520822525 -0.019852207973599434 0.13899999856948853 246 88 97
0.06439219415187836 -0.019852207973599434 0.13899999856948853 243 85 94
0.06471903622150421 -0.019852207973599434 0.13899999856948853 253 91 101
0.07474756240844727 -0.01899527758359909 0.13300000131130219 200 108 106
0.07506029307842255 -0.01899527758359909 0.13300000131130219 199 115 110
0.0748063176870346 -0.018852457404136658 0.13199999928474426 198 114 109
0.07511670142412186 -0.018852457404136658 0.13199999928474426 194 110 110
0.0754270851612091 -0.018852457404136658 0.13199999928474426 190 106 106
0.0760478526353836 -0.018852457404136658 0.13199999928474426 195 117 117
0.07635823637247086 -0.018852457404136658 0.13199999928474426 187 109 109
0.0772893875837326 -0.018852457404136658 0.13199999928474426 187 109 109
0.07759977132081985 -0.018852457404136658 0.13199999928474426 192 113 116
0.07822053879499435 -0.018852457404136658 0.13199999928474426 185 108 110
0.05504577234387398 -0.02135147713124752 0.15199999511241913 253 130 140
0.05540318414568901 -0.02135147713124752 0.15199999511241913 253 130 140
0.055760595947504044 -0.02135147713124752 0.15199999511241913 255 134 144
0.05611800774931908 -0.02135147713124752 0.15199999511241913 255 134 144
0.05647541955113411 -0.02135147713124752 0.15199999511241913 255 134 144
0.05645893141627312 -0.021211007609963417 0.1509999930858612 253 132 142
0.05681399255990982 -0.021211007609963417 0.1509999930858612 255 142 152
0.057169053703546524 -0.021211007609963417 0.1509999930858612 251 130 140
0.05752411484718323 -0.021211007609963417 0.1509999930858612 255 138 147
0.05787917599081993 -0.021211007609963417 0.1509999930858612 255 139 148
0.057848576456308365 -0.021070538088679314 0.15000000596046448 253 136 147
0.05820128694176674 -0.021070538088679314 0.15000000596046448 250 133 144
0.057773277163505554 -0.020789597183465958 0.14800000190734863 248 124 137
0.05812128260731697 -0.020789597183465958 0.14800000190734863 246 122 135
0.056766707450151443 -0.01994677446782589 0.1420000046491623 250 111 118
0.05669848993420601 -0.019806304946541786 0.14100000262260437 249 110 117
0.05703003704547882 -0.019806304946541786 0.14100000262260437 249 107 115
0.057361580431461334 -0.019806304946541786 0.14100000262260437 245 103 111
0.05728395655751228 -0.019665835425257683 0.14000000059604645 249 105 114
0.057613153010606766 -0.019665835425257683 0.14000000059604645 252 108 117
0.05794234946370125 -0.019665835425257683 0.14000000059604645 246 102 111
0.05827154219150543 -0.019665835425257683 0.14000000059604645 246 102 111
0.058600738644599915 -0.019665835425257683 0.14000000059604645 253 108 124
0.0589299350976944 -0.019665835425257683 0.14000000059604645 255 110 126
0.05883584916591644 -0.01952536404132843 0.13899999856948853 254 108 129
0.0591626912355423 -0.01952536404132843 0.13899999856948853 252 106 127
0.05948953703045845 -0.01952536404132843 0.13899999856948853 255 112 133
0.059816379100084305 -0.01952536404132843 0.13899999856948853 255 112 133
0.06014322489500046 -0.01952536404132843 0.13899999856948853 255 110 128
0.06047006696462631 -0.01952536404132843 0.13899999856948853 253 108 126
0.060796912759542465 -0.01952536404132843 0.13899999856948853 239 95 106
0.06112375482916832 -0.01952536404132843 0.13899999856948853 246 102 113
0.06145060062408447 -0.01952536404132843 0.13899999856948853 255 111 118
0.06177744269371033 -0.01952536404132843 0.13899999856948853 255 113 120
0.06210428848862648 -0.01952536404132843 0.13899999856948853 249 99 103
0.062431130558252335 -0.01952536404132843 0.13899999856948853 243 93 97
0.06275797635316849 -0.01952536404132843 0.13899999856948853 255 101 110
0.06308481842279434 -0.01952536404132843 0.13899999856948853 255 97 106
0.0634116604924202 -0.01952536404132843 0.13899999856948853 247 88 99
0.06373850256204605 -0.01952536404132843 0.13899999856948853 248 89 100
0.0640653520822525 -0.01952536404132843 0.13899999856948853 250 85 96
0.06439219415187836 -0.01952536404132843 0.13899999856948853 243 78 89
0.06471903622150421 -0.01952536404132843 0.13899999856948853 246 84 92
0.06537272781133652 -0.01952536404132843 0.13899999856948853 247 88 95
0.06522691249847412 -0.019384894520044327 0.1379999965429306 244 85 92
0.07380935549736023 -0.01868254318833351 0.13300000131130219 205 116 115
0.07412209361791611 -0.01868254318833351 0.13300000131130219 206 117 116
0.07443482428789139 -0.01868254318833351 0.13300000131130219 201 114 112
0.07474756240844727 -0.01868254318833351 0.13300000131130219 214 127 125
0.07506029307842255 -0.01868254318833351 0.13300000131130219 218 134 131
0.07537303119897842 -0.01868254318833351 0.13300000131130219 215 131 128
0.0756857693195343 -0.01868254318833351 0.13300000131130219 197 119 119
0.0754270851612091 -0.018542073667049408 0.13199999928474426 199 121 121
0.07573746889829636 -0.018542073667049408 0.13199999928474426 196 123 124
0.0760478526353836 -0.018542073667049408 0.13199999928474426 190 117 118
0.07635823637247086 -0.018542073667049408 0.13199999928474426 189 116 117
0.0766686201095581 -0.018542073667049408 0.13199999928474426 189 116 117
0.07697900384664536 -0.018542073667049408 0.13199999928474426 184 111 112
0.07759977132081985 -0.018542073667049408 0.13199999928474426 184 111 112
0.0779101550579071 -0.018542073667049408 0.13199999928474426 184 111 112
0.07822053879499435 -0.018542073667049408 0.13199999928474426 182 109 110
0.0785309225320816 -0.018542073667049408 0.13199999928474426 184 111 112
0.07884130626916885 -0.018542073667049408 0.13199999928474426 183 109 110
0.08318668603897095 -0.018542073667049408 0.13199999928474426 178 111 112
0.08502074331045151 -0.018401602283120155 0.13099999725818634 177 112 114
0.05504577234387398 -0.020994065329432487 0.15199999511241913 252 131 141
0.05540318414568901 -0.020994065329432487 0.15199999511241913 249 128 138
0.055760595947504044 -0.020994065329432487 0.15199999511241913 250 129 139
0.05611800774931908 -0.020994065329432487 0.15199999511241913 250 129 139
0.05647541955113411 -0.020994065329432487 0.15199999511241913 250 129 139
0.05645893141627312 -0.020855946466326714 0.1509999930858612 252 131 141
0.05681399255990982 -0.020855946466326714 0.1509999930858612 255 134 144
0.057169053703546524 -0.020855946466326714 0.1509999930858612 255 134 144
0.05752411484718323 -0.020855946466326714 0.1509999930858612 255 137 146
0.05787917599081993 -0.020855946466326714 0.1509999930858612 255 140 149
0.057848576456308365 -0.02071782760322094 0.15000000596046448 255 140 151
0.05820128694176674 -0.02071782760322094 0.15000000596046448 254 137 148
0.057773277163505554 -0.020441589877009392 0.14800000190734863 252 126 140
0.05812128260731697 -0.020441589877009392 0.14800000190734863 251 125 139
0.056889038532972336 -0.019889114424586296 0.14399999380111694 249 116 126
0.057227637618780136 -0.019889114424586296 0.14399999380111694 242 109 119
0.056766707450151443 -0.019612876698374748 0.1420000046491623 249 113 119
0.05669848993420601 -0.019474757835268974 0.14100000262260437 248 112 118
0.05703003704547882 -0.019474757835268974 0.14100000262260437 250 111 118
0.057361580431461334 -0.019474757835268974 0.14100000262260437 242 103 110
0.05728395655751228 -0.0193366389721632 0.14000000059604645 245 103 111
0.057613153010606766 -0.0193366389721632 0.14000000059604645 255 116 124
0.05794234946370125 -0.0193366389721632 0.14000000059604645 250 108 118
0.05827154219150543 -0.0193366389721632 0.14000000059604645 251 109 119
0.058600738644599915 -0.0193366389721632 0.14000000059604645 254 109 125
0.0589299350976944 -0.0193366389721632 0.14000000059604645 254 109 125
0.05883584916591644 -0.019198520109057426 0.13899999856948853 253 108 126
0.0591626912355423 -0.019198520109057426 0.13899999856948853 251 106 124
0.05948953703045845 -0.019198520109057426 0.13899999856948853 252 107 125
0.059816379100084305 -0.019198520109057426 0.13899999856948853 253 108 126
0.06014322489500046 -0.019198520109057426 0.13899999856948853 255 111 128
0.06047006696462631 -0.019198520109057426 0.13899999856948853 255 111 128
0.060796912759542465 -0.019198520109057426 0.13899999856948853 252 104 114
0.06112375482916832 -0.019198520109057426 0.13899999856948853 252 104 114
0.06145060062408447 -0.019198520109057426 0.13899999856948853 253 100 107
0.06177744269371033 -0.019198520109057426 0.13899999856948853 255 103 110
0.06210428848862648 -0.019198520109057426 0.13899999856948853 240 81 88
0.062431130558252335 -0.019198520109057426 0.13899999856948853 246 87 94
0.06275797635316849 -0.019198520109057426 0.13899999856948853 255 96 104
0.06308481842279434 -0.019198520109057426 0.13899999856948853 255 95 103
0.0634116604924202 -0.019198520109057426 0.13899999856948853 244 79 90
0.06373850256204605 -0.019198520109057426 0.13899999856948853 243 78 89
0.0640653520822525 -0.019198520109057426 0.13899999856948853 243 81 91
0.06439219415187836 -0.019198520109057426 0.13899999856948853 246 84 94
0.06471903622150421 -0.019198520109057426 0.13899999856948853 241 79 87
0.06522691249847412 -0.019060401245951653 0.1379999965429306 237 82 88
0.06555140018463135 -0.019060401245951653 0.1379999965429306 235 86 87
0.07349661737680435 -0.018369806930422783 0.13300000131130219 213 118 119
0.07380935549736023 -0.018369806930422783 0.13300000131130219 217 127 129
0.07412209361791611 -0.018369806930422783 0.13300000131130219 218 128 130
0.07443482428789139 -0.018369806930422783 0.13300000131130219 215 127 128
0.07474756240844727 -0.018369806930422783 0.13300000131130219 215 127 128
0.07506029307842255 -0.018369806930422783 0.13300000131130219 209 125 125
0.07537303119897842 -0.018369806930422783 0.13300000131130219 206 122 122
0.0756857693195343 -0.018369806930422783 0.13300000131130219 203 130 131
0.0754270851612091 -0.01823168806731701 0.13199999928474426 200 127 128
0.07573746889829636 -0.01823168806731701 0.13199999928474426 179 117 114
0.0760478526353836 -0.01823168806731701 0.13199999928474426 187 125 122
0.07635823637247086 -0.01823168806731701 0.13199999928474426 184 117 116
0.0766686201095581 -0.01823168806731701 0.13199999928474426 186 119 118
0.07697900384664536 -0.01823168806731701 0.13199999928474426 183 117 113
0.0772893875837326 -0.01823168806731701 0.13199999928474426 182 116 112
0.0779101550579071 -0.01823168806731701 0.13199999928474426 185 116 113
0.07822053879499435 -0.01823168806731701 0.13199999928474426 187 118 115
0.0785309225320816 -0.01823168806731701 0.13199999928474426 182 113 110
0.07884130626916885 -0.01823168806731701 0.13199999928474426 187 114 112
0.0791516974568367 -0.01823168806731701 0.13199999928474426 188 115 113
0.0822555348277092 -0.01823168806731701 0.13199999928474426 186 124 107
0.08256591856479645 -0.01823168806731701 0.13199999928474426 191 128 118
0.0828763023018837 -0.01823168806731701 0.13199999928474426 185 122 112
0.08255648612976074 -0.018093569204211235 0.13099999725818634 183 118 116
0.05504577234387398 -0.020636653527617455 0.15199999511241913 246 123 131
0.05540318414568901 -0.020636653527617455 0.15199999511241913 252 129 137
0.055760595947504044 -0.020636653527617455 0.15199999511241913 248 125 133
0.05611800774931908 -0.020636653527617455 0.15199999511241913 250 127 135
0.05647541955113411 -0.020636653527617455 0.15199999511241913 251 130 138
0.05645893141627312 -0.02050088718533516 0.1509999930858612 255 134 142
0.05681399255990982 -0.02050088718533516 0.1509999930858612 255 136 144
0.057169053703546524 -0.02050088718533516 0.1509999930858612 255 137 145
0.05752411484718323 -0.02050088718533516 0.1509999930858612 255 139 146
0.05787917599081993 -0.02050088718533516 0.1509999930858612 255 139 146
0.057848576456308365 -0.020365118980407715 0.15000000596046448 255 139 153
0.05820128694176674 -0.020365118980407715 0.15000000596046448 251 131 145
0.057773277163505554 -0.020093584433197975 0.14800000190734863 254 124 144
0.05812128260731697 -0.020093584433197975 0.14800000190734863 247 117 137
0.056889038532972336 -0.019550513476133347 0.14399999380111694 253 118 132
0.057227637618780136 -0.019550513476133347 0.14399999380111694 252 117 131
0.056766707450151443 -0.019278978928923607 0.1420000046491623 253 116 127
0.05669848993420601 -0.01914321258664131 0.14100000262260437 247 110 121
0.05703003704547882 -0.01914321258664131 0.14100000262260437 249 110 119
0.057361580431461334 -0.01914321258664131 0.14100000262260437 250 111 120
0.05728395655751228 -0.019007444381713867 0.14000000059604645 255 119 128
0.057613153010606766 -0.019007444381713867 0.14000000059604645 255 116 125
0.05794234946370125 -0.019007444381713867 0.14000000059604645 252 109 122
0.05827154219150543 -0.019007444381713867 0.14000000059604645 253 110 123
0.058600738644599915 -0.019007444381713867 0.14000000059604645 253 110 123
0.0589299350976944 -0.019007444381713867 0.14000000059604645 252 109 122
0.05925912782549858 -0.019007444381713867 0.14000000059604645 251 106 122
0.05958832427859306 -0.019007444381713867 0.14000000059604645 249 104 120
0.05948953703045845 -0.018871676176786423 0.13899999856948853 246 97 112
0.059816379100084305 -0.018871676176786423 0.13899999856948853 252 103 118
0.06014322489500046 -0.018871676176786423 0.13899999856948853 255 103 119
0.06047006696462631 -0.018871676176786423 0.13899999856948853 247 95 111
0.060796912759542465 -0.018871676176786423 0.13899999856948853 250 94 107
0.06112375482916832 -0.018871676176786423 0.13899999856948853 245 89 102
0.06145060062408447 -0.018871676176786423 0.13899999856948853 244 85 94
0.06177744269371033 -0.018871676176786423 0.13899999856948853 243 84 93
0.06210428848862648 -0.018871676176786423 0.13899999856948853 246 85 90
0.06320947408676147 -0.019007444381713867 0.14000000059604645 244 78 85
0.06353866308927536 -0.019007444381713867 0.14000000059604645 249 83 90
0.0640653520822525 -0.018871676176786423 0.13899999856948853 241 82 91
0.06471903622150421 -0.018871676176786423 0.13899999856948853 236 78 87
0.06857050955295563 -0.018328607082366943 0.13500000536441803 203 103 99
0.07318388670682907 -0.018057072535157204 0.13300000131130219 199 111 112
0.07349661737680435 -0.018057072535157204 0.13300000131130219 220 132 133
0.07380935549736023 -0.018057072535157204 0.13300000131130219 224 140 142
0.07412209361791611 -0.018057072535157204 0.13300000131130219 223 139 141
0.07443482428789139 -0.018057072535157204 0.13300000131130219 211 127 129
0.07474756240844727 -0.018057072535157204 0.13300000131130219 211 127 129
0.07506029307842255 -0.018057072535157204 0.13300000131130219 215 134 135
0.07537303119897842 -0.018057072535157204 0.13300000131130219 212 131 132
0.0756857693195343 -0.018057072535157204 0.13300000131130219 210 138 136
0.0754270851612091 -0.01792130433022976 0.13199999928474426 206 134 132
0.07573746889829636 -0.01792130433022976 0.13199999928474426 195 131 126
0.0760478526353836 -0.01792130433022976 0.13199999928474426 201 137 132
0.07635823637247086 -0.01792130433022976 0.13199999928474426 189 128 122
0.0766686201095581 -0.01792130433022976 0.13199999928474426 186 125 119
0.07697900384664536 -0.01792130433022976 0.13199999928474426 188 127 121
0.0772893875837326 -0.01792130433022976 0.13199999928474426 187 126 120
0.07759977132081985 -0.01792130433022976 0.13199999928474426 188 124 117
0.0779101550579071 -0.01792130433022976 0.13199999928474426 189 125 118
0.07822053879499435 -0.01792130433022976 0.13199999928474426 188 124 119
0.0785309225320816 -0.01792130433022976 0.13199999928474426 185 121 116
0.07884130626916885 -0.01792130433022976 0.13199999928474426 188 118 118
0.0791516974568367 -0.01792130433022976 0.13199999928474426 194 124 124
0.08194515109062195 -0.01792130433022976 0.13199999928474426 182 119 105
0.0822555348277092 -0.01792130433022976 0.13199999928474426 189 126 112
0.08256591856479645 -0.01792130433022976 0.13199999928474426 191 131 120
0.08224844932556152 -0.017785537987947464 0.13099999725818634 190 130 119
0.08255648612976074 -0.017785537987947464 0.13099999725818634 187 125 122
0.08286451548337936 -0.017785537987947464 0.13099999725818634 179 117 114
0.08317255228757858 -0.017785537987947464 0.13099999725818634 186 121 121
0.08594484627246857 -0.017785537987947464 0.13099999725818634 179 114 112
0.05504577234387398 -0.02027924172580242 0.15199999511241913 245 120 129
0.05540318414568901 -0.02027924172580242 0.15199999511241913 248 123 132
0.055760595947504044 -0.02027924172580242 0.15199999511241913 251 126 135
0.05611800774931908 -0.02027924172580242 0.15199999511241913 251 126 135
0.05647541955113411 -0.02027924172580242 0.15199999511241913 255 136 142
0.05645893141627312 -0.020145826041698456 0.1509999930858612 255 135 141
0.05681399255990982 -0.020145826041698456 0.1509999930858612 254 135 140
0.057169053703546524 -0.020145826041698456 0.1509999930858612 254 135 140
0.05752411484718323 -0.020145826041698456 0.1509999930858612 253 137 143
0.05787917599081993 -0.020145826041698456 0.1509999930858612 254 138 144
0.057848576456308365 -0.02001241035759449 0.15000000596046448 255 139 153
0.05781327933073044 -0.019878994673490524 0.14900000393390656 244 124 138
0.057773277163505554 -0.01974557712674141 0.14800000190734863 249 122 145
0.05812128260731697 -0.01974557712674141 0.14800000190734863 246 119 142
0.056889038532972336 -0.019211914390325546 0.14399999380111694 250 115 137
0.05683022364974022 -0.01907849684357643 0.14300000667572021 250 115 137
0.056766707450151443 -0.018945081159472466 0.1420000046491623 251 116 130
0.05669848993420601 -0.0188116654753685 0.14100000262260437 249 114 128
0.05703003704547882 -0.0188116654753685 0.14100000262260437 247 110 121
0.057361580431461334 -0.0188116654753685 0.14100000262260437 248 111 122
0.05728395655751228 -0.018678249791264534 0.14000000059604645 255 118 130
0.057613153010606766 -0.018678249791264534 0.14000000059604645 247 107 119
0.05794234946370125 -0.018678249791264534 0.14000000059604645 249 106 119
0.05827154219150543 -0.018678249791264534 0.14000000059604645 253 110 123
0.058600738644599915 -0.018678249791264534 0.14000000059604645 252 107 121
0.0589299350976944 -0.018678249791264534 0.14000000059604645 249 104 118
0.05925912782549858 -0.018678249791264534 0.14000000059604645 254 102 120
0.05958832427859306 -0.018678249791264534 0.14000000059604645 248 96 114
0.059917520731687546 -0.018678249791264534 0.14000000059604645 250 93 111
0.06024671345949173 -0.018678249791264534 0.14000000059604645 248 91 109
0.06057590991258621 -0.018678249791264534 0.14000000059604645 244 84 98
0.06047006696462631 -0.018544834107160568 0.13899999856948853 248 88 102
0.060796912759542465 -0.018544834107160568 0.13899999856948853 251 89 101
0.06112375482916832 -0.018544834107160568 0.13899999856948853 246 84 96
0.06145060062408447 -0.018544834107160568 0.13899999856948853 245 84 89
0.06222188472747803 -0.018678249791264534 0.14000000059604645 245 84 89
0.06255108118057251 -0.018678249791264534 0.14000000059604645 244 83 86
0.06288027763366699 -0.018678249791264534 0.14000000059604645 242 81 84
0.06353866308927536 -0.018678249791264534 0.14000000059604645 248 87 90
0.06386785954236984 -0.018678249791264534 0.14000000059604645 250 85 94
0.06373850256204605 -0.018544834107160568 0.13899999856948853 254 89 98
0.0640653520822525 -0.018544834107160568 0.13899999856948853 239 81 90
0.06843885779380798 -0.01814458519220352 0.13600000739097595 203 108 100
0.06875864416360855 -0.01814458519220352 0.13600000739097595 201 106 98
0.06907843798398972 -0.01814458519220352 0.13600000739097595 219 124 121
0.06939822435379028 -0.01814458519220352 0.13600000739097595 211 116 113
0.06971801817417145 -0.01814458519220352 0.13600000739097595 204 113 104
0.06952282041311264 -0.018011169508099556 0.13500000536441803 200 109 100
0.07341904938220978 -0.01787775382399559 0.1340000033378601 209 120 119
0.07373414188623428 -0.01787775382399559 0.1340000033378601 229 151 151
0.07404922693967819 -0.01787775382399559 0.1340000033378601 230 152 152
0.07380935549736023 -0.017744336277246475 0.13300000131130219 229 153 152
0.07412209361791611 -0.017744336277246475 0.13300000131130219 221 145 144
0.07443482428789139 -0.017744336277246475 0.13300000131130219 220 143 145
0.07474756240844727 -0.017744336277246475 0.13300000131130219 223 146 148
0.07506029307842255 -0.017744336277246475 0.13300000131130219 223 146 148
0.07537303119897842 -0.017744336277246475 0.13300000131130219 212 135 137
0.0756857693195343 -0.017744336277246475 0.13300000131130219 215 142 143
0.0754270851612091 -0.01761092059314251 0.13199999928474426 217 144 145
0.07573746889829636 -0.01761092059314251 0.13199999928474426 208 146 143
0.0760478526353836 -0.01761092059314251 0.13199999928474426 196 134 131
0.07635823637247086 -0.01761092059314251 0.13199999928474426 196 136 132
0.0766686201095581 -0.01761092059314251 0.13199999928474426 190 130 126
0.07697900384664536 -0.01761092059314251 0.13199999928474426 194 134 130
0.0772893875837326 -0.01761092059314251 0.13199999928474426 189 129 125
0.07759977132081985 -0.01761092059314251 0.13199999928474426 193 133 129
0.0779101550579071 -0.01761092059314251 0.13199999928474426 189 129 125
0.07822053879499435 -0.01761092059314251 0.13199999928474426 187 125 122
0.0785309225320816 -0.01761092059314251 0.13199999928474426 189 127 124
0.07884130626916885 -0.01761092059314251 0.13199999928474426 188 123 121
0.0791516974568367 -0.01761092059314251 0.13199999928474426 196 131 129
0.07946208119392395 -0.01761092059314251 0.13199999928474426 187 117 117
0.0797724649310112 -0.01761092059314251 0.13199999928474426 188 118 118
0.08194515109062195 -0.01761092059314251 0.13199999928474426 189 129 118
0.0822555348277092 -0.01761092059314251 0.13199999928474426 194 134 123
0.08256591856479645 -0.01761092059314251 0.13199999928474426 194 135 128
0.08224844932556152 -0.017477504909038544 0.13099999725818634 198 139 132
0.08255648612976074 -0.017477504909038544 0.13099999725818634 193 128 128
0.08286451548337936 -0.017477504909038544 0.13099999725818634 186 121 121
0.08317255228757858 -0.017477504909038544 0.13099999725818634 182 117 119
0.0834805816411972 -0.017477504909038544 0.13099999725818634 183 118 120
0.08378861099481583 -0.017477504909038544 0.13099999725818634 178 113 111
0.08409664779901505 -0.017477504909038544 0.13099999725818634 178 113 111
0.08563680946826935 -0.017477504909038544 0.13099999725818634 180 118 115
0.08594484627246857 -0.017477504909038544 0.13099999725818634 179 117 114
0.05504577234387398 -0.01992182992398739 0.15199999511241913 244 113 124
0.05540318414568901 -0.01992182992398739 0.15199999511241913 250 119 130
0.055760595947504044 -0.01992182992398739 0.15199999511241913 251 123 133
0.05611800774931908 -0.01992182992398739 0.15199999511241913 253 125 135
0.05647541955113411 -0.01992182992398739 0.15199999511241913 255 135 141
0.05683283135294914 -0.01992182992398739 0.15199999511241913 255 141 147
0.057190243154764175 -0.01992182992398739 0.15199999511241913 255 142 145
0.057169053703546524 -0.019790764898061752 0.1509999930858612 255 145 148
0.05752411484718323 -0.019790764898061752 0.1509999930858612 252 139 144
0.05787917599081993 -0.019790764898061752 0.1509999930858612 255 144 149
0.057848576456308365 -0.019659701734781265 0.15000000596046448 252 135 148
0.05781327933073044 -0.01952863670885563 0.14900000393390656 241 124 137
0.058163635432720184 -0.01952863670885563 0.14900000393390656 248 123 143
0.05649397522211075 -0.01874224841594696 0.14300000667572021 243 110 133
0.05683022364974022 -0.01874224841594696 0.14300000667572021 250 117 140
0.056766707450151443 -0.018611183390021324 0.1420000046491623 248 112 131
0.05669848993420601 -0.018480118364095688 0.14100000262260437 248 112 131
0.05703003704547882 -0.018480118364095688 0.14100000262260437 249 112 127
0.057361580431461334 -0.018480118364095688 0.14100000262260437 247 110 125
0.057693127542734146 -0.018480118364095688 0.14100000262260437 254 114 128
0.057613153010606766 -0.01834905333817005 0.14000000059604645 251 111 125
0.05794234946370125 -0.01834905333817005 0.14000000059604645 252 109 122
0.05827154219150543 -0.01834905333817005 0.14000000059604645 252 109 122
0.058600738644599915 -0.01834905333817005 0.14000000059604645 255 107 119
0.0589299350976944 -0.01834905333817005 0.14000000059604645 252 104 116
0.05925912782549858 -0.01834905333817005 0.14000000059604645 252 95 113
0.05958832427859306 -0.01834905333817005 0.14000000059604645 245 88 106
0.059917520731687546 -0.01834905333817005 0.14000000059604645 243 83 97
0.06024671345949173 -0.01834905333817005 0.14000000059604645 248 88 102
0.06057590991258621 -0.01834905333817005 0.14000000059604645 249 82 96
0.060905102640390396 -0.01834905333817005 0.14000000059604645 241 74 88
0.06123429909348488 -0.01834905333817005 0.14000000059604645 255 88 99
0.06156349554657936 -0.01834905333817005 0.14000000059604645 253 83 94
0.061892688274383545 -0.01834905333817005 0.14000000059604645 247 81 84
0.06222188472747803 -0.01834905333817005 0.14000000059604645 244 78 81
0.06288027763366699 -0.01834905333817005 0.14000000059604645 241 80 81
0.06320947408676147 -0.01834905333817005 0.14000000059604645 239 81 81
0.06353866308927536 -0.01834905333817005 0.14000000059604645 242 84 84
0.06779927760362625 -0.017824795097112656 0.13600000739097595 208 111 99
0.06843885779380798 -0.017824795097112656 0.13600000739097595 215 124 115
0.06875864416360855 -0.017824795097112656 0.13600000739097595 211 120 111
0.06907843798398972 -0.017824795097112656 0.13600000739097595 212 123 122
0.06939822435379028 -0.017824795097112656 0.13600000739097595 202 113 112
0.06971801817417145 -0.017824795097112656 0.13600000739097595 211 124 118
0.07003780454397202 -0.017824795097112656 0.13600000739097595 211 124 118
0.07035759091377258 -0.017824795097112656 0.13600000739097595 211 125 114
0.07015769928693771 -0.01769373007118702 0.13500000536441803 201 115 104
0.07047513872385025 -0.01769373007118702 0.13500000536441803 198 109 104
0.07310396432876587 -0.017562666907906532 0.1340000033378601 188 107 108
0.07341904938220978 -0.017562666907906532 0.1340000033378601 233 152 153
0.07373414188623428 -0.017562666907906532 0.1340000033378601 244 170 173
0.07404922693967819 -0.017562666907906532 0.1340000033378601 237 163 166
0.0743643119931221 -0.017562666907906532 0.1340000033378601 237 163 168
0.07412209361791611 -0.017431601881980896 0.13300000131130219 223 149 154
0.07443482428789139 -0.017431601881980896 0.13300000131130219 218 148 148
0.07474756240844727 -0.017431601881980896 0.13300000131130219 221 151 151
0.07506029307842255 -0.017431601881980896 0.13300000131130219 224 154 154
