0.09210549294948578 -0.012548983097076416 0.13099999725818634 127 143 130
0.092413529753685 -0.012548983097076416 0.13099999725818634 127 147 133
0.09272155910730362 -0.012548983097076416 0.13099999725818634 127 144 130
0.09302959591150284 -0.012548983097076416 0.13099999725818634 127 145 128
0.09405012428760529 -0.01264477614313364 0.13199999928474426 127 146 129
0.09436050802469254 -0.01264477614313364 0.13199999928474426 127 147 130
0.09467089176177979 -0.01264477614313364 0.13199999928474426 127 146 129
0.09498127549886703 -0.01264477614313364 0.13199999928474426 127 140 125
0.09601356834173203 -0.01274057012051344 0.13300000131130219 127 137 122
0.0963263064622879 -0.01274057012051344 0.13300000131130219 127 134 120
0.09663903713226318 -0.01274057012051344 0.13300000131130219 127 137 123
0.09695177525281906 -0.01274057012051344 0.13300000131130219 127 140 127
0.09726451337337494 -0.01274057012051344 0.13300000131130219 127 144 131
0.09757724404335022 -0.01274057012051344 0.13300000131130219 127 143 131
0.0978899821639061 -0.01274057012051344 0.13300000131130219 127 150 138
0.09820272028446198 -0.01274057012051344 0.13300000131130219 127 149 136
0.09851545095443726 -0.01274057012051344 0.13300000131130219 127 149 136
0.09882818907499313 -0.01274057012051344 0.13300000131130219 127 153 137
0.09914091974496841 -0.01274057012051344 0.13300000131130219 127 146 130
0.09945365786552429 -0.01274057012051344 0.13300000131130219 127 150 130
0.09976639598608017 -0.01274057012051344 0.13300000131130219 127 146 126
0.10083160549402237 -0.012836364097893238 0.1340000033378601 127 115 95
0.05290832743048668 -0.014109797775745392 0.1509999930858612 127 116 103
0.05326338857412338 -0.014109797775745392 0.1509999930858612 127 82 79
0.053618449717760086 -0.014109797775745392 0.1509999930858612 127 29 26
0.05397350713610649 -0.014109797775745392 0.1509999930858612 127 18 39
0.054328568279743195 -0.014109797775745392 0.1509999930858612 127 26 47
0.0546836294233799 -0.014109797775745392 0.1509999930858612 127 14 47
0.0550386905670166 -0.014109797775745392 0.1509999930858612 127 13 46
0.055393751710653305 -0.014109797775745392 0.1509999930858612 127 9 46
0.05574881285429001 -0.014109797775745392 0.1509999930858612 127 11 48
0.05647541955113411 -0.014203240163624287 0.15199999511241913 127 12 42
0.05683283135294914 -0.014203240163624287 0.15199999511241913 127 15 45
0.057190243154764175 -0.014203240163624287 0.15199999511241913 127 15 43
0.05754765495657921 -0.014203240163624287 0.15199999511241913 127 21 49
0.05790506675839424 -0.014203240163624287 0.15199999511241913 127 21 47
0.058262478560209274 -0.014203240163624287 0.15199999511241913 127 19 45
0.05861989036202431 -0.014203240163624287 0.15199999511241913 127 26 54
0.05897730588912964 -0.014203240163624287 0.15199999511241913 127 24 52
0.05933471769094467 -0.014203240163624287 0.15199999511241913 127 23 48
0.059692129492759705 -0.014203240163624287 0.15199999511241913 127 21 46
0.05965447798371315 -0.014109797775745392 0.1509999930858612 127 27 52
0.060009539127349854 -0.014109797775745392 0.1509999930858612 127 14 39
0.05996483191847801 -0.014016355387866497 0.15000000596046448 127 26 46
0.060317542403936386 -0.014016355387866497 0.15000000596046448 127 81 101
0.06067024916410446 -0.014016355387866497 0.15000000596046448 127 94 106
0.0606161393225193 -0.013922912999987602 0.14900000393390656 127 94 106
0.06096649914979935 -0.013922912999987602 0.14900000393390656 127 111 111
0.06131685525178909 -0.013922912999987602 0.14900000393390656 127 109 109
0.06166721135377884 -0.013922912999987602 0.14900000393390656 127 117 111
0.061601344496011734 -0.013829470612108707 0.14800000190734863 127 117 111
0.06194935366511345 -0.013829470612108707 0.14800000190734863 127 124 118
0.062297359108924866 -0.013829470612108707 0.14800000190734863 127 117 111
0.062222085893154144 -0.013736028224229813 0.1469999998807907 127 114 109
0.06256774067878723 -0.013736028224229813 0.1469999998807907 127 116 111
0.06291339546442032 -0.013736028224229813 0.1469999998807907 127 115 113
0.06282871961593628 -0.013642585836350918 0.1459999978542328 127 104 102
0.06317202001810074 -0.013642585836350918 0.1459999978542328 127 71 77
0.06308028846979141 -0.013549143448472023 0.14499999582767487 127 78 84
0.06342124193906784 -0.013549143448472023 0.14499999582767487 127 121 130
0.06332245469093323 -0.013455701060593128 0.14399999380111694 127 136 145
0.06366105377674103 -0.013455701060593128 0.14399999380111694 127 150 158
0.06355521082878113 -0.013362258672714233 0.14300000667572021 127 149 157
0.0638914629817009 -0.013362258672714233 0.14300000667572021 127 178 178
0.06377856433391571 -0.013268816284835339 0.1420000046491623 127 180 180
0.06411246210336685 -0.013268816284835339 0.1420000046491623 127 194 184
0.06399251520633698 -0.013175373896956444 0.14100000262260437 127 194 184
0.06432405859231949 -0.013175373896956444 0.14100000262260437 127 202 186
0.0646556094288826 -0.013175373896956444 0.14100000262260437 127 203 187
0.06498715281486511 -0.013175373896956444 0.14100000262260437 127 234 216
0.06531869620084763 -0.013175373896956444 0.14100000262260437 127 222 204
0.06565024703741074 -0.013175373896956444 0.14100000262260437 127 209 187
0.06551383435726166 -0.013081931509077549 0.14000000059604645 127 215 193
0.06584303081035614 -0.013081931509077549 0.14000000059604645 127 223 194
0.06617222726345062 -0.013081931509077549 0.14000000059604645 127 216 187
0.0665014237165451 -0.013081931509077549 0.14000000059604645 127 203 178
0.06683062016963959 -0.013081931509077549 0.14000000059604645 127 201 176
0.06715980917215347 -0.013081931509077549 0.14000000059604645 127 179 164
0.06700694561004639 -0.012988489121198654 0.13899999856948853 127 173 158
0.06733378767967224 -0.012988489121198654 0.13899999856948853 127 148 148
0.0676606297492981 -0.012988489121198654 0.13899999856948853 127 126 126
0.06798747181892395 -0.012988489121198654 0.13899999856948853 127 191 193
0.0683143213391304 -0.012988489121198654 0.13899999856948853 127 225 227
0.06864116340875626 -0.012988489121198654 0.13899999856948853 127 238 236
0.06847183406352997 -0.01289504673331976 0.1379999965429306 127 249 247
0.06879632920026779 -0.01289504673331976 0.1379999965429306 127 244 235
0.06912081688642502 -0.01289504673331976 0.1379999965429306 127 235 226
0.06894208490848541 -0.012801604345440865 0.13699999451637268 127 225 219
0.06926422566175461 -0.012801604345440865 0.13699999451637268 127 228 222
0.0695863664150238 -0.012801604345440865 0.13699999451637268 127 237 230
0.06939822435379028 -0.01270816195756197 0.13600000739097595 127 236 229
0.06971801817417145 -0.01270816195756197 0.13600000739097595 127 233 226
0.07003780454397202 -0.01270816195756197 0.13600000739097595 127 229 222
0.06984025985002518 -0.012614719569683075 0.13500000536441803 127 228 221
0.07015769928693771 -0.012614719569683075 0.13500000536441803 127 228 221
0.07047513872385025 -0.012614719569683075 0.13500000536441803 127 232 224
0.07079257071018219 -0.012614719569683075 0.13500000536441803 127 233 225
0.07111001014709473 -0.012614719569683075 0.13500000536441803 127 230 216
0.07089836150407791 -0.01252127718180418 0.1340000033378601 127 227 213
0.07121344655752182 -0.01252127718180418 0.1340000033378601 127 225 215
0.07152853161096573 -0.01252127718180418 0.1340000033378601 127 203 193
0.07184361666440964 -0.01252127718180418 0.1340000033378601 127 194 184
0.07215870171785355 -0.01252127718180418 0.1340000033378601 127 190 180
0.07247379422187805 -0.01252127718180418 0.1340000033378601 127 161 167
0.07224567979574203 -0.012427834793925285 0.13300000131130219 127 145 151
0.07255841046571732 -0.012427834793925285 0.13300000131130219 127 157 172
0.0728711485862732 -0.012427834793925285 0.13300000131130219 127 222 237
0.07318388670682907 -0.012427834793925285 0.13300000131130219 127 244 252
0.07349661737680435 -0.012427834793925285 0.13300000131130219 127 231 239
0.07380935549736023 -0.012427834793925285 0.13300000131130219 127 231 224
0.07412209361791611 -0.012427834793925285 0.13300000131130219 127 217 210
0.07443482428789139 -0.012427834793925285 0.13300000131130219 127 204 191
0.07418555021286011 -0.01233439240604639 0.13199999928474426 127 202 189
0.07449593394994736 -0.01233439240604639 0.13199999928474426 127 201 185
0.0748063176870346 -0.01233439240604639 0.13199999928474426 127 196 180
0.07454763352870941 -0.012240950018167496 0.13099999725818634 127 198 179
0.07485567033290863 -0.012240950018167496 0.13099999725818634 127 205 186
0.07516369968652725 -0.012240950018167496 0.13099999725818634 127 216 197
0.07547173649072647 -0.012240950018167496 0.13099999725818634 127 231 212
0.07577976584434509 -0.012240950018167496 0.13099999725818634 127 230 205
0.07608779519796371 -0.012240950018167496 0.13099999725818634 127 221 196
0.07639583200216293 -0.012240950018167496 0.13099999725818634 127 210 186
0.0761183351278305 -0.012147507630288601 0.12999999523162842 127 204 180
0.0764240175485611 -0.012147507630288601 0.12999999523162842 127 191 172
0.07672969996929169 -0.012147507630288601 0.12999999523162842 127 190 171
0.07703538239002228 -0.012147507630288601 0.12999999523162842 127 189 173
0.07734106481075287 -0.012147507630288601 0.12999999523162842 127 180 164
0.07764674723148346 -0.012147507630288601 0.12999999523162842 127 182 166
0.07735279202461243 -0.012054065242409706 0.1289999932050705 127 189 173
0.07765612006187439 -0.012054065242409706 0.1289999932050705 127 193 175
0.07795944809913635 -0.012054065242409706 0.1289999932050705 127 191 173
0.07826278358697891 -0.012054065242409706 0.1289999932050705 127 193 172
0.07856611162424088 -0.012054065242409706 0.1289999932050705 127 191 170
0.07886943966150284 -0.012054065242409706 0.1289999932050705 127 188 166
0.0791727676987648 -0.012054065242409706 0.1289999932050705 127 186 164
0.08009219169616699 -0.012147507630288601 0.12999999523162842 127 177 157
0.08039787411689758 -0.012147507630288601 0.12999999523162842 127 140 119
0.08070355653762817 -0.012147507630288601 0.12999999523162842 127 111 105
0.08100923895835876 -0.012147507630288601 0.12999999523162842 127 111 105
0.08131492137908936 -0.012147507630288601 0.12999999523162842 127 121 123
0.08162060379981995 -0.012147507630288601 0.12999999523162842 127 144 146
0.08192627876996994 -0.012147507630288601 0.12999999523162842 127 161 156
0.08223196119070053 -0.012147507630288601 0.12999999523162842 127 159 154
0.08253764361143112 -0.012147507630288601 0.12999999523162842 127 171 161
0.08284332603216171 -0.012147507630288601 0.12999999523162842 127 170 160
0.0831490084528923 -0.012147507630288601 0.12999999523162842 127 163 146
0.0834546908736229 -0.012147507630288601 0.12999999523162842 127 167 150
0.08376036584377289 -0.012147507630288601 0.12999999523162842 127 165 147
0.08341939002275467 -0.012054065242409706 0.1289999932050705 127 164 146
0.08372271806001663 -0.012054065242409706 0.1289999932050705 127 161 145
0.0840260460972786 -0.012054065242409706 0.1289999932050705 127 163 147
0.08432938158512115 -0.012054065242409706 0.1289999932050705 127 164 151
0.08463270962238312 -0.012054065242409706 0.1289999932050705 127 165 152
0.08493603765964508 -0.012054065242409706 0.1289999932050705 127 164 151
0.08523936569690704 -0.012054065242409706 0.1289999932050705 127 167 154
0.085542693734169 -0.012054065242409706 0.1289999932050705 127 170 150
0.08584602922201157 -0.012054065242409706 0.1289999932050705 127 164 144
0.08614935725927353 -0.012054065242409706 0.1289999932050705 127 159 134
0.08645268529653549 -0.012054065242409706 0.1289999932050705 127 157 132
0.08675601333379745 -0.012054065242409706 0.1289999932050705 127 157 133
0.08705934882164001 -0.012054065242409706 0.1289999932050705 127 156 132
0.08803990483283997 -0.012147507630288601 0.12999999523162842 127 158 137
0.08834558725357056 -0.012147507630288601 0.12999999523162842 127 159 138
0.08865126967430115 -0.012147507630288601 0.12999999523162842 127 155 134
0.08895695209503174 -0.012147507630288601 0.12999999523162842 127 152 131
0.08926263451576233 -0.012147507630288601 0.12999999523162842 127 139 122
0.08956830948591232 -0.012147507630288601 0.12999999523162842 127 131 113
0.08987399190664291 -0.012147507630288601 0.12999999523162842 127 134 122
0.0901796743273735 -0.012147507630288601 0.12999999523162842 127 134 122
0.0904853567481041 -0.012147507630288601 0.12999999523162842 127 138 125
0.09079103916883469 -0.012147507630288601 0.12999999523162842 127 140 127
0.09179746359586716 -0.012240950018167496 0.13099999725818634 127 143 129
0.09210549294948578 -0.012240950018167496 0.13099999725818634 127 142 128
0.092413529753685 -0.012240950018167496 0.13099999725818634 127 142 126
0.09272155910730362 -0.012240950018167496 0.13099999725818634 127 140 124
0.09302959591150284 -0.012240950018167496 0.13099999725818634 127 140 122
0.09405012428760529 -0.01233439240604639 0.13199999928474426 127 139 121
0.09436050802469254 -0.01233439240604639 0.13199999928474426 127 141 123
0.09467089176177979 -0.01233439240604639 0.13199999928474426 127 141 123
0.09498127549886703 -0.01233439240604639 0.13199999928474426 127 134 123
0.09601356834173203 -0.012427834793925285 0.13300000131130219 127 132 121
0.0963263064622879 -0.012427834793925285 0.13300000131130219 127 125 115
0.09663903713226318 -0.012427834793925285 0.13300000131130219 127 129 120
0.09695177525281906 -0.012427834793925285 0.13300000131130219 127 133 123
0.09726451337337494 -0.012427834793925285 0.13300000131130219 127 139 129
0.09757724404335022 -0.012427834793925285 0.13300000131130219 127 148 138
0.0978899821639061 -0.012427834793925285 0.13300000131130219 127 150 140
0.09820272028446198 -0.012427834793925285 0.13300000131130219 127 156 143
0.09851545095443726 -0.012427834793925285 0.13300000131130219 127 154 141
0.09882818907499313 -0.012427834793925285 0.13300000131130219 127 155 139
0.09914091974496841 -0.012427834793925285 0.13300000131130219 127 148 131
0.09945365786552429 -0.012427834793925285 0.13300000131130219 127 151 133
0.09976639598608017 -0.012427834793925285 0.13300000131130219 127 149 131
0.10083160549402237 -0.01252127718180418 0.1340000033378601 127 120 104
0.05290832743048668 -0.013754736632108688 0.1509999930858612 127 85 75
0.05326338857412338 -0.013754736632108688 0.1509999930858612 127 21 27
0.053618449717760086 -0.013754736632108688 0.1509999930858612 127 42 48
0.05397350713610649 -0.013754736632108688 0.1509999930858612 127 32 55
0.054688360542058945 -0.013845828361809254 0.15199999511241913 127 18 41
0.05504577234387398 -0.013845828361809254 0.15199999511241913 127 15 45
0.05540318414568901 -0.013845828361809254 0.15199999511241913 127 18 48
0.055760595947504044 -0.013845828361809254 0.15199999511241913 127 16 46
0.05611800774931908 -0.013845828361809254 0.15199999511241913 127 16 46
0.05647541955113411 -0.013845828361809254 0.15199999511241913 127 13 38
0.05683283135294914 -0.013845828361809254 0.15199999511241913 127 12 37
0.057190243154764175 -0.013845828361809254 0.15199999511241913 127 12 36
0.05754765495657921 -0.013845828361809254 0.15199999511241913 127 17 41
0.058286022394895554 -0.013936919160187244 0.15299999713897705 127 16 41
0.058645784854888916 -0.013936919160187244 0.15299999713897705 127 25 50
0.05861989036202431 -0.013845828361809254 0.15199999511241913 127 26 52
0.05897730588912964 -0.013845828361809254 0.15199999511241913 127 23 49
0.05933471769094467 -0.013845828361809254 0.15199999511241913 127 28 50
0.059692129492759705 -0.013845828361809254 0.15199999511241913 127 27 49
0.06004954129457474 -0.013845828361809254 0.15199999511241913 127 30 48
0.060009539127349854 -0.013754736632108688 0.1509999930858612 127 17 35
0.06036459654569626 -0.013754736632108688 0.1509999930858612 127 47 61
0.06071965768933296 -0.013754736632108688 0.1509999930858612 127 82 96
0.06067024916410446 -0.013663645833730698 0.15000000596046448 127 97 107
0.061022959649562836 -0.013663645833730698 0.15000000596046448 127 101 111
0.06137567013502121 -0.013663645833730698 0.15000000596046448 127 114 114
0.06131685525178909 -0.013572555035352707 0.14900000393390656 127 114 114
0.06166721135377884 -0.013572555035352707 0.14900000393390656 127 124 117
0.061601344496011734 -0.013481464236974716 0.14800000190734863 127 122 115
0.06194935366511345 -0.013481464236974716 0.14800000190734863 127 128 118
0.062297359108924866 -0.013481464236974716 0.14800000190734863 127 123 113
0.062222085893154144 -0.013390373438596725 0.1469999998807907 127 121 113
0.06256774067878723 -0.013390373438596725 0.1469999998807907 127 124 116
0.06291339546442032 -0.013390373438596725 0.1469999998807907 127 118 113
0.06282871961593628 -0.01329928170889616 0.1459999978542328 127 115 110
0.06317202001810074 -0.01329928170889616 0.1459999978542328 127 96 102
0.06308028846979141 -0.01320819091051817 0.14499999582767487 127 83 89
0.06342124193906784 -0.01320819091051817 0.14499999582767487 127 118 129
0.06332245469093323 -0.013117100112140179 0.14399999380111694 127 141 152
0.06366105377674103 -0.013117100112140179 0.14399999380111694 127 149 155
0.06355521082878113 -0.013026009313762188 0.14300000667572021 127 147 153
0.0638914629817009 -0.013026009313762188 0.14300000667572021 127 171 172
0.06377856433391571 -0.012934918515384197 0.1420000046491623 127 182 183
0.06411246210336685 -0.012934918515384197 0.1420000046491623 127 196 190
0.06399251520633698 -0.012843827717006207 0.14100000262260437 127 189 183
0.06432405859231949 -0.012843827717006207 0.14100000262260437 127 202 188
0.0646556094288826 -0.012843827717006207 0.14100000262260437 127 202 188
0.06498715281486511 -0.012843827717006207 0.14100000262260437 127 217 202
0.06531869620084763 -0.012843827717006207 0.14100000262260437 127 228 213
0.06565024703741074 -0.012843827717006207 0.14100000262260437 127 222 203
0.06598179042339325 -0.012843827717006207 0.14100000262260437 127 216 197
0.06584303081035614 -0.012752735987305641 0.14000000059604645 127 222 195
0.06617222726345062 -0.012752735987305641 0.14000000059604645 127 214 187
0.0665014237165451 -0.012752735987305641 0.14000000059604645 127 210 183
0.06683062016963959 -0.012752735987305641 0.14000000059604645 127 205 178
0.06715980917215347 -0.012752735987305641 0.14000000059604645 127 188 176
0.06700694561004639 -0.01266164518892765 0.13899999856948853 127 176 164
0.06733378767967224 -0.01266164518892765 0.13899999856948853 127 143 144
0.0676606297492981 -0.01266164518892765 0.13899999856948853 127 121 122
0.06798747181892395 -0.01266164518892765 0.13899999856948853 127 171 173
0.0683143213391304 -0.01266164518892765 0.13899999856948853 127 225 227
0.06864116340875626 -0.01266164518892765 0.13899999856948853 127 225 227
0.06847183406352997 -0.01257055439054966 0.1379999965429306 127 246 248
0.06879632920026779 -0.01257055439054966 0.1379999965429306 127 250 243
0.06912081688642502 -0.01257055439054966 0.1379999965429306 127 232 225
0.06944531202316284 -0.01257055439054966 0.1379999965429306 127 232 226
0.06926422566175461 -0.012479463592171669 0.13699999451637268 127 237 231
0.0695863664150238 -0.012479463592171669 0.13699999451637268 127 232 227
0.06939822435379028 -0.012388372793793678 0.13600000739097595 127 236 231
0.06971801817417145 -0.012388372793793678 0.13600000739097595 127 237 229
0.07003780454397202 -0.012388372793793678 0.13600000739097595 127 234 226
0.06984025985002518 -0.012297281064093113 0.13500000536441803 127 235 228
0.07015769928693771 -0.012297281064093113 0.13500000536441803 127 235 228
0.07047513872385025 -0.012297281064093113 0.13500000536441803 127 234 224
0.07079257071018219 -0.012297281064093113 0.13500000536441803 127 229 219
0.0705832690000534 -0.012206190265715122 0.1340000033378601 127 230 217
0.07089836150407791 -0.012206190265715122 0.1340000033378601 127 222 209
0.07121344655752182 -0.012206190265715122 0.1340000033378601 127 227 213
0.07152853161096573 -0.012206190265715122 0.1340000033378601 127 211 197
0.07184361666440964 -0.012206190265715122 0.1340000033378601 127 195 186
0.07215870171785355 -0.012206190265715122 0.1340000033378601 127 196 187
0.07247379422187805 -0.012206190265715122 0.1340000033378601 127 163 165
0.07278887927532196 -0.012206190265715122 0.1340000033378601 127 121 123
0.07255841046571732 -0.012115099467337132 0.13300000131130219 127 117 131
0.0728711485862732 -0.012115099467337132 0.13300000131130219 127 198 212
0.07318388670682907 -0.012115099467337132 0.13300000131130219 127 235 245
0.07349661737680435 -0.012115099467337132 0.13300000131130219 127 234 244
0.07380935549736023 -0.012115099467337132 0.13300000131130219 127 236 232
0.07412209361791611 -0.012115099467337132 0.13300000131130219 127 227 223
0.07443482428789139 -0.012115099467337132 0.13300000131130219 127 201 188
0.07418555021286011 -0.01202400866895914 0.13199999928474426 127 198 185
0.07449593394994736 -0.01202400866895914 0.13199999928474426 127 198 182
0.0748063176870346 -0.01202400866895914 0.13199999928474426 127 196 180
0.07454763352870941 -0.01193291787058115 0.13099999725818634 127 198 181
0.07485567033290863 -0.01193291787058115 0.13099999725818634 127 198 181
0.07516369968652725 -0.01193291787058115 0.13099999725818634 127 217 198
0.07547173649072647 -0.01193291787058115 0.13099999725818634 127 230 211
0.07577976584434509 -0.01193291787058115 0.13099999725818634 127 229 207
0.07608779519796371 -0.01193291787058115 0.13099999725818634 127 214 192
0.07639583200216293 -0.01193291787058115 0.13099999725818634 127 205 181
0.0761183351278305 -0.011841826140880585 0.12999999523162842 127 205 181
0.0764240175485611 -0.011841826140880585 0.12999999523162842 127 198 176
0.07672969996929169 -0.011841826140880585 0.12999999523162842 127 194 172
0.07703538239002228 -0.011841826140880585 0.12999999523162842 127 191 174
0.07734106481075287 -0.011841826140880585 0.12999999523162842 127 184 167
0.07764674723148346 -0.011841826140880585 0.12999999523162842 127 186 170
0.07795242220163345 -0.011841826140880585 0.12999999523162842 127 186 170
0.07765612006187439 -0.011750735342502594 0.1289999932050705 127 191 173
0.07795944809913635 -0.011750735342502594 0.1289999932050705 127 185 167
0.07826278358697891 -0.011750735342502594 0.1289999932050705 127 184 163
0.07856611162424088 -0.011750735342502594 0.1289999932050705 127 187 166
0.07948083430528641 -0.011841826140880585 0.12999999523162842 127 186 162
0.079786516726017 -0.011841826140880585 0.12999999523162842 127 177 153
0.08009219169616699 -0.011841826140880585 0.12999999523162842 127 174 158
0.08039787411689758 -0.011841826140880585 0.12999999523162842 127 135 118
0.08070355653762817 -0.011841826140880585 0.12999999523162842 127 102 95
0.08100923895835876 -0.011841826140880585 0.12999999523162842 127 86 79
0.08131492137908936 -0.011841826140880585 0.12999999523162842 127 115 124
0.08162060379981995 -0.011841826140880585 0.12999999523162842 127 125 134
0.08192627876996994 -0.011841826140880585 0.12999999523162842 127 146 150
0.08223196119070053 -0.011841826140880585 0.12999999523162842 127 147 151
0.08253764361143112 -0.011841826140880585 0.12999999523162842 127 161 156
0.08284332603216171 -0.011841826140880585 0.12999999523162842 127 163 158
0.0831490084528923 -0.011841826140880585 0.12999999523162842 127 169 157
0.0834546908736229 -0.011841826140880585 0.12999999523162842 127 164 152
0.08376036584377289 -0.011841826140880585 0.12999999523162842 127 165 151
0.08406604826450348 -0.011841826140880585 0.12999999523162842 127 165 151
0.08437173068523407 -0.011841826140880585 0.12999999523162842 127 163 149
0.0840260460972786 -0.011750735342502594 0.1289999932050705 127 161 147
0.08432938158512115 -0.011750735342502594 0.1289999932050705 127 166 153
0.08463270962238312 -0.011750735342502594 0.1289999932050705 127 166 153
0.08493603765964508 -0.011750735342502594 0.1289999932050705 127 171 158
0.08523936569690704 -0.011750735342502594 0.1289999932050705 127 166 153
0.085542693734169 -0.011750735342502594 0.1289999932050705 127 156 138
0.08651150017976761 -0.011841826140880585 0.12999999523162842 127 155 137
0.0868171826004982 -0.011841826140880585 0.12999999523162842 127 159 136
0.08712286502122879 -0.011841826140880585 0.12999999523162842 127 155 132
0.08742854744195938 -0.011841826140880585 0.12999999523162842 127 153 129
0.08773422241210938 -0.011841826140880585 0.12999999523162842 127 152 128
0.08803990483283997 -0.011841826140880585 0.12999999523162842 127 155 135
0.08834558725357056 -0.011841826140880585 0.12999999523162842 127 153 133
0.08865126967430115 -0.011841826140880585 0.12999999523162842 127 147 128
0.08895695209503174 -0.011841826140880585 0.12999999523162842 127 137 117
0.08926263451576233 -0.011841826140880585 0.12999999523162842 127 111 100
0.08956830948591232 -0.011841826140880585 0.12999999523162842 127 111 100
0.08987399190664291 -0.011841826140880585 0.12999999523162842 127 112 104
0.0901796743273735 -0.011841826140880585 0.12999999523162842 127 120 113
0.09118139743804932 -0.01193291787058115 0.13099999725818634 127 118 109
0.09148942679166794 -0.01193291787058115 0.13099999725818634 127 122 114
0.09179746359586716 -0.01193291787058115 0.13099999725818634 127 132 120
0.09210549294948578 -0.01193291787058115 0.13099999725818634 127 134 122
0.092413529753685 -0.01193291787058115 0.13099999725818634 127 135 122
0.09272155910730362 -0.01193291787058115 0.13099999725818634 127 134 121
0.09373974055051804 -0.01202400866895914 0.13199999928474426 127 133 121
0.09405012428760529 -0.01202400866895914 0.13199999928474426 127 129 117
0.09436050802469254 -0.01202400866895914 0.13199999928474426 127 131 118
0.09467089176177979 -0.01202400866895914 0.13199999928474426 127 132 119
0.09570083022117615 -0.012115099467337132 0.13300000131130219 127 115 106
0.09601356834173203 -0.012115099467337132 0.13300000131130219 127 109 100
0.0963263064622879 -0.012115099467337132 0.13300000131130219 127 111 103
0.09663903713226318 -0.012115099467337132 0.13300000131130219 127 115 108
0.09695177525281906 -0.012115099467337132 0.13300000131130219 127 126 119
0.09726451337337494 -0.012115099467337132 0.13300000131130219 127 134 127
0.09757724404335022 -0.012115099467337132 0.13300000131130219 127 147 136
0.0978899821639061 -0.012115099467337132 0.13300000131130219 127 146 135
0.09820272028446198 -0.012115099467337132 0.13300000131130219 127 151 137
0.09851545095443726 -0.012115099467337132 0.13300000131130219 127 153 139
0.09882818907499313 -0.012115099467337132 0.13300000131130219 127 157 139
0.09914091974496841 -0.012115099467337132 0.13300000131130219 127 153 135
0.09945365786552429 -0.012115099467337132 0.13300000131130219 127 151 133
0.09976639598608017 -0.012115099467337132 0.13300000131130219 127 149 131
0.10083160549402237 -0.012206190265715122 0.1340000033378601 127 114 100
0.05325871333479881 -0.013488415628671646 0.15199999511241913 127 49 41
0.053616125136613846 -0.013488415628671646 0.15199999511241913 127 16 29
0.05397353693842888 -0.013488415628671646 0.15199999511241913 127 29 42
0.05433094874024391 -0.013488415628671646 0.15199999511241913 127 18 41
0.054688360542058945 -0.013488415628671646 0.15199999511241913 127 14 37
0.05504577234387398 -0.013488415628671646 0.15199999511241913 127 17 40
0.05576768144965172 -0.013577155768871307 0.15299999713897705 127 22 45
0.05612744390964508 -0.013577155768871307 0.15299999713897705 127 25 48
0.05648720636963844 -0.013577155768871307 0.15299999713897705 127 4 27
0.056846968829631805 -0.013577155768871307 0.15299999713897705 127 8 26
0.05720673128962517 -0.013577155768871307 0.15299999713897705 127 27 45
0.05756649747490883 -0.013577155768871307 0.15299999713897705 127 44 59
0.05792625993490219 -0.013577155768871307 0.15299999713897705 127 47 62
0.058286022394895554 -0.013577155768871307 0.15299999713897705 127 40 61
0.058645784854888916 -0.013577155768871307 0.15299999713897705 127 37 58
0.05900555104017258 -0.013577155768871307 0.15299999713897705 127 40 57
0.05936531350016594 -0.013577155768871307 0.15299999713897705 127 31 48
0.0597250759601593 -0.013577155768871307 0.15299999713897705 127 38 53
0.060084838420152664 -0.013577155768871307 0.15299999713897705 127 36 51
0.06004954129457474 -0.013488415628671646 0.15199999511241913 127 35 50
0.06040695309638977 -0.013488415628671646 0.15199999511241913 127 21 36
0.06036459654569626 -0.01339967641979456 0.1509999930858612 127 65 78
0.06071965768933296 -0.01339967641979456 0.1509999930858612 127 91 104
0.061074718832969666 -0.01339967641979456 0.1509999930858612 127 103 113
0.061022959649562836 -0.013310937210917473 0.15000000596046448 127 104 114
0.06137567013502121 -0.013310937210917473 0.15000000596046448 127 112 116
0.06131685525178909 -0.013222197070717812 0.14900000393390656 127 114 118
0.06166721135377884 -0.013222197070717812 0.14900000393390656 127 131 125
0.062017571181058884 -0.013222197070717812 0.14900000393390656 127 125 119
0.06194935366511345 -0.013133457861840725 0.14800000190734863 127 136 123
0.062297359108924866 -0.013133457861840725 0.14800000190734863 127 139 126
0.062222085893154144 -0.013044717721641064 0.1469999998807907 127 138 125
0.06256774067878723 -0.013044717721641064 0.1469999998807907 127 134 121
0.06291339546442032 -0.013044717721641064 0.1469999998807907 127 125 118
0.06282871961593628 -0.012955978512763977 0.1459999978542328 127 122 115
0.06317202001810074 -0.012955978512763977 0.1459999978542328 127 103 108
0.06308028846979141 -0.01286723930388689 0.14499999582767487 127 96 101
0.06342124193906784 -0.01286723930388689 0.14499999582767487 127 98 108
0.06332245469093323 -0.01277849916368723 0.14399999380111694 127 135 145
0.06366105377674103 -0.01277849916368723 0.14399999380111694 127 147 155
0.06355521082878113 -0.012689759954810143 0.14300000667572021 127 154 162
0.0638914629817009 -0.012689759954810143 0.14300000667572021 127 173 176
0.06377856433391571 -0.012601020745933056 0.1420000046491623 127 187 190
0.06411246210336685 -0.012601020745933056 0.1420000046491623 127 200 197
0.06399251520633698 -0.012512280605733395 0.14100000262260437 127 188 185
0.06432405859231949 -0.012512280605733395 0.14100000262260437 127 207 199
0.0646556094288826 -0.012512280605733395 0.14100000262260437 127 200 192
0.06498715281486511 -0.012512280605733395 0.14100000262260437 127 204 195
0.06531869620084763 -0.012512280605733395 0.14100000262260437 127 211 202
0.06565024703741074 -0.012512280605733395 0.14100000262260437 127 224 208
0.06598179042339325 -0.012512280605733395 0.14100000262260437 127 223 207
0.06584303081035614 -0.012423541396856308 0.14000000059604645 127 228 199
0.06617222726345062 -0.012423541396856308 0.14000000059604645 127 218 189
0.0665014237165451 -0.012423541396856308 0.14000000059604645 127 221 193
0.06683062016963959 -0.012423541396856308 0.14000000059604645 127 204 176
0.06715980917215347 -0.012423541396856308 0.14000000059604645 127 177 166
0.06700694561004639 -0.012334801256656647 0.13899999856948853 127 175 164
0.06733378767967224 -0.012334801256656647 0.13899999856948853 127 142 145
0.0676606297492981 -0.012334801256656647 0.13899999856948853 127 113 116
0.06798747181892395 -0.012334801256656647 0.13899999856948853 127 135 143
0.0683143213391304 -0.012334801256656647 0.13899999856948853 127 221 229
0.06864116340875626 -0.012334801256656647 0.13899999856948853 127 242 247
0.06847183406352997 -0.01224606204777956 0.1379999965429306 127 244 249
0.06879632920026779 -0.01224606204777956 0.1379999965429306 127 249 245
0.06912081688642502 -0.01224606204777956 0.1379999965429306 127 241 237
0.06944531202316284 -0.01224606204777956 0.1379999965429306 127 241 235
0.06926422566175461 -0.012157322838902473 0.13699999451637268 127 236 230
0.0695863664150238 -0.012157322838902473 0.13699999451637268 127 232 225
0.06939822435379028 -0.012068582698702812 0.13600000739097595 127 233 226
0.06971801817417145 -0.012068582698702812 0.13600000739097595 127 233 226
0.07003780454397202 -0.012068582698702812 0.13600000739097595 127 239 232
0.06984025985002518 -0.011979843489825726 0.13500000536441803 127 244 234
0.07015769928693771 -0.011979843489825726 0.13500000536441803 127 225 215
0.07047513872385025 -0.011979843489825726 0.13500000536441803 127 228 213
0.07079257071018219 -0.011979843489825726 0.13500000536441803 127 221 206
0.0705832690000534 -0.011891103349626064 0.1340000033378601 127 220 205
0.07089836150407791 -0.011891103349626064 0.1340000033378601 127 215 200
0.07121344655752182 -0.011891103349626064 0.1340000033378601 127 211 193
0.07152853161096573 -0.011891103349626064 0.1340000033378601 127 206 188
0.07184361666440964 -0.011891103349626064 0.1340000033378601 127 190 176
0.07215870171785355 -0.011891103349626064 0.1340000033378601 127 191 177
0.07247379422187805 -0.011891103349626064 0.1340000033378601 127 159 157
0.07278887927532196 -0.011891103349626064 0.1340000033378601 127 89 86
0.07255841046571732 -0.011802364140748978 0.13300000131130219 127 89 102
0.0728711485862732 -0.011802364140748978 0.13300000131130219 127 170 184
0.07318388670682907 -0.011802364140748978 0.13300000131130219 127 219 232
0.07349661737680435 -0.011802364140748978 0.13300000131130219 127 215 228
0.07380935549736023 -0.011802364140748978 0.13300000131130219 127 226 221
0.07412209361791611 -0.011802364140748978 0.13300000131130219 127 219 214
0.07443482428789139 -0.011802364140748978 0.13300000131130219 127 209 191
0.07418555021286011 -0.011713624931871891 0.13199999928474426 127 205 187
0.07449593394994736 -0.011713624931871891 0.13199999928474426 127 201 184
0.0748063176870346 -0.011713624931871891 0.13199999928474426 127 198 181
0.07454763352870941 -0.01162488479167223 0.13099999725818634 127 193 177
0.07485567033290863 -0.01162488479167223 0.13099999725818634 127 199 183
0.07516369968652725 -0.01162488479167223 0.13099999725818634 127 201 183
0.07547173649072647 -0.01162488479167223 0.13099999725818634 127 224 206
0.07577976584434509 -0.01162488479167223 0.13099999725818634 127 212 189
0.07608779519796371 -0.01162488479167223 0.13099999725818634 127 222 199
0.07639583200216293 -0.01162488479167223 0.13099999725818634 127 210 186
0.0761183351278305 -0.011536145582795143 0.12999999523162842 127 205 181
0.0764240175485611 -0.011536145582795143 0.12999999523162842 127 201 180
0.07672969996929169 -0.011536145582795143 0.12999999523162842 127 193 172
0.07703538239002228 -0.011536145582795143 0.12999999523162842 127 191 174
0.07734106481075287 -0.011536145582795143 0.12999999523162842 127 178 161
0.07764674723148346 -0.011536145582795143 0.12999999523162842 127 190 172
0.07795242220163345 -0.011536145582795143 0.12999999523162842 127 189 171
0.07765612006187439 -0.011447405442595482 0.1289999932050705 127 191 173
0.07795944809913635 -0.011447405442595482 0.1289999932050705 127 189 171
0.07826278358697891 -0.011447405442595482 0.1289999932050705 127 189 171
0.07856611162424088 -0.011447405442595482 0.1289999932050705 127 189 171
0.07948083430528641 -0.011536145582795143 0.12999999523162842 127 177 157
0.079786516726017 -0.011536145582795143 0.12999999523162842 127 172 152
0.08009219169616699 -0.011536145582795143 0.12999999523162842 127 167 149
0.08039787411689758 -0.011536145582795143 0.12999999523162842 127 118 99
0.08070355653762817 -0.011536145582795143 0.12999999523162842 127 87 75
0.08100923895835876 -0.011536145582795143 0.12999999523162842 127 59 47
0.08131492137908936 -0.011536145582795143 0.12999999523162842 127 86 99
0.08162060379981995 -0.011536145582795143 0.12999999523162842 127 117 131
0.08192627876996994 -0.011536145582795143 0.12999999523162842 127 130 144
0.08223196119070053 -0.011536145582795143 0.12999999523162842 127 129 143
0.08253764361143112 -0.011536145582795143 0.12999999523162842 127 142 143
0.08284332603216171 -0.011536145582795143 0.12999999523162842 127 151 152
0.0831490084528923 -0.011536145582795143 0.12999999523162842 127 157 152
0.0834546908736229 -0.011536145582795143 0.12999999523162842 127 143 138
0.08376036584377289 -0.011536145582795143 0.12999999523162842 127 148 139
0.08406604826450348 -0.011536145582795143 0.12999999523162842 127 153 144
0.08437173068523407 -0.011536145582795143 0.12999999523162842 127 150 141
0.0840260460972786 -0.011447405442595482 0.1289999932050705 127 153 144
0.08432938158512115 -0.011447405442595482 0.1289999932050705 127 159 148
0.08463270962238312 -0.011447405442595482 0.1289999932050705 127 157 146
0.08559445291757584 -0.011536145582795143 0.12999999523162842 127 155 145
0.08590013533830643 -0.011536145582795143 0.12999999523162842 127 148 138
0.08620581775903702 -0.011536145582795143 0.12999999523162842 127 146 132
0.08651150017976761 -0.011536145582795143 0.12999999523162842 127 149 135
0.0868171826004982 -0.011536145582795143 0.12999999523162842 127 152 134
0.08712286502122879 -0.011536145582795143 0.12999999523162842 127 149 131
0.08742854744195938 -0.011536145582795143 0.12999999523162842 127 147 127
0.08773422241210938 -0.011536145582795143 0.12999999523162842 127 147 127
0.08803990483283997 -0.011536145582795143 0.12999999523162842 127 145 126
0.08834558725357056 -0.011536145582795143 0.12999999523162842 127 140 120
0.08865126967430115 -0.011536145582795143 0.12999999523162842 127 122 106
0.08895695209503174 -0.011536145582795143 0.12999999523162842 127 118 102
0.08926263451576233 -0.011536145582795143 0.12999999523162842 127 109 100
0.08956830948591232 -0.011536145582795143 0.12999999523162842 127 109 100
0.08987399190664291 -0.011536145582795143 0.12999999523162842 127 104 100
0.0901796743273735 -0.011536145582795143 0.12999999523162842 127 105 101
0.09118139743804932 -0.01162488479167223 0.13099999725818634 127 104 101
0.09148942679166794 -0.01162488479167223 0.13099999725818634 127 100 97
0.09179746359586716 -0.01162488479167223 0.13099999725818634 127 111 103
0.09210549294948578 -0.01162488479167223 0.13099999725818634 127 111 103
0.092413529753685 -0.01162488479167223 0.13099999725818634 127 117 109
0.09272155910730362 -0.01162488479167223 0.13099999725818634 127 113 105
0.09373974055051804 -0.011713624931871891 0.13199999928474426 127 121 112
0.09405012428760529 -0.011713624931871891 0.13199999928474426 127 121 112
0.09436050802469254 -0.011713624931871891 0.13199999928474426 127 121 111
0.09538809955120087 -0.011802364140748978 0.13300000131130219 127 118 108
0.09570083022117615 -0.011802364140748978 0.13300000131130219 127 91 85
0.09673547744750977 -0.011891103349626064 0.1340000033378601 127 101 95
0.09705056250095367 -0.011891103349626064 0.1340000033378601 127 103 99
0.09736564755439758 -0.011891103349626064 0.1340000033378601 127 107 103
0.09768073260784149 -0.011891103349626064 0.1340000033378601 127 118 112
0.097995825111866 -0.011891103349626064 0.1340000033378601 127 121 115
0.0983109101653099 -0.011891103349626064 0.1340000033378601 127 135 126
0.0978899821639061 -0.011802364140748978 0.13300000131130219 127 137 128
0.09820272028446198 -0.011802364140748978 0.13300000131130219 127 144 131
0.09851545095443726 -0.011802364140748978 0.13300000131130219 127 147 134
0.09882818907499313 -0.011802364140748978 0.13300000131130219 127 155 136
0.09914091974496841 -0.011802364140748978 0.13300000131130219 127 155 136
0.09945365786552429 -0.011802364140748978 0.13300000131130219 127 147 128
0.10051652044057846 -0.011891103349626064 0.1340000033378601 127 151 132
0.10083160549402237 -0.011891103349626064 0.1340000033378601 127 118 99
0.05325871333479881 -0.013131003826856613 0.15199999511241913 127 42 41
0.053616125136613846 -0.013131003826856613 0.15199999511241913 127 27 43
0.05397353693842888 -0.013131003826856613 0.15199999511241913 127 20 36
0.05433094874024391 -0.013131003826856613 0.15199999511241913 127 15 33
0.055048152804374695 -0.01321739237755537 0.15299999713897705 127 20 38
0.05540791526436806 -0.01321739237755537 0.15299999713897705 127 21 39
0.05576768144965172 -0.01321739237755537 0.15299999713897705 127 16 34
0.05612744390964508 -0.01321739237755537 0.15299999713897705 127 14 31
0.05685640498995781 -0.013303780928254128 0.15399999916553497 127 9 26
0.0572185181081295 -0.013303780928254128 0.15399999916553497 127 24 35
0.05758063495159149 -0.013303780928254128 0.15399999916553497 127 75 86
0.057942748069763184 -0.013303780928254128 0.15399999916553497 127 75 85
0.058304861187934875 -0.013303780928254128 0.15399999916553497 127 73 83
0.058666978031396866 -0.013303780928254128 0.15399999916553497 127 74 85
0.05902909114956856 -0.013303780928254128 0.15399999916553497 127 65 76
0.05939120799303055 -0.013303780928254128 0.15399999916553497 127 59 65
0.05936531350016594 -0.01321739237755537 0.15299999713897705 127 36 42
0.0597250759601593 -0.01321739237755537 0.15299999713897705 127 45 52
0.060084838420152664 -0.01321739237755537 0.15299999713897705 127 48 55
0.06044460088014603 -0.01321739237755537 0.15299999713897705 127 41 53
0.06040695309638977 -0.013131003826856613 0.15199999511241913 127 28 40
0.0607643648982048 -0.013131003826856613 0.15199999511241913 127 72 85
0.06071965768933296 -0.01304461620748043 0.1509999930858612 127 96 109
0.061074718832969666 -0.01304461620748043 0.1509999930858612 127 107 117
0.061022959649562836 -0.012958227656781673 0.15000000596046448 127 107 117
0.06137567013502121 -0.012958227656781673 0.15000000596046448 127 114 121
0.06131685525178909 -0.012871840037405491 0.14900000393390656 127 116 123
0.06166721135377884 -0.012871840037405491 0.14900000393390656 127 133 128
0.062017571181058884 -0.012871840037405491 0.14900000393390656 127 128 123
0.06194935366511345 -0.012785451486706734 0.14800000190734863 127 138 129
0.062297359108924866 -0.012785451486706734 0.14800000190734863 127 141 132
0.06264536082744598 -0.012785451486706734 0.14800000190734863 127 142 130
0.06256774067878723 -0.012699062936007977 0.1469999998807907 127 138 126
0.06291339546442032 -0.012699062936007977 0.1469999998807907 127 133 124
0.06282871961593628 -0.012612675316631794 0.1459999978542328 127 131 122
0.06317202001810074 -0.012612675316631794 0.1459999978542328 127 117 120
0.06308028846979141 -0.012526286765933037 0.14499999582767487 127 110 113
0.06342124193906784 -0.012526286765933037 0.14499999582767487 127 95 106
0.06332245469093323 -0.012439899146556854 0.14399999380111694 127 133 144
0.06366105377674103 -0.012439899146556854 0.14399999380111694 127 152 161
0.06355521082878113 -0.012353510595858097 0.14300000667572021 127 162 171
0.0638914629817009 -0.012353510595858097 0.14300000667572021 127 178 181
0.06377856433391571 -0.01226712204515934 0.1420000046491623 127 191 194
0.06411246210336685 -0.01226712204515934 0.1420000046491623 127 207 204
0.06399251520633698 -0.012180734425783157 0.14100000262260437 127 202 199
0.06432405859231949 -0.012180734425783157 0.14100000262260437 127 203 199
0.0646556094288826 -0.012180734425783157 0.14100000262260437 127 200 196
0.06498715281486511 -0.012180734425783157 0.14100000262260437 127 199 192
0.06531869620084763 -0.012180734425783157 0.14100000262260437 127 196 189
0.06565024703741074 -0.012180734425783157 0.14100000262260437 127 231 215
0.06598179042339325 -0.012180734425783157 0.14100000262260437 127 217 201
0.06584303081035614 -0.0120943458750844 0.14000000059604645 127 230 201
0.06617222726345062 -0.0120943458750844 0.14000000059604645 127 221 192
0.0665014237165451 -0.0120943458750844 0.14000000059604645 127 209 180
0.06683062016963959 -0.0120943458750844 0.14000000059604645 127 188 159
0.06715980917215347 -0.0120943458750844 0.14000000059604645 127 179 165
0.06700694561004639 -0.012007957324385643 0.13899999856948853 127 171 157
0.06733378767967224 -0.012007957324385643 0.13899999856948853 127 106 110
0.0676606297492981 -0.012007957324385643 0.13899999856948853 127 89 92
0.06798747181892395 -0.012007957324385643 0.13899999856948853 127 103 117
0.0683143213391304 -0.012007957324385643 0.13899999856948853 127 214 228
0.06864116340875626 -0.012007957324385643 0.13899999856948853 127 236 247
0.06847183406352997 -0.01192156970500946 0.1379999965429306 127 239 250
0.06879632920026779 -0.01192156970500946 0.1379999965429306 127 247 245
0.06912081688642502 -0.01192156970500946 0.1379999965429306 127 240 238
0.06944531202316284 -0.01192156970500946 0.1379999965429306 127 243 232
0.06926422566175461 -0.011835181154310703 0.13699999451637268 127 237 226
0.0695863664150238 -0.011835181154310703 0.13699999451637268 127 238 225
0.069908507168293 -0.011835181154310703 0.13699999451637268 127 239 226
0.06971801817417145 -0.01174879353493452 0.13600000739097595 127 244 229
0.07003780454397202 -0.01174879353493452 0.13600000739097595 127 251 236
0.06984025985002518 -0.011662404984235764 0.13500000536441803 127 249 234
0.07015769928693771 -0.011662404984235764 0.13500000536441803 127 235 220
0.07047513872385025 -0.011662404984235764 0.13500000536441803 127 236 218
0.07079257071018219 -0.011662404984235764 0.13500000536441803 127 218 200
0.0705832690000534 -0.011576016433537006 0.1340000033378601 127 231 213
0.07089836150407791 -0.011576016433537006 0.1340000033378601 127 218 200
0.07121344655752182 -0.011576016433537006 0.1340000033378601 127 204 187
0.07152853161096573 -0.011576016433537006 0.1340000033378601 127 192 175
0.07184361666440964 -0.011576016433537006 0.1340000033378601 127 180 166
0.07215870171785355 -0.011576016433537006 0.1340000033378601 127 173 159
0.07247379422187805 -0.011576016433537006 0.1340000033378601 127 115 113
0.07278887927532196 -0.011576016433537006 0.1340000033378601 127 55 52
0.07310396432876587 -0.011576016433537006 0.1340000033378601 127 58 68
0.0728711485862732 -0.011489628814160824 0.13300000131130219 127 122 133
0.07318388670682907 -0.011489628814160824 0.13300000131130219 127 190 205
0.07349661737680435 -0.011489628814160824 0.13300000131130219 127 204 219
0.07380935549736023 -0.011489628814160824 0.13300000131130219 127 210 208
0.07412209361791611 -0.011489628814160824 0.13300000131130219 127 196 194
0.07443482428789139 -0.011489628814160824 0.13300000131130219 127 213 198
0.07418555021286011 -0.011403240263462067 0.13199999928474426 127 203 188
0.07449593394994736 -0.011403240263462067 0.13199999928474426 127 202 186
0.0748063176870346 -0.011403240263462067 0.13199999928474426 127 191 175
0.07454763352870941 -0.011316852644085884 0.13099999725818634 127 190 175
0.07485567033290863 -0.011316852644085884 0.13099999725818634 127 191 176
0.07516369968652725 -0.011316852644085884 0.13099999725818634 127 192 177
0.07547173649072647 -0.011316852644085884 0.13099999725818634 127 201 186
0.07577976584434509 -0.011316852644085884 0.13099999725818634 127 192 174
0.07608779519796371 -0.011316852644085884 0.13099999725818634 127 196 178
0.07581266015768051 -0.011230464093387127 0.12999999523162842 127 195 174
0.0761183351278305 -0.011230464093387127 0.12999999523162842 127 188 167
0.0764240175485611 -0.011230464093387127 0.12999999523162842 127 184 163
0.07672969996929169 -0.011230464093387127 0.12999999523162842 127 172 151
0.07703538239002228 -0.011230464093387127 0.12999999523162842 127 177 158
0.07734106481075287 -0.011230464093387127 0.12999999523162842 127 167 148
0.07764674723148346 -0.011230464093387127 0.12999999523162842 127 173 155
0.07795242220163345 -0.011230464093387127 0.12999999523162842 127 166 148
0.07765612006187439 -0.01114407554268837 0.1289999932050705 127 162 144
0.07795944809913635 -0.01114407554268837 0.1289999932050705 127 156 138
0.07826278358697891 -0.01114407554268837 0.1289999932050705 127 158 139
0.07856611162424088 -0.01114407554268837 0.1289999932050705 127 160 141
0.07948083430528641 -0.011230464093387127 0.12999999523162842 127 158 142
0.079786516726017 -0.011230464093387127 0.12999999523162842 127 159 143
0.08009219169616699 -0.011230464093387127 0.12999999523162842 127 152 134
0.08039787411689758 -0.011230464093387127 0.12999999523162842 127 83 64
0.08070355653762817 -0.011230464093387127 0.12999999523162842 127 40 25
0.08100923895835876 -0.011230464093387127 0.12999999523162842 127 43 28
0.08131492137908936 -0.011230464093387127 0.12999999523162842 127 27 36
