0.07672969996929169 -0.014898639172315598 0.12999999523162842 151 114 109
0.07703538239002228 -0.014898639172315598 0.12999999523162842 149 114 109
0.07734106481075287 -0.014898639172315598 0.12999999523162842 150 115 110
0.07764674723148346 -0.014898639172315598 0.12999999523162842 152 120 114
0.07795242220163345 -0.014898639172315598 0.12999999523162842 151 119 113
0.07825810462236404 -0.014898639172315598 0.12999999523162842 147 117 112
0.07856378704309464 -0.014898639172315598 0.12999999523162842 147 117 112
0.07886946946382523 -0.014898639172315598 0.12999999523162842 137 109 110
0.07917515188455582 -0.014898639172315598 0.12999999523162842 135 107 108
0.07948083430528641 -0.014898639172315598 0.12999999523162842 133 97 101
0.079786516726017 -0.014898639172315598 0.12999999523162842 122 86 90
0.08009219169616699 -0.014898639172315598 0.12999999523162842 123 85 78
0.08039787411689758 -0.014898639172315598 0.12999999523162842 130 92 85
0.08070355653762817 -0.014898639172315598 0.12999999523162842 141 105 93
0.08100923895835876 -0.014898639172315598 0.12999999523162842 142 106 94
0.08131492137908936 -0.014898639172315598 0.12999999523162842 142 111 98
0.08162060379981995 -0.014898639172315598 0.12999999523162842 144 113 100
0.08192627876996994 -0.014898639172315598 0.12999999523162842 141 112 98
0.08223196119070053 -0.014898639172315598 0.12999999523162842 139 110 96
0.08253764361143112 -0.014898639172315598 0.12999999523162842 137 106 95
0.08284332603216171 -0.014898639172315598 0.12999999523162842 135 104 93
0.0831490084528923 -0.014898639172315598 0.12999999523162842 133 102 93
0.0834546908736229 -0.014898639172315598 0.12999999523162842 128 97 88
0.08376036584377289 -0.014898639172315598 0.12999999523162842 127 96 87
0.08406604826450348 -0.014898639172315598 0.12999999523162842 131 100 91
0.08437173068523407 -0.014898639172315598 0.12999999523162842 130 98 92
0.08467741310596466 -0.014898639172315598 0.12999999523162842 127 95 89
0.08498309552669525 -0.014898639172315598 0.12999999523162842 134 102 96
0.08528877794742584 -0.014898639172315598 0.12999999523162842 133 101 95
0.08559445291757584 -0.014898639172315598 0.12999999523162842 127 95 89
0.08590013533830643 -0.014898639172315598 0.12999999523162842 124 92 86
0.08620581775903702 -0.014898639172315598 0.12999999523162842 125 93 87
0.08651150017976761 -0.014898639172315598 0.12999999523162842 126 94 88
0.0868171826004982 -0.014898639172315598 0.12999999523162842 125 95 88
0.08712286502122879 -0.014898639172315598 0.12999999523162842 123 93 86
0.08742854744195938 -0.014898639172315598 0.12999999523162842 124 94 89
0.08773422241210938 -0.014898639172315598 0.12999999523162842 125 95 90
0.08803990483283997 -0.014898639172315598 0.12999999523162842 124 94 89
0.08834558725357056 -0.014898639172315598 0.12999999523162842 123 93 88
0.08865126967430115 -0.014898639172315598 0.12999999523162842 115 84 82
0.08895695209503174 -0.014898639172315598 0.12999999523162842 111 80 78
0.08926263451576233 -0.014898639172315598 0.12999999523162842 113 83 76
0.08956830948591232 -0.014898639172315598 0.12999999523162842 118 88 81
0.08987399190664291 -0.014898639172315598 0.12999999523162842 122 92 85
0.0901796743273735 -0.014898639172315598 0.12999999523162842 119 89 82
0.0904853567481041 -0.014898639172315598 0.12999999523162842 119 89 82
0.09079103916883469 -0.014898639172315598 0.12999999523162842 119 89 82
0.09109672158956528 -0.014898639172315598 0.12999999523162842 118 87 85
0.09140239655971527 -0.014898639172315598 0.12999999523162842 112 81 79
0.09170807898044586 -0.014898639172315598 0.12999999523162842 107 79 76
0.09272155910730362 -0.01501324400305748 0.13099999725818634 107 79 76
0.09302959591150284 -0.01501324400305748 0.13099999725818634 107 79 76
0.09333762526512146 -0.01501324400305748 0.13099999725818634 110 82 79
0.09364565461874008 -0.01501324400305748 0.13099999725818634 111 81 76
0.09467089176177979 -0.015127848833799362 0.13199999928474426 105 75 70
0.09498127549886703 -0.015127848833799362 0.13199999928474426 107 75 71
0.09529165923595428 -0.015127848833799362 0.13199999928474426 106 74 70
0.09560204297304153 -0.015127848833799362 0.13199999928474426 107 75 71
0.09663903713226318 -0.015242453664541245 0.13300000131130219 112 80 76
0.09695177525281906 -0.015242453664541245 0.13300000131130219 113 83 78
0.09726451337337494 -0.015242453664541245 0.13300000131130219 112 82 77
0.09757724404335022 -0.015242453664541245 0.13300000131130219 110 79 77
0.0978899821639061 -0.015242453664541245 0.13300000131130219 111 80 78
0.09820272028446198 -0.015242453664541245 0.13300000131130219 113 82 82
0.09925617277622223 -0.015357058495283127 0.1340000033378601 115 84 84
0.09957125782966614 -0.015357058495283127 0.1340000033378601 111 79 84
0.09988634288311005 -0.015357058495283127 0.1340000033378601 104 72 77
0.10020142793655396 -0.015357058495283127 0.1340000033378601 123 83 88
0.10051652044057846 -0.015357058495283127 0.1340000033378601 108 68 73
0.06814733892679214 -0.015490985475480556 0.1379999965429306 193 149 149
0.06847183406352997 -0.015490985475480556 0.1379999965429306 193 149 149
0.06829780340194702 -0.015378732234239578 0.13699999451637268 189 147 146
0.06861994415521622 -0.015378732234239578 0.13699999451637268 189 147 146
0.06894208490848541 -0.015378732234239578 0.13699999451637268 186 148 150
0.06875864416360855 -0.0152664789929986 0.13600000739097595 184 146 148
0.06907843798398972 -0.0152664789929986 0.13600000739097595 180 144 146
0.06939822435379028 -0.0152664789929986 0.13600000739097595 189 153 155
0.06971801817417145 -0.0152664789929986 0.13600000739097595 191 155 159
0.07003780454397202 -0.0152664789929986 0.13600000739097595 189 153 157
0.07035759091377258 -0.0152664789929986 0.13600000739097595 193 155 159
0.07067738473415375 -0.0152664789929986 0.13600000739097595 192 154 158
0.07099717110395432 -0.0152664789929986 0.13600000739097595 196 157 166
0.07079257071018219 -0.015154224820435047 0.13500000536441803 174 135 144
0.07111001014709473 -0.015154224820435047 0.13500000536441803 170 129 139
0.07142744958400726 -0.015154224820435047 0.13500000536441803 170 129 139
0.0717448890209198 -0.015154224820435047 0.13500000536441803 163 118 123
0.07206232845783234 -0.015154224820435047 0.13500000536441803 159 114 119
0.07247379422187805 -0.015041971579194069 0.1340000033378601 160 117 112
0.07278887927532196 -0.015041971579194069 0.1340000033378601 204 161 156
0.07310396432876587 -0.015041971579194069 0.1340000033378601 205 174 172
0.07341904938220978 -0.015041971579194069 0.1340000033378601 196 165 163
0.07318388670682907 -0.01492971833795309 0.13300000131130219 189 156 167
0.07349661737680435 -0.01492971833795309 0.13300000131130219 182 149 160
0.07380935549736023 -0.01492971833795309 0.13300000131130219 169 131 144
0.07356478273868561 -0.014817465096712112 0.13199999928474426 170 132 145
0.07387516647577286 -0.014817465096712112 0.13199999928474426 162 126 130
0.07418555021286011 -0.014817465096712112 0.13199999928474426 161 125 129
0.07449593394994736 -0.014817465096712112 0.13199999928474426 162 129 130
0.0748063176870346 -0.014817465096712112 0.13199999928474426 162 129 130
0.07511670142412186 -0.014817465096712112 0.13199999928474426 161 130 128
0.07485567033290863 -0.01470521092414856 0.13099999725818634 160 129 127
0.07516369968652725 -0.01470521092414856 0.13099999725818634 162 131 129
0.07547173649072647 -0.01470521092414856 0.13099999725818634 160 129 127
0.07577976584434509 -0.01470521092414856 0.13099999725818634 156 120 120
0.07608779519796371 -0.01470521092414856 0.13099999725818634 154 118 118
0.07639583200216293 -0.01470521092414856 0.13099999725818634 157 119 119
0.0761183351278305 -0.014592957682907581 0.12999999523162842 153 115 115
0.0764240175485611 -0.014592957682907581 0.12999999523162842 149 112 107
0.07672969996929169 -0.014592957682907581 0.12999999523162842 151 114 109
0.07703538239002228 -0.014592957682907581 0.12999999523162842 150 113 108
0.07734106481075287 -0.014592957682907581 0.12999999523162842 150 113 108
0.07764674723148346 -0.014592957682907581 0.12999999523162842 153 118 113
0.07795242220163345 -0.014592957682907581 0.12999999523162842 153 118 113
0.07765612006187439 -0.014480704441666603 0.1289999932050705 149 117 113
0.07795944809913635 -0.014480704441666603 0.1289999932050705 149 117 113
0.07826278358697891 -0.014480704441666603 0.1289999932050705 139 110 114
0.07917515188455582 -0.014592957682907581 0.12999999523162842 136 107 111
0.07948083430528641 -0.014592957682907581 0.12999999523162842 126 92 98
0.079786516726017 -0.014592957682907581 0.12999999523162842 126 92 98
0.08009219169616699 -0.014592957682907581 0.12999999523162842 122 85 80
0.08039787411689758 -0.014592957682907581 0.12999999523162842 127 90 85
0.08070355653762817 -0.014592957682907581 0.12999999523162842 149 111 100
0.08100923895835876 -0.014592957682907581 0.12999999523162842 145 107 96
0.08131492137908936 -0.014592957682907581 0.12999999523162842 144 115 101
0.08162060379981995 -0.014592957682907581 0.12999999523162842 145 116 102
0.08192627876996994 -0.014592957682907581 0.12999999523162842 145 119 106
0.08223196119070053 -0.014592957682907581 0.12999999523162842 139 113 100
0.08253764361143112 -0.014592957682907581 0.12999999523162842 134 104 97
0.08284332603216171 -0.014592957682907581 0.12999999523162842 127 97 90
0.0831490084528923 -0.014592957682907581 0.12999999523162842 129 99 92
0.0834546908736229 -0.014592957682907581 0.12999999523162842 126 96 89
0.08376036584377289 -0.014592957682907581 0.12999999523162842 126 96 89
0.08406604826450348 -0.014592957682907581 0.12999999523162842 129 99 92
0.08437173068523407 -0.014592957682907581 0.12999999523162842 130 103 95
0.08467741310596466 -0.014592957682907581 0.12999999523162842 125 98 90
0.08498309552669525 -0.014592957682907581 0.12999999523162842 128 101 93
0.08528877794742584 -0.014592957682907581 0.12999999523162842 125 98 90
0.08559445291757584 -0.014592957682907581 0.12999999523162842 124 98 87
0.08590013533830643 -0.014592957682907581 0.12999999523162842 123 97 86
0.08620581775903702 -0.014592957682907581 0.12999999523162842 124 97 89
0.08651150017976761 -0.014592957682907581 0.12999999523162842 122 95 87
0.0868171826004982 -0.014592957682907581 0.12999999523162842 121 96 87
0.08712286502122879 -0.014592957682907581 0.12999999523162842 117 92 83
0.08742854744195938 -0.014592957682907581 0.12999999523162842 115 90 81
0.08773422241210938 -0.014592957682907581 0.12999999523162842 121 96 87
0.08803990483283997 -0.014592957682907581 0.12999999523162842 123 96 88
0.08834558725357056 -0.014592957682907581 0.12999999523162842 124 97 89
0.08865126967430115 -0.014592957682907581 0.12999999523162842 121 93 90
0.08895695209503174 -0.014592957682907581 0.12999999523162842 113 85 82
0.08926263451576233 -0.014592957682907581 0.12999999523162842 115 89 78
0.08956830948591232 -0.014592957682907581 0.12999999523162842 117 91 80
0.08987399190664291 -0.014592957682907581 0.12999999523162842 120 94 83
0.0901796743273735 -0.014592957682907581 0.12999999523162842 117 91 80
0.0904853567481041 -0.014592957682907581 0.12999999523162842 116 89 81
0.09079103916883469 -0.014592957682907581 0.12999999523162842 116 89 81
0.09109672158956528 -0.014592957682907581 0.12999999523162842 116 88 85
0.09140239655971527 -0.014592957682907581 0.12999999523162842 110 82 79
0.09170807898044586 -0.014592957682907581 0.12999999523162842 107 81 79
0.09201376140117645 -0.014592957682907581 0.12999999523162842 108 82 80
0.09302959591150284 -0.01470521092414856 0.13099999725818634 106 80 76
0.09333762526512146 -0.01470521092414856 0.13099999725818634 109 83 79
0.09364565461874008 -0.01470521092414856 0.13099999725818634 107 81 77
0.0939536914229393 -0.01470521092414856 0.13099999725818634 107 81 77
0.09498127549886703 -0.014817465096712112 0.13199999928474426 106 79 73
0.09529165923595428 -0.014817465096712112 0.13199999928474426 104 77 71
0.09560204297304153 -0.014817465096712112 0.13199999928474426 106 81 72
0.09663903713226318 -0.01492971833795309 0.13300000131130219 110 85 76
0.09695177525281906 -0.01492971833795309 0.13300000131130219 112 87 78
0.09726451337337494 -0.01492971833795309 0.13300000131130219 112 87 78
0.09757724404335022 -0.01492971833795309 0.13300000131130219 112 86 82
0.0978899821639061 -0.01492971833795309 0.13300000131130219 113 87 83
0.09820272028446198 -0.01492971833795309 0.13300000131130219 113 87 85
0.09925617277622223 -0.015041971579194069 0.1340000033378601 112 86 84
0.09957125782966614 -0.015041971579194069 0.1340000033378601 115 88 91
0.09988634288311005 -0.015041971579194069 0.1340000033378601 106 79 82
0.10020142793655396 -0.015041971579194069 0.1340000033378601 120 84 88
0.10051652044057846 -0.015041971579194069 0.1340000033378601 114 78 82
0.06814733892679214 -0.015166493132710457 0.1379999965429306 196 153 155
0.06847183406352997 -0.015166493132710457 0.1379999965429306 199 156 158
0.06879632920026779 -0.015166493132710457 0.1379999965429306 197 157 160
0.06861994415521622 -0.015056591480970383 0.13699999451637268 196 156 159
0.06894208490848541 -0.015056591480970383 0.13699999451637268 192 156 158
0.06875864416360855 -0.014946688897907734 0.13600000739097595 192 156 158
0.06907843798398972 -0.014946688897907734 0.13600000739097595 190 157 158
0.06939822435379028 -0.014946688897907734 0.13600000739097595 190 157 158
0.06971801817417145 -0.014946688897907734 0.13600000739097595 197 164 167
0.07003780454397202 -0.014946688897907734 0.13600000739097595 196 163 166
0.07035759091377258 -0.014946688897907734 0.13600000739097595 195 162 165
0.07067738473415375 -0.014946688897907734 0.13600000739097595 195 162 165
0.07099717110395432 -0.014946688897907734 0.13600000739097595 194 159 171
0.07131696492433548 -0.014946688897907734 0.13600000739097595 184 149 161
0.07111001014709473 -0.01483678724616766 0.13500000536441803 174 136 151
0.07142744958400726 -0.01483678724616766 0.13500000536441803 163 125 140
0.0717448890209198 -0.01483678724616766 0.13500000536441803 159 119 122
0.07206232845783234 -0.01483678724616766 0.13500000536441803 160 120 123
0.07247379422187805 -0.014726884663105011 0.1340000033378601 144 106 99
0.07278887927532196 -0.014726884663105011 0.1340000033378601 207 169 162
0.07310396432876587 -0.014726884663105011 0.1340000033378601 210 179 179
0.07341904938220978 -0.014726884663105011 0.1340000033378601 208 177 177
0.07318388670682907 -0.014616983011364937 0.13300000131130219 197 164 175
0.07349661737680435 -0.014616983011364937 0.13300000131130219 187 154 165
0.07380935549736023 -0.014616983011364937 0.13300000131130219 167 133 141
0.07356478273868561 -0.014507080428302288 0.13199999928474426 173 139 147
0.07387516647577286 -0.014507080428302288 0.13199999928474426 164 128 132
0.07418555021286011 -0.014507080428302288 0.13199999928474426 163 127 131
0.07449593394994736 -0.014507080428302288 0.13199999928474426 161 130 132
0.0748063176870346 -0.014507080428302288 0.13199999928474426 162 131 133
0.07454763352870941 -0.014397178776562214 0.13099999725818634 162 134 135
0.07485567033290863 -0.014397178776562214 0.13099999725818634 159 131 132
0.07516369968652725 -0.014397178776562214 0.13099999725818634 164 136 135
0.07547173649072647 -0.014397178776562214 0.13099999725818634 159 131 130
0.07577976584434509 -0.014397178776562214 0.13099999725818634 161 130 130
0.07608779519796371 -0.014397178776562214 0.13099999725818634 159 128 128
0.07639583200216293 -0.014397178776562214 0.13099999725818634 159 122 119
0.0761183351278305 -0.014287276193499565 0.12999999523162842 150 113 110
0.0764240175485611 -0.014287276193499565 0.12999999523162842 153 112 106
0.07672969996929169 -0.014287276193499565 0.12999999523162842 154 113 107
0.07703538239002228 -0.014287276193499565 0.12999999523162842 151 115 107
0.07734106481075287 -0.014287276193499565 0.12999999523162842 152 116 108
0.07704946398735046 -0.014177374541759491 0.1289999932050705 155 119 111
0.07735279202461243 -0.014177374541759491 0.1289999932050705 155 119 111
0.07765612006187439 -0.014177374541759491 0.1289999932050705 153 121 117
0.07795944809913635 -0.014177374541759491 0.1289999932050705 151 119 115
0.07826278358697891 -0.014177374541759491 0.1289999932050705 141 112 116
0.07856611162424088 -0.014177374541759491 0.1289999932050705 141 112 116
0.07886943966150284 -0.014177374541759491 0.1289999932050705 139 105 111
0.079786516726017 -0.014287276193499565 0.12999999523162842 134 100 106
0.08009219169616699 -0.014287276193499565 0.12999999523162842 124 86 86
0.08039787411689758 -0.014287276193499565 0.12999999523162842 124 86 86
0.08070355653762817 -0.014287276193499565 0.12999999523162842 142 104 97
0.08100923895835876 -0.014287276193499565 0.12999999523162842 150 112 105
0.08131492137908936 -0.014287276193499565 0.12999999523162842 147 118 108
0.08162060379981995 -0.014287276193499565 0.12999999523162842 148 119 109
0.08192627876996994 -0.014287276193499565 0.12999999523162842 143 118 111
0.08223196119070053 -0.014287276193499565 0.12999999523162842 137 112 105
0.08253764361143112 -0.014287276193499565 0.12999999523162842 134 106 105
0.08284332603216171 -0.014287276193499565 0.12999999523162842 125 97 96
0.0831490084528923 -0.014287276193499565 0.12999999523162842 126 95 95
0.0834546908736229 -0.014287276193499565 0.12999999523162842 126 95 95
0.08376036584377289 -0.014287276193499565 0.12999999523162842 125 97 96
0.08406604826450348 -0.014287276193499565 0.12999999523162842 127 99 98
0.08437173068523407 -0.014287276193499565 0.12999999523162842 126 100 96
0.08467741310596466 -0.014287276193499565 0.12999999523162842 126 100 96
0.08498309552669525 -0.014287276193499565 0.12999999523162842 127 102 95
0.08528877794742584 -0.014287276193499565 0.12999999523162842 128 103 96
0.08559445291757584 -0.014287276193499565 0.12999999523162842 127 102 95
0.08590013533830643 -0.014287276193499565 0.12999999523162842 127 102 95
0.08620581775903702 -0.014287276193499565 0.12999999523162842 126 101 94
0.08651150017976761 -0.014287276193499565 0.12999999523162842 121 96 89
0.0868171826004982 -0.014287276193499565 0.12999999523162842 117 92 85
0.08712286502122879 -0.014287276193499565 0.12999999523162842 119 94 87
0.08742854744195938 -0.014287276193499565 0.12999999523162842 117 92 85
0.08773422241210938 -0.014287276193499565 0.12999999523162842 119 94 87
0.08803990483283997 -0.014287276193499565 0.12999999523162842 120 95 88
0.08834558725357056 -0.014287276193499565 0.12999999523162842 121 96 89
0.08865126967430115 -0.014287276193499565 0.12999999523162842 120 92 89
0.08895695209503174 -0.014287276193499565 0.12999999523162842 114 86 83
0.08926263451576233 -0.014287276193499565 0.12999999523162842 113 83 78
0.08956830948591232 -0.014287276193499565 0.12999999523162842 119 89 84
0.08987399190664291 -0.014287276193499565 0.12999999523162842 117 91 80
0.0901796743273735 -0.014287276193499565 0.12999999523162842 121 95 84
0.0904853567481041 -0.014287276193499565 0.12999999523162842 121 95 84
0.09079103916883469 -0.014287276193499565 0.12999999523162842 118 92 81
0.09109672158956528 -0.014287276193499565 0.12999999523162842 117 90 82
0.09140239655971527 -0.014287276193499565 0.12999999523162842 116 89 81
0.09170807898044586 -0.014287276193499565 0.12999999523162842 113 87 83
0.09201376140117645 -0.014287276193499565 0.12999999523162842 109 83 79
0.09231944382190704 -0.014287276193499565 0.12999999523162842 108 82 80
0.09333762526512146 -0.014397178776562214 0.13099999725818634 108 82 80
0.09364565461874008 -0.014397178776562214 0.13099999725818634 109 83 79
0.0939536914229393 -0.014397178776562214 0.13099999725818634 108 82 78
0.09498127549886703 -0.014507080428302288 0.13199999928474426 105 80 73
0.09529165923595428 -0.014507080428302288 0.13199999928474426 105 80 73
0.09560204297304153 -0.014507080428302288 0.13199999928474426 109 84 75
0.09591243416070938 -0.014507080428302288 0.13199999928474426 114 89 80
0.09695177525281906 -0.014616983011364937 0.13300000131130219 115 91 79
0.09726451337337494 -0.014616983011364937 0.13300000131130219 117 93 81
0.09757724404335022 -0.014616983011364937 0.13300000131130219 116 91 84
0.0978899821639061 -0.014616983011364937 0.13300000131130219 115 90 83
0.09820272028446198 -0.014616983011364937 0.13300000131130219 115 89 87
0.09925617277622223 -0.014726884663105011 0.1340000033378601 113 87 85
0.09957125782966614 -0.014726884663105011 0.1340000033378601 113 90 89
0.09988634288311005 -0.014726884663105011 0.1340000033378601 110 87 86
0.10020142793655396 -0.014726884663105011 0.1340000033378601 116 83 84
0.10051652044057846 -0.014726884663105011 0.1340000033378601 113 80 81
0.06814733892679214 -0.014842000789940357 0.1379999965429306 200 160 161
0.06847183406352997 -0.014842000789940357 0.1379999965429306 203 163 164
0.06879632920026779 -0.014842000789940357 0.1379999965429306 200 162 166
0.06861994415521622 -0.014734450727701187 0.13699999451637268 200 162 166
0.06894208490848541 -0.014734450727701187 0.13699999451637268 198 162 166
0.06926422566175461 -0.014734450727701187 0.13699999451637268 196 160 164
0.06907843798398972 -0.014626899734139442 0.13600000739097595 194 161 164
0.06939822435379028 -0.014626899734139442 0.13600000739097595 194 161 164
0.06971801817417145 -0.014626899734139442 0.13600000739097595 198 167 169
0.07003780454397202 -0.014626899734139442 0.13600000739097595 201 170 172
0.07035759091377258 -0.014626899734139442 0.13600000739097595 202 168 174
0.07067738473415375 -0.014626899734139442 0.13600000739097595 201 167 173
0.07099717110395432 -0.014626899734139442 0.13600000739097595 194 159 173
0.07131696492433548 -0.014626899734139442 0.13600000739097595 188 153 167
0.07111001014709473 -0.014519348740577698 0.13500000536441803 180 145 159
0.07142744958400726 -0.014519348740577698 0.13500000536441803 162 127 141
0.0717448890209198 -0.014519348740577698 0.13500000536441803 151 115 117
0.07206232845783234 -0.014519348740577698 0.13500000536441803 161 125 127
0.07237976789474487 -0.014519348740577698 0.13500000536441803 156 114 111
0.07215870171785355 -0.014411797747015953 0.1340000033378601 111 69 66
0.07247379422187805 -0.014411797747015953 0.1340000033378601 132 97 92
0.07278887927532196 -0.014411797747015953 0.1340000033378601 208 173 168
0.07310396432876587 -0.014411797747015953 0.1340000033378601 210 182 183
0.0728711485862732 -0.014304247684776783 0.13300000131130219 213 185 186
0.07318388670682907 -0.014304247684776783 0.13300000131130219 205 177 188
0.07349661737680435 -0.014304247684776783 0.13300000131130219 191 163 174
0.07380935549736023 -0.014304247684776783 0.13300000131130219 183 151 158
0.07356478273868561 -0.014196696691215038 0.13199999928474426 177 145 152
0.07387516647577286 -0.014196696691215038 0.13199999928474426 160 127 128
0.07418555021286011 -0.014196696691215038 0.13199999928474426 158 125 126
0.07449593394994736 -0.014196696691215038 0.13199999928474426 158 130 129
0.0748063176870346 -0.014196696691215038 0.13199999928474426 160 132 131
0.07454763352870941 -0.014089145697653294 0.13099999725818634 162 135 140
0.07485567033290863 -0.014089145697653294 0.13099999725818634 161 134 139
0.07516369968652725 -0.014089145697653294 0.13099999725818634 163 136 141
0.07547173649072647 -0.014089145697653294 0.13099999725818634 159 132 137
0.07577976584434509 -0.014089145697653294 0.13099999725818634 157 129 130
0.07608779519796371 -0.014089145697653294 0.13099999725818634 157 129 130
0.07581266015768051 -0.013981594704091549 0.12999999523162842 158 122 122
0.0761183351278305 -0.013981594704091549 0.12999999523162842 153 117 117
0.0764240175485611 -0.013981594704091549 0.12999999523162842 154 115 111
0.07672969996929169 -0.013981594704091549 0.12999999523162842 154 115 111
0.07703538239002228 -0.013981594704091549 0.12999999523162842 156 119 114
0.07734106481075287 -0.013981594704091549 0.12999999523162842 156 119 114
0.07704946398735046 -0.013874044641852379 0.1289999932050705 153 118 113
0.07735279202461243 -0.013874044641852379 0.1289999932050705 153 118 113
0.07765612006187439 -0.013874044641852379 0.1289999932050705 156 121 116
0.07795944809913635 -0.013874044641852379 0.1289999932050705 153 118 113
0.07826278358697891 -0.013874044641852379 0.1289999932050705 144 116 115
0.07856611162424088 -0.013874044641852379 0.1289999932050705 142 114 113
0.07886943966150284 -0.013874044641852379 0.1289999932050705 138 106 113
0.0791727676987648 -0.013874044641852379 0.1289999932050705 137 105 112
0.08009219169616699 -0.013981594704091549 0.12999999523162842 123 85 85
0.08039787411689758 -0.013981594704091549 0.12999999523162842 127 89 89
0.08070355653762817 -0.013981594704091549 0.12999999523162842 136 97 93
0.08100923895835876 -0.013981594704091549 0.12999999523162842 131 92 88
0.08131492137908936 -0.013981594704091549 0.12999999523162842 146 119 111
0.08162060379981995 -0.013981594704091549 0.12999999523162842 148 121 113
0.08192627876996994 -0.013981594704091549 0.12999999523162842 143 120 115
0.08223196119070053 -0.013981594704091549 0.12999999523162842 141 118 113
0.08253764361143112 -0.013981594704091549 0.12999999523162842 136 109 112
0.08284332603216171 -0.013981594704091549 0.12999999523162842 128 101 104
0.0831490084528923 -0.013981594704091549 0.12999999523162842 125 93 98
0.0834546908736229 -0.013981594704091549 0.12999999523162842 125 93 98
0.08376036584377289 -0.013981594704091549 0.12999999523162842 127 99 100
0.08406604826450348 -0.013981594704091549 0.12999999523162842 125 97 98
0.08437173068523407 -0.013981594704091549 0.12999999523162842 124 101 98
0.08467741310596466 -0.013981594704091549 0.12999999523162842 125 102 99
0.08498309552669525 -0.013981594704091549 0.12999999523162842 125 102 97
0.08528877794742584 -0.013981594704091549 0.12999999523162842 122 99 94
0.08559445291757584 -0.013981594704091549 0.12999999523162842 124 101 96
0.08590013533830643 -0.013981594704091549 0.12999999523162842 125 102 97
0.08620581775903702 -0.013981594704091549 0.12999999523162842 122 100 92
0.08651150017976761 -0.013981594704091549 0.12999999523162842 120 98 90
0.0868171826004982 -0.013981594704091549 0.12999999523162842 118 96 88
0.08712286502122879 -0.013981594704091549 0.12999999523162842 118 96 88
0.08742854744195938 -0.013981594704091549 0.12999999523162842 120 95 88
0.08773422241210938 -0.013981594704091549 0.12999999523162842 121 96 89
0.08803990483283997 -0.013981594704091549 0.12999999523162842 120 95 88
0.08834558725357056 -0.013981594704091549 0.12999999523162842 117 92 85
0.08865126967430115 -0.013981594704091549 0.12999999523162842 119 93 89
0.08895695209503174 -0.013981594704091549 0.12999999523162842 109 83 79
0.08926263451576233 -0.013981594704091549 0.12999999523162842 110 80 75
0.08956830948591232 -0.013981594704091549 0.12999999523162842 111 81 76
0.08987399190664291 -0.013981594704091549 0.12999999523162842 115 88 80
0.0901796743273735 -0.013981594704091549 0.12999999523162842 122 95 87
0.0904853567481041 -0.013981594704091549 0.12999999523162842 121 95 84
0.09079103916883469 -0.013981594704091549 0.12999999523162842 118 92 81
0.09109672158956528 -0.013981594704091549 0.12999999523162842 116 91 82
0.09140239655971527 -0.013981594704091549 0.12999999523162842 115 90 81
0.09170807898044586 -0.013981594704091549 0.12999999523162842 110 88 78
0.09201376140117645 -0.013981594704091549 0.12999999523162842 108 86 76
0.09231944382190704 -0.013981594704091549 0.12999999523162842 111 88 83
0.09262512624263763 -0.013981594704091549 0.12999999523162842 107 84 79
0.09364565461874008 -0.014089145697653294 0.13099999725818634 108 82 78
0.0939536914229393 -0.014089145697653294 0.13099999725818634 109 83 79
0.09426172077655792 -0.014089145697653294 0.13099999725818634 109 83 79
0.09529165923595428 -0.014196696691215038 0.13199999928474426 109 83 79
0.09560204297304153 -0.014196696691215038 0.13199999928474426 113 87 76
0.09591243416070938 -0.014196696691215038 0.13199999928474426 116 90 79
0.09695177525281906 -0.014304247684776783 0.13300000131130219 115 91 79
0.09726451337337494 -0.014304247684776783 0.13300000131130219 117 93 81
0.09757724404335022 -0.014304247684776783 0.13300000131130219 113 91 81
0.0978899821639061 -0.014304247684776783 0.13300000131130219 110 88 78
0.09820272028446198 -0.014304247684776783 0.13300000131130219 109 88 85
0.09925617277622223 -0.014411797747015953 0.1340000033378601 110 89 86
0.09957125782966614 -0.014411797747015953 0.1340000033378601 110 89 88
0.09988634288311005 -0.014411797747015953 0.1340000033378601 108 87 86
0.10020142793655396 -0.014411797747015953 0.1340000033378601 112 81 81
0.10051652044057846 -0.014411797747015953 0.1340000033378601 109 78 78
0.06565024703741074 -0.01483310665935278 0.14100000262260437 168 120 126
0.06598179042339325 -0.01483310665935278 0.14100000262260437 159 111 117
0.06584303081035614 -0.014727907255291939 0.14000000059604645 165 116 117
0.06617222726345062 -0.014727907255291939 0.14000000059604645 154 105 106
0.06798747181892395 -0.014622707851231098 0.13899999856948853 209 166 161
0.06782285124063492 -0.014517508447170258 0.1379999965429306 198 155 150
0.06814733892679214 -0.014517508447170258 0.1379999965429306 196 158 160
0.06847183406352997 -0.014517508447170258 0.1379999965429306 206 168 170
0.06879632920026779 -0.014517508447170258 0.1379999965429306 205 168 177
0.06861994415521622 -0.014412309043109417 0.13699999451637268 204 167 176
0.06894208490848541 -0.014412309043109417 0.13699999451637268 201 167 175
0.06926422566175461 -0.014412309043109417 0.13699999451637268 202 168 176
0.06907843798398972 -0.014307109639048576 0.13600000739097595 197 165 170
0.06939822435379028 -0.014307109639048576 0.13600000739097595 197 165 170
0.06971801817417145 -0.014307109639048576 0.13600000739097595 200 168 173
0.07003780454397202 -0.014307109639048576 0.13600000739097595 201 169 174
0.07035759091377258 -0.014307109639048576 0.13600000739097595 204 172 177
0.07067738473415375 -0.014307109639048576 0.13600000739097595 201 169 174
0.07099717110395432 -0.014307109639048576 0.13600000739097595 201 168 179
0.07131696492433548 -0.014307109639048576 0.13600000739097595 200 167 178
0.07111001014709473 -0.014201910234987736 0.13500000536441803 194 162 169
0.07142744958400726 -0.014201910234987736 0.13500000536441803 175 143 150
0.0717448890209198 -0.014201910234987736 0.13500000536441803 161 130 128
0.07206232845783234 -0.014201910234987736 0.13500000536441803 154 123 121
0.07184361666440964 -0.014096710830926895 0.1340000033378601 162 125 120
0.07215870171785355 -0.014096710830926895 0.1340000033378601 132 95 90
0.07247379422187805 -0.014096710830926895 0.1340000033378601 130 98 94
0.07278887927532196 -0.014096710830926895 0.1340000033378601 208 176 172
0.07310396432876587 -0.014096710830926895 0.1340000033378601 212 183 189
0.0728711485862732 -0.01399151235818863 0.13300000131130219 210 181 187
0.07318388670682907 -0.01399151235818863 0.13300000131130219 204 179 189
0.07349661737680435 -0.01399151235818863 0.13300000131130219 188 163 173
0.07325439900159836 -0.013886312954127789 0.13199999928474426 174 145 151
0.07356478273868561 -0.013886312954127789 0.13199999928474426 166 137 143
0.07387516647577286 -0.013886312954127789 0.13199999928474426 161 128 129
0.07418555021286011 -0.013886312954127789 0.13199999928474426 162 129 130
0.07449593394994736 -0.013886312954127789 0.13199999928474426 158 130 129
0.0748063176870346 -0.013886312954127789 0.13199999928474426 162 134 133
0.07454763352870941 -0.013781113550066948 0.13099999725818634 162 135 138
0.07485567033290863 -0.013781113550066948 0.13099999725818634 163 136 139
0.07516369968652725 -0.013781113550066948 0.13099999725818634 163 135 144
0.07547173649072647 -0.013781113550066948 0.13099999725818634 163 135 144
0.07577976584434509 -0.013781113550066948 0.13099999725818634 159 132 137
0.07608779519796371 -0.013781113550066948 0.13099999725818634 156 129 134
0.07581266015768051 -0.013675914146006107 0.12999999523162842 154 121 122
0.0761183351278305 -0.013675914146006107 0.12999999523162842 153 120 121
0.0764240175485611 -0.013675914146006107 0.12999999523162842 151 116 113
0.07672969996929169 -0.013675914146006107 0.12999999523162842 149 114 111
0.07703538239002228 -0.013675914146006107 0.12999999523162842 151 116 113
0.0767461284995079 -0.013570714741945267 0.1289999932050705 151 116 113
0.07704946398735046 -0.013570714741945267 0.1289999932050705 152 120 116
0.07735279202461243 -0.013570714741945267 0.1289999932050705 153 121 117
0.07765612006187439 -0.013570714741945267 0.1289999932050705 153 123 118
0.07795944809913635 -0.013570714741945267 0.1289999932050705 152 122 117
0.07826278358697891 -0.013570714741945267 0.1289999932050705 149 121 120
0.07856611162424088 -0.013570714741945267 0.1289999932050705 146 118 117
0.07886943966150284 -0.013570714741945267 0.1289999932050705 133 101 106
0.0791727676987648 -0.013570714741945267 0.1289999932050705 130 98 103
0.08009219169616699 -0.013675914146006107 0.12999999523162842 121 85 87
0.08039787411689758 -0.013675914146006107 0.12999999523162842 122 86 88
0.08070355653762817 -0.013675914146006107 0.12999999523162842 132 95 92
0.08100923895835876 -0.013675914146006107 0.12999999523162842 141 104 101
0.08131492137908936 -0.013675914146006107 0.12999999523162842 144 117 111
0.08162060379981995 -0.013675914146006107 0.12999999523162842 148 121 115
0.08192627876996994 -0.013675914146006107 0.12999999523162842 143 120 119
0.08223196119070053 -0.013675914146006107 0.12999999523162842 138 115 114
0.08253764361143112 -0.013675914146006107 0.12999999523162842 131 103 112
0.08284332603216171 -0.013675914146006107 0.12999999523162842 130 102 111
0.0831490084528923 -0.013675914146006107 0.12999999523162842 129 100 104
0.0834546908736229 -0.013675914146006107 0.12999999523162842 122 93 97
0.08376036584377289 -0.013675914146006107 0.12999999523162842 122 94 93
0.08406604826450348 -0.013675914146006107 0.12999999523162842 128 100 99
0.08437173068523407 -0.013675914146006107 0.12999999523162842 129 103 101
0.08467741310596466 -0.013675914146006107 0.12999999523162842 128 102 100
0.08498309552669525 -0.013675914146006107 0.12999999523162842 127 101 97
0.08528877794742584 -0.013675914146006107 0.12999999523162842 129 103 99
0.08559445291757584 -0.013675914146006107 0.12999999523162842 128 102 98
0.08590013533830643 -0.013675914146006107 0.12999999523162842 123 97 93
0.08620581775903702 -0.013675914146006107 0.12999999523162842 122 96 92
0.08651150017976761 -0.013675914146006107 0.12999999523162842 121 95 91
0.0868171826004982 -0.013675914146006107 0.12999999523162842 121 95 91
0.08712286502122879 -0.013675914146006107 0.12999999523162842 121 95 91
0.08742854744195938 -0.013675914146006107 0.12999999523162842 123 97 93
0.08773422241210938 -0.013675914146006107 0.12999999523162842 122 96 92
0.08803990483283997 -0.013675914146006107 0.12999999523162842 119 93 89
0.08834558725357056 -0.013675914146006107 0.12999999523162842 119 93 89
0.08865126967430115 -0.013675914146006107 0.12999999523162842 115 89 85
0.08895695209503174 -0.013675914146006107 0.12999999523162842 110 84 80
0.08926263451576233 -0.013675914146006107 0.12999999523162842 109 84 77
0.08956830948591232 -0.013675914146006107 0.12999999523162842 112 87 80
0.08987399190664291 -0.013675914146006107 0.12999999523162842 117 92 83
0.0901796743273735 -0.013675914146006107 0.12999999523162842 121 96 87
0.0904853567481041 -0.013675914146006107 0.12999999523162842 122 97 88
0.09079103916883469 -0.013675914146006107 0.12999999523162842 119 94 85
0.09109672158956528 -0.013675914146006107 0.12999999523162842 116 91 82
0.09140239655971527 -0.013675914146006107 0.12999999523162842 115 90 81
0.09170807898044586 -0.013675914146006107 0.12999999523162842 111 89 79
0.09201376140117645 -0.013675914146006107 0.12999999523162842 112 90 80
0.09231944382190704 -0.013675914146006107 0.12999999523162842 107 85 77
0.09262512624263763 -0.013675914146006107 0.12999999523162842 107 85 77
0.09364565461874008 -0.013781113550066948 0.13099999725818634 109 84 77
0.0939536914229393 -0.013781113550066948 0.13099999725818634 108 83 76
0.09426172077655792 -0.013781113550066948 0.13099999725818634 107 82 75
0.09529165923595428 -0.013886312954127789 0.13199999928474426 107 82 75
0.09560204297304153 -0.013886312954127789 0.13199999928474426 114 90 78
0.09591243416070938 -0.013886312954127789 0.13199999928474426 119 95 83
0.09695177525281906 -0.01399151235818863 0.13300000131130219 117 96 83
0.09726451337337494 -0.01399151235818863 0.13300000131130219 117 96 83
0.09757724404335022 -0.01399151235818863 0.13300000131130219 110 90 80
0.0978899821639061 -0.01399151235818863 0.13300000131130219 113 93 83
0.09820272028446198 -0.01399151235818863 0.13300000131130219 108 89 83
0.09925617277622223 -0.014096710830926895 0.1340000033378601 105 86 80
0.09957125782966614 -0.014096710830926895 0.1340000033378601 105 86 80
0.09988634288311005 -0.014096710830926895 0.1340000033378601 102 83 77
0.10020142793655396 -0.014096710830926895 0.1340000033378601 106 80 76
0.10051652044057846 -0.014096710830926895 0.1340000033378601 105 79 75
0.06478025764226913 -0.014604408293962479 0.1420000046491623 191 143 147
0.0646556094288826 -0.014501560479402542 0.14100000262260437 190 142 146
0.06498715281486511 -0.014501560479402542 0.14100000262260437 185 142 148
0.06531869620084763 -0.014501560479402542 0.14100000262260437 180 137 143
0.06565024703741074 -0.014501560479402542 0.14100000262260437 181 140 148
0.06598179042339325 -0.014501560479402542 0.14100000262260437 161 120 128
0.06584303081035614 -0.014398711733520031 0.14000000059604645 161 116 121
0.06617222726345062 -0.014398711733520031 0.14000000059604645 154 109 114
0.0665014237165451 -0.014398711733520031 0.14000000059604645 152 105 106
0.06683062016963959 -0.014398711733520031 0.14000000059604645 151 104 105
0.06668009608983994 -0.014295863918960094 0.13899999856948853 156 109 108
0.06700694561004639 -0.014295863918960094 0.13899999856948853 143 96 95
0.06733378767967224 -0.014295863918960094 0.13899999856948853 136 89 88
0.0676606297492981 -0.014295863918960094 0.13899999856948853 170 123 122
0.06798747181892395 -0.014295863918960094 0.13899999856948853 208 168 169
0.06782285124063492 -0.014193016104400158 0.1379999965429306 203 163 164
0.06814733892679214 -0.014193016104400158 0.1379999965429306 199 165 171
0.06847183406352997 -0.014193016104400158 0.1379999965429306 210 176 182
0.06829780340194702 -0.014090168289840221 0.13699999451637268 209 174 188
0.06861994415521622 -0.014090168289840221 0.13699999451637268 208 173 187
0.06894208490848541 -0.014090168289840221 0.13699999451637268 205 172 183
0.06926422566175461 -0.014090168289840221 0.13699999451637268 205 172 183
0.06907843798398972 -0.013987320475280285 0.13600000739097595 201 172 178
0.06939822435379028 -0.013987320475280285 0.13600000739097595 201 172 178
0.06971801817417145 -0.013987320475280285 0.13600000739097595 200 171 175
0.07003780454397202 -0.013987320475280285 0.13600000739097595 200 171 175
0.07035759091377258 -0.013987320475280285 0.13600000739097595 201 172 176
0.07067738473415375 -0.013987320475280285 0.13600000739097595 203 174 178
0.07099717110395432 -0.013987320475280285 0.13600000739097595 206 177 181
0.07131696492433548 -0.013987320475280285 0.13600000739097595 203 174 178
0.07111001014709473 -0.013884472660720348 0.13500000536441803 202 173 177
0.07142744958400726 -0.013884472660720348 0.13500000536441803 180 151 155
0.0717448890209198 -0.013884472660720348 0.13500000536441803 158 130 127
0.07206232845783234 -0.013884472660720348 0.13500000536441803 153 125 122
0.07184361666440964 -0.013781624846160412 0.1340000033378601 159 129 124
0.07215870171785355 -0.013781624846160412 0.1340000033378601 134 104 99
0.07247379422187805 -0.013781624846160412 0.1340000033378601 128 95 96
0.07278887927532196 -0.013781624846160412 0.1340000033378601 201 168 169
0.07255841046571732 -0.0136787761002779 0.13300000131130219 214 187 190
0.0728711485862732 -0.0136787761002779 0.13300000131130219 208 181 184
0.07318388670682907 -0.0136787761002779 0.13300000131130219 197 176 187
0.07349661737680435 -0.0136787761002779 0.13300000131130219 189 168 179
0.07325439900159836 -0.013575928285717964 0.13199999928474426 182 157 165
0.07356478273868561 -0.013575928285717964 0.13199999928474426 160 135 143
0.07387516647577286 -0.013575928285717964 0.13199999928474426 162 134 133
0.07418555021286011 -0.013575928285717964 0.13199999928474426 159 131 130
0.07449593394994736 -0.013575928285717964 0.13199999928474426 162 136 134
0.07423960417509079 -0.013473080471158028 0.13099999725818634 162 136 134
0.07454763352870941 -0.013473080471158028 0.13099999725818634 161 138 137
0.07485567033290863 -0.013473080471158028 0.13099999725818634 162 139 138
0.07516369968652725 -0.013473080471158028 0.13099999725818634 161 137 141
0.07547173649072647 -0.013473080471158028 0.13099999725818634 161 137 141
0.07577976584434509 -0.013473080471158028 0.13099999725818634 162 135 140
0.07608779519796371 -0.013473080471158028 0.13099999725818634 157 130 135
0.07581266015768051 -0.013370232656598091 0.12999999523162842 155 122 123
0.0761183351278305 -0.013370232656598091 0.12999999523162842 154 121 122
0.0764240175485611 -0.013370232656598091 0.12999999523162842 152 119 118
0.07672969996929169 -0.013370232656598091 0.12999999523162842 148 115 114
0.07703538239002228 -0.013370232656598091 0.12999999523162842 149 116 115
0.0767461284995079 -0.013267384842038155 0.1289999932050705 149 116 115
0.07704946398735046 -0.013267384842038155 0.1289999932050705 145 117 114
0.07735279202461243 -0.013267384842038155 0.1289999932050705 150 122 119
0.07765612006187439 -0.013267384842038155 0.1289999932050705 150 122 119
0.07795944809913635 -0.013267384842038155 0.1289999932050705 149 121 118
0.07826278358697891 -0.013267384842038155 0.1289999932050705 144 118 118
0.07856611162424088 -0.013267384842038155 0.1289999932050705 141 115 115
0.07886943966150284 -0.013267384842038155 0.1289999932050705 134 107 110
0.0791727676987648 -0.013267384842038155 0.1289999932050705 130 103 106
0.07947610318660736 -0.013267384842038155 0.1289999932050705 126 93 94
0.08039787411689758 -0.013370232656598091 0.12999999523162842 111 78 79
0.08070355653762817 -0.013370232656598091 0.12999999523162842 141 104 101
0.08100923895835876 -0.013370232656598091 0.12999999523162842 136 99 96
0.08131492137908936 -0.013370232656598091 0.12999999523162842 143 116 110
0.08162060379981995 -0.013370232656598091 0.12999999523162842 146 119 113
0.08192627876996994 -0.013370232656598091 0.12999999523162842 143 122 121
0.08223196119070053 -0.013370232656598091 0.12999999523162842 137 116 115
0.08253764361143112 -0.013370232656598091 0.12999999523162842 129 104 114
0.08284332603216171 -0.013370232656598091 0.12999999523162842 128 103 113
0.0831490084528923 -0.013370232656598091 0.12999999523162842 130 103 108
0.0834546908736229 -0.013370232656598091 0.12999999523162842 127 100 105
0.08376036584377289 -0.013370232656598091 0.12999999523162842 126 100 98
0.08406604826450348 -0.013370232656598091 0.12999999523162842 127 101 99
0.08437173068523407 -0.013370232656598091 0.12999999523162842 126 100 96
0.08467741310596466 -0.013370232656598091 0.12999999523162842 126 100 96
0.08498309552669525 -0.013370232656598091 0.12999999523162842 124 98 94
0.08528877794742584 -0.013370232656598091 0.12999999523162842 128 102 98
0.08559445291757584 -0.013370232656598091 0.12999999523162842 128 102 98
0.08590013533830643 -0.013370232656598091 0.12999999523162842 126 100 96
0.08620581775903702 -0.013370232656598091 0.12999999523162842 126 100 96
0.08651150017976761 -0.013370232656598091 0.12999999523162842 121 95 91
0.0868171826004982 -0.013370232656598091 0.12999999523162842 123 97 93
0.08712286502122879 -0.013370232656598091 0.12999999523162842 121 95 91
0.08742854744195938 -0.013370232656598091 0.12999999523162842 120 94 90
0.08773422241210938 -0.013370232656598091 0.12999999523162842 121 95 91
0.08803990483283997 -0.013370232656598091 0.12999999523162842 120 94 90
0.08834558725357056 -0.013370232656598091 0.12999999523162842 117 91 87
0.08865126967430115 -0.013370232656598091 0.12999999523162842 116 90 86
0.08895695209503174 -0.013370232656598091 0.12999999523162842 114 88 84
0.08926263451576233 -0.013370232656598091 0.12999999523162842 113 88 81
0.08956830948591232 -0.013370232656598091 0.12999999523162842 115 90 83
0.08987399190664291 -0.013370232656598091 0.12999999523162842 114 92 84
0.0901796743273735 -0.013370232656598091 0.12999999523162842 118 96 88
0.0904853567481041 -0.013370232656598091 0.12999999523162842 120 98 90
0.09079103916883469 -0.013370232656598091 0.12999999523162842 119 97 89
0.09109672158956528 -0.013370232656598091 0.12999999523162842 117 95 85
0.09140239655971527 -0.013370232656598091 0.12999999523162842 113 91 81
0.09170807898044586 -0.013370232656598091 0.12999999523162842 110 88 80
0.09201376140117645 -0.013370232656598091 0.12999999523162842 108 86 78
0.09231944382190704 -0.013370232656598091 0.12999999523162842 107 85 77
0.09262512624263763 -0.013370232656598091 0.12999999523162842 110 88 80
0.09364565461874008 -0.013473080471158028 0.13099999725818634 108 86 76
0.0939536914229393 -0.013473080471158028 0.13099999725818634 107 85 75
0.09426172077655792 -0.013473080471158028 0.13099999725818634 109 84 75
0.09529165923595428 -0.013575928285717964 0.13199999928474426 108 83 74
0.09560204297304153 -0.013575928285717964 0.13199999928474426 114 89 80
0.09663903713226318 -0.0136787761002779 0.13300000131130219 119 94 85
0.09695177525281906 -0.0136787761002779 0.13300000131130219 119 97 87
0.09726451337337494 -0.0136787761002779 0.13300000131130219 118 96 86
0.09757724404335022 -0.0136787761002779 0.13300000131130219 111 91 81
0.0978899821639061 -0.0136787761002779 0.13300000131130219 115 95 85
0.09894108027219772 -0.013781624846160412 0.1340000033378601 106 90 83
0.09925617277622223 -0.013781624846160412 0.1340000033378601 102 86 79
0.09957125782966614 -0.013781624846160412 0.1340000033378601 103 87 80
0.09988634288311005 -0.013781624846160412 0.1340000033378601 105 89 82
0.10020142793655396 -0.013781624846160412 0.1340000033378601 109 83 79
0.10051652044057846 -0.013781624846160412 0.1340000033378601 106 80 76
0.06432405859231949 -0.01417001336812973 0.14100000262260437 188 148 153
0.0646556094288826 -0.01417001336812973 0.14100000262260437 186 146 151
0.06498715281486511 -0.01417001336812973 0.14100000262260437 184 147 154
0.06531869620084763 -0.01417001336812973 0.14100000262260437 184 147 154
0.06565024703741074 -0.01417001336812973 0.14100000262260437 180 143 152
0.06598179042339325 -0.01417001336812973 0.14100000262260437 158 121 130
0.06584303081035614 -0.014069517143070698 0.14000000059604645 161 120 128
0.06617222726345062 -0.014069517143070698 0.14000000059604645 153 112 120
0.0665014237165451 -0.014069517143070698 0.14000000059604645 154 109 112
0.06683062016963959 -0.014069517143070698 0.14000000059604645 152 107 110
0.06668009608983994 -0.01396901998668909 0.13899999856948853 153 109 109
0.06700694561004639 -0.01396901998668909 0.13899999856948853 150 106 106
0.06733378767967224 -0.01396901998668909 0.13899999856948853 141 97 97
0.0676606297492981 -0.01396901998668909 0.13899999856948853 168 124 124
0.0674983561038971 -0.013868523761630058 0.1379999965429306 212 176 178
0.06782285124063492 -0.013868523761630058 0.1379999965429306 208 172 174
0.06814733892679214 -0.013868523761630058 0.1379999965429306 217 184 195
0.06847183406352997 -0.013868523761630058 0.1379999965429306 215 182 193
0.06829780340194702 -0.013768027536571026 0.13699999451637268 210 177 190
0.06861994415521622 -0.013768027536571026 0.13699999451637268 209 176 189
0.06894208490848541 -0.013768027536571026 0.13699999451637268 206 177 183
0.06926422566175461 -0.013768027536571026 0.13699999451637268 205 176 182
0.06907843798398972 -0.013667530380189419 0.13600000739097595 201 174 179
