0.09467089176177979 -0.011713624931871891 0.13199999928474426 100 84 89
0.09498127549886703 -0.011713624931871891 0.13199999928474426 100 80 83
0.09529165923595428 -0.011713624931871891 0.13199999928474426 98 78 81
0.0963263064622879 -0.011802364140748978 0.13300000131130219 109 81 82
0.09663903713226318 -0.011802364140748978 0.13300000131130219 115 87 88
0.09695177525281906 -0.011802364140748978 0.13300000131130219 118 94 96
0.09726451337337494 -0.011802364140748978 0.13300000131130219 117 93 95
0.09757724404335022 -0.011802364140748978 0.13300000131130219 114 94 95
0.0978899821639061 -0.011802364140748978 0.13300000131130219 112 92 93
0.09820272028446198 -0.011802364140748978 0.13300000131130219 108 93 94
0.09925617277622223 -0.011891103349626064 0.1340000033378601 107 92 93
0.09957125782966614 -0.011891103349626064 0.1340000033378601 104 91 95
0.09988634288311005 -0.011891103349626064 0.1340000033378601 105 92 96
0.10020142793655396 -0.011891103349626064 0.1340000033378601 105 89 94
0.10051652044057846 -0.011891103349626064 0.1340000033378601 102 86 91
0.10083160549402237 -0.011891103349626064 0.1340000033378601 113 68 73
0.10114669054746628 -0.011891103349626064 0.1340000033378601 104 59 64
0.06411246210336685 -0.01226712204515934 0.1420000046491623 205 168 165
0.064446359872818 -0.01226712204515934 0.1420000046491623 200 163 160
0.06432405859231949 -0.012180734425783157 0.14100000262260437 191 163 162
0.0646556094288826 -0.012180734425783157 0.14100000262260437 189 161 160
0.06498715281486511 -0.012180734425783157 0.14100000262260437 193 169 171
0.06531869620084763 -0.012180734425783157 0.14100000262260437 198 174 176
0.06565024703741074 -0.012180734425783157 0.14100000262260437 188 167 178
0.06598179042339325 -0.012180734425783157 0.14100000262260437 192 171 182
0.06584303081035614 -0.0120943458750844 0.14000000059604645 168 151 163
0.06617222726345062 -0.0120943458750844 0.14000000059604645 178 161 173
0.0665014237165451 -0.0120943458750844 0.14000000059604645 163 139 143
0.06683062016963959 -0.0120943458750844 0.14000000059604645 149 125 129
0.06668009608983994 -0.012007957324385643 0.13899999856948853 151 121 116
0.06700694561004639 -0.012007957324385643 0.13899999856948853 146 116 111
0.06733378767967224 -0.012007957324385643 0.13899999856948853 130 96 86
0.06717386096715927 -0.01192156970500946 0.1379999965429306 132 98 88
0.0674983561038971 -0.01192156970500946 0.1379999965429306 207 183 171
0.06782285124063492 -0.01192156970500946 0.1379999965429306 229 205 193
0.06814733892679214 -0.01192156970500946 0.1379999965429306 232 209 208
0.06847183406352997 -0.01192156970500946 0.1379999965429306 228 205 204
0.06829780340194702 -0.011835181154310703 0.13699999451637268 223 198 208
0.06861994415521622 -0.011835181154310703 0.13699999451637268 217 192 202
0.06894208490848541 -0.011835181154310703 0.13699999451637268 213 189 193
0.06875864416360855 -0.01174879353493452 0.13600000739097595 212 188 192
0.06907843798398972 -0.01174879353493452 0.13600000739097595 207 187 190
0.06888794153928757 -0.011662404984235764 0.13500000536441803 209 189 192
0.0692053809762001 -0.011662404984235764 0.13500000536441803 209 191 197
0.06952282041311264 -0.011662404984235764 0.13500000536441803 207 189 195
0.06932292133569717 -0.011576016433537006 0.1340000033378601 206 190 197
0.06963801383972168 -0.011576016433537006 0.1340000033378601 198 182 189
0.06995309889316559 -0.011576016433537006 0.1340000033378601 201 185 192
0.0702681839466095 -0.011576016433537006 0.1340000033378601 194 178 185
0.0705832690000534 -0.011576016433537006 0.1340000033378601 191 178 184
0.07089836150407791 -0.011576016433537006 0.1340000033378601 180 167 173
0.07121344655752182 -0.011576016433537006 0.1340000033378601 188 175 183
0.07152853161096573 -0.011576016433537006 0.1340000033378601 164 151 159
0.07184361666440964 -0.011576016433537006 0.1340000033378601 143 123 126
0.07215870171785355 -0.011576016433537006 0.1340000033378601 138 118 121
0.07193294167518616 -0.011489628814160824 0.13300000131130219 134 107 99
0.07224567979574203 -0.011489628814160824 0.13300000131130219 130 103 95
0.07255841046571732 -0.011489628814160824 0.13300000131130219 135 110 101
0.0728711485862732 -0.011489628814160824 0.13300000131130219 209 184 175
0.07318388670682907 -0.011489628814160824 0.13300000131130219 213 201 201
0.07349661737680435 -0.011489628814160824 0.13300000131130219 211 199 199
0.07380935549736023 -0.011489628814160824 0.13300000131130219 186 179 192
0.07356478273868561 -0.011403240263462067 0.13199999928474426 165 158 171
0.07387516647577286 -0.011403240263462067 0.13199999928474426 171 161 171
0.07418555021286011 -0.011403240263462067 0.13199999928474426 159 149 159
0.07449593394994736 -0.011403240263462067 0.13199999928474426 149 138 146
0.0748063176870346 -0.011403240263462067 0.13199999928474426 146 135 143
0.07511670142412186 -0.011403240263462067 0.13199999928474426 159 146 154
0.0754270851612091 -0.011403240263462067 0.13199999928474426 163 150 158
0.07573746889829636 -0.011403240263462067 0.13199999928474426 175 162 170
0.0760478526353836 -0.011403240263462067 0.13199999928474426 177 164 172
0.07635823637247086 -0.011403240263462067 0.13199999928474426 175 163 174
0.0766686201095581 -0.011403240263462067 0.13199999928474426 162 150 161
0.07639583200216293 -0.011316852644085884 0.13099999725818634 156 144 155
0.07670386135578156 -0.011316852644085884 0.13099999725818634 142 130 141
0.07701189815998077 -0.011316852644085884 0.13099999725818634 136 125 133
0.0773199275135994 -0.011316852644085884 0.13099999725818634 132 121 129
0.07762796431779861 -0.011316852644085884 0.13099999725818634 131 118 126
0.07734106481075287 -0.011230464093387127 0.12999999523162842 132 119 127
0.07764674723148346 -0.011230464093387127 0.12999999523162842 128 112 117
0.07795242220163345 -0.011230464093387127 0.12999999523162842 133 117 122
0.07825810462236404 -0.011230464093387127 0.12999999523162842 134 119 120
0.07856378704309464 -0.011230464093387127 0.12999999523162842 136 121 122
0.07886946946382523 -0.011230464093387127 0.12999999523162842 137 122 123
0.07917515188455582 -0.011230464093387127 0.12999999523162842 132 117 118
0.07948083430528641 -0.011230464093387127 0.12999999523162842 129 111 117
0.079786516726017 -0.011230464093387127 0.12999999523162842 120 102 108
0.08009219169616699 -0.011230464093387127 0.12999999523162842 128 100 109
0.08039787411689758 -0.011230464093387127 0.12999999523162842 86 58 67
0.08070355653762817 -0.011230464093387127 0.12999999523162842 71 32 30
0.08100923895835876 -0.011230464093387127 0.12999999523162842 88 49 47
0.08131492137908936 -0.011230464093387127 0.12999999523162842 139 105 93
0.08162060379981995 -0.011230464093387127 0.12999999523162842 144 110 98
0.08192627876996994 -0.011230464093387127 0.12999999523162842 140 117 112
0.08223196119070053 -0.011230464093387127 0.12999999523162842 140 117 112
0.08253764361143112 -0.011230464093387127 0.12999999523162842 133 116 116
0.08284332603216171 -0.011230464093387127 0.12999999523162842 126 109 109
0.0831490084528923 -0.011230464093387127 0.12999999523162842 121 105 110
0.0834546908736229 -0.011230464093387127 0.12999999523162842 118 102 107
0.08376036584377289 -0.011230464093387127 0.12999999523162842 119 104 105
0.08406604826450348 -0.011230464093387127 0.12999999523162842 118 103 104
0.08437173068523407 -0.011230464093387127 0.12999999523162842 115 100 101
0.08467741310596466 -0.011230464093387127 0.12999999523162842 116 101 102
0.08563680946826935 -0.011316852644085884 0.13099999725818634 116 101 102
0.08594484627246857 -0.011316852644085884 0.13099999725818634 119 104 105
0.08625287562608719 -0.011316852644085884 0.13099999725818634 120 105 104
0.08656090497970581 -0.011316852644085884 0.13099999725818634 118 103 102
0.08620581775903702 -0.011230464093387127 0.12999999523162842 113 98 97
0.08651150017976761 -0.011230464093387127 0.12999999523162842 114 99 98
0.0868171826004982 -0.011230464093387127 0.12999999523162842 108 94 90
0.08712286502122879 -0.011230464093387127 0.12999999523162842 108 94 90
0.08742854744195938 -0.011230464093387127 0.12999999523162842 106 90 87
0.08773422241210938 -0.011230464093387127 0.12999999523162842 107 91 88
0.08803990483283997 -0.011230464093387127 0.12999999523162842 102 85 85
0.08834558725357056 -0.011230464093387127 0.12999999523162842 105 88 88
0.08865126967430115 -0.011230464093387127 0.12999999523162842 101 81 82
0.08895695209503174 -0.011230464093387127 0.12999999523162842 102 82 83
0.08926263451576233 -0.011230464093387127 0.12999999523162842 102 82 83
0.08956830948591232 -0.011230464093387127 0.12999999523162842 103 83 84
0.08987399190664291 -0.011230464093387127 0.12999999523162842 103 83 84
0.0901796743273735 -0.011230464093387127 0.12999999523162842 98 78 79
0.0904853567481041 -0.011230464093387127 0.12999999523162842 97 77 78
0.09079103916883469 -0.011230464093387127 0.12999999523162842 100 80 81
0.09109672158956528 -0.011230464093387127 0.12999999523162842 100 80 81
0.09140239655971527 -0.011230464093387127 0.12999999523162842 101 81 82
0.092413529753685 -0.011316852644085884 0.13099999725818634 97 75 79
0.09272155910730362 -0.011316852644085884 0.13099999725818634 97 75 79
0.09302959591150284 -0.011316852644085884 0.13099999725818634 101 78 86
0.09405012428760529 -0.011403240263462067 0.13199999928474426 101 78 86
0.09436050802469254 -0.011403240263462067 0.13199999928474426 105 81 85
0.09467089176177979 -0.011403240263462067 0.13199999928474426 103 79 83
0.09570083022117615 -0.011489628814160824 0.13300000131130219 102 75 78
0.09601356834173203 -0.011489628814160824 0.13300000131130219 106 79 82
0.0963263064622879 -0.011489628814160824 0.13300000131130219 110 79 79
0.09663903713226318 -0.011489628814160824 0.13300000131130219 116 85 85
0.09695177525281906 -0.011489628814160824 0.13300000131130219 120 94 92
0.09726451337337494 -0.011489628814160824 0.13300000131130219 120 94 92
0.09757724404335022 -0.011489628814160824 0.13300000131130219 114 95 93
0.0978899821639061 -0.011489628814160824 0.13300000131130219 112 93 91
0.09894108027219772 -0.011576016433537006 0.1340000033378601 111 96 97
0.09925617277622223 -0.011576016433537006 0.1340000033378601 107 92 93
0.09957125782966614 -0.011576016433537006 0.1340000033378601 109 96 100
0.09988634288311005 -0.011576016433537006 0.1340000033378601 107 94 98
0.10020142793655396 -0.011576016433537006 0.1340000033378601 108 90 96
0.10051652044057846 -0.011576016433537006 0.1340000033378601 100 82 88
0.10083160549402237 -0.011576016433537006 0.1340000033378601 113 68 73
0.10190151631832123 -0.011662404984235764 0.13500000536441803 107 62 67
0.06411246210336685 -0.011933224275708199 0.1420000046491623 215 175 176
0.06399251520633698 -0.011849187314510345 0.14100000262260437 203 163 164
0.06432405859231949 -0.011849187314510345 0.14100000262260437 191 165 165
0.0646556094288826 -0.011849187314510345 0.14100000262260437 187 161 161
0.06498715281486511 -0.011849187314510345 0.14100000262260437 177 153 157
0.06531869620084763 -0.011849187314510345 0.14100000262260437 184 160 164
0.06565024703741074 -0.011849187314510345 0.14100000262260437 189 168 179
0.06598179042339325 -0.011849187314510345 0.14100000262260437 197 176 187
0.06584303081035614 -0.011765150353312492 0.14000000059604645 171 152 167
0.06617222726345062 -0.011765150353312492 0.14000000059604645 180 161 176
0.0665014237165451 -0.011765150353312492 0.14000000059604645 164 141 149
0.06683062016963959 -0.011765150353312492 0.14000000059604645 147 124 132
0.06668009608983994 -0.011681114323437214 0.13899999856948853 158 127 125
0.06700694561004639 -0.011681114323437214 0.13899999856948853 139 108 106
0.0674983561038971 -0.01159707736223936 0.1379999965429306 185 159 144
0.06782285124063492 -0.01159707736223936 0.1379999965429306 223 197 182
0.06814733892679214 -0.01159707736223936 0.1379999965429306 234 211 208
0.06847183406352997 -0.01159707736223936 0.1379999965429306 231 208 205
0.06829780340194702 -0.011513040401041508 0.13699999451637268 218 196 200
0.06861994415521622 -0.011513040401041508 0.13699999451637268 216 194 198
0.06894208490848541 -0.011513040401041508 0.13699999451637268 214 192 194
0.06875864416360855 -0.011429003439843655 0.13600000739097595 212 190 192
0.06907843798398972 -0.011429003439843655 0.13600000739097595 214 192 194
0.06888794153928757 -0.011344966478645802 0.13500000536441803 214 192 194
0.0692053809762001 -0.011344966478645802 0.13500000536441803 212 194 200
0.06952282041311264 -0.011344966478645802 0.13500000536441803 213 195 201
0.06932292133569717 -0.011260930448770523 0.1340000033378601 205 191 202
0.06963801383972168 -0.011260930448770523 0.1340000033378601 183 169 180
0.06995309889316559 -0.011260930448770523 0.1340000033378601 182 169 177
0.0702681839466095 -0.011260930448770523 0.1340000033378601 183 170 178
0.0705832690000534 -0.011260930448770523 0.1340000033378601 174 161 167
0.07089836150407791 -0.011260930448770523 0.1340000033378601 175 162 168
0.07121344655752182 -0.011260930448770523 0.1340000033378601 168 152 159
0.07152853161096573 -0.011260930448770523 0.1340000033378601 154 138 145
0.07184361666440964 -0.011260930448770523 0.1340000033378601 149 122 125
0.07215870171785355 -0.011260930448770523 0.1340000033378601 143 116 119
0.07255841046571732 -0.01117689348757267 0.13300000131130219 109 71 62
0.0728711485862732 -0.01117689348757267 0.13300000131130219 188 150 141
0.07318388670682907 -0.01117689348757267 0.13300000131130219 207 188 186
0.07349661737680435 -0.01117689348757267 0.13300000131130219 206 187 185
0.07380935549736023 -0.01117689348757267 0.13300000131130219 180 173 182
0.07356478273868561 -0.011092856526374817 0.13199999928474426 171 164 173
0.07387516647577286 -0.011092856526374817 0.13199999928474426 170 163 174
0.07418555021286011 -0.011092856526374817 0.13199999928474426 153 146 157
0.07449593394994736 -0.011092856526374817 0.13199999928474426 146 135 143
0.0748063176870346 -0.011092856526374817 0.13199999928474426 149 138 146
0.07511670142412186 -0.011092856526374817 0.13199999928474426 160 147 153
0.0754270851612091 -0.011092856526374817 0.13199999928474426 164 151 157
0.07573746889829636 -0.011092856526374817 0.13199999928474426 169 156 164
0.0760478526353836 -0.011092856526374817 0.13199999928474426 167 154 162
0.07635823637247086 -0.011092856526374817 0.13199999928474426 165 154 162
0.0766686201095581 -0.011092856526374817 0.13199999928474426 158 147 155
0.07639583200216293 -0.011008819565176964 0.13099999725818634 148 138 148
0.07670386135578156 -0.011008819565176964 0.13099999725818634 135 125 135
0.07701189815998077 -0.011008819565176964 0.13099999725818634 133 122 130
0.0773199275135994 -0.011008819565176964 0.13099999725818634 126 115 123
0.07762796431779861 -0.011008819565176964 0.13099999725818634 127 114 122
0.07793599367141724 -0.011008819565176964 0.13099999725818634 134 121 129
0.07764674723148346 -0.01092478260397911 0.12999999523162842 127 111 118
0.07795242220163345 -0.01092478260397911 0.12999999523162842 129 113 120
0.07825810462236404 -0.01092478260397911 0.12999999523162842 124 111 115
0.07856378704309464 -0.01092478260397911 0.12999999523162842 134 121 125
0.07886946946382523 -0.01092478260397911 0.12999999523162842 129 114 115
0.07917515188455582 -0.01092478260397911 0.12999999523162842 122 107 108
0.07948083430528641 -0.01092478260397911 0.12999999523162842 125 105 106
0.079786516726017 -0.01092478260397911 0.12999999523162842 129 109 110
0.08009219169616699 -0.01092478260397911 0.12999999523162842 125 87 91
0.08039787411689758 -0.01092478260397911 0.12999999523162842 74 36 40
0.08192627876996994 -0.01092478260397911 0.12999999523162842 143 113 106
0.08223196119070053 -0.01092478260397911 0.12999999523162842 137 107 100
0.08253764361143112 -0.01092478260397911 0.12999999523162842 127 106 103
0.08284332603216171 -0.01092478260397911 0.12999999523162842 125 104 101
0.0831490084528923 -0.01092478260397911 0.12999999523162842 119 99 100
0.0834546908736229 -0.01092478260397911 0.12999999523162842 117 97 98
0.08376036584377289 -0.01092478260397911 0.12999999523162842 117 101 98
0.08406604826450348 -0.01092478260397911 0.12999999523162842 107 91 88
0.08502074331045151 -0.011008819565176964 0.13099999725818634 114 98 95
0.08532878011465073 -0.011008819565176964 0.13099999725818634 114 98 95
0.08563680946826935 -0.011008819565176964 0.13099999725818634 114 98 95
0.08594484627246857 -0.011008819565176964 0.13099999725818634 114 98 95
0.08625287562608719 -0.011008819565176964 0.13099999725818634 117 100 100
0.08656090497970581 -0.011008819565176964 0.13099999725818634 114 97 97
0.08686894178390503 -0.011008819565176964 0.13099999725818634 110 94 91
0.08717697113752365 -0.011008819565176964 0.13099999725818634 112 96 93
0.08748500794172287 -0.011008819565176964 0.13099999725818634 107 91 88
0.08779303729534149 -0.011008819565176964 0.13099999725818634 109 93 90
0.08742854744195938 -0.01092478260397911 0.12999999523162842 103 82 81
0.08773422241210938 -0.01092478260397911 0.12999999523162842 105 84 83
0.08803990483283997 -0.01092478260397911 0.12999999523162842 103 80 79
0.08834558725357056 -0.01092478260397911 0.12999999523162842 104 81 80
0.08865126967430115 -0.01092478260397911 0.12999999523162842 105 82 81
0.08895695209503174 -0.01092478260397911 0.12999999523162842 107 84 83
0.08926263451576233 -0.01092478260397911 0.12999999523162842 108 85 84
0.08956830948591232 -0.01092478260397911 0.12999999523162842 108 85 84
0.08987399190664291 -0.01092478260397911 0.12999999523162842 102 82 83
0.0901796743273735 -0.01092478260397911 0.12999999523162842 100 80 81
0.0904853567481041 -0.01092478260397911 0.12999999523162842 100 80 81
0.09079103916883469 -0.01092478260397911 0.12999999523162842 95 75 76
0.09179746359586716 -0.011008819565176964 0.13099999725818634 92 71 70
0.09210549294948578 -0.011008819565176964 0.13099999725818634 94 73 72
0.092413529753685 -0.011008819565176964 0.13099999725818634 92 69 68
0.09272155910730362 -0.011008819565176964 0.13099999725818634 94 71 70
0.09373974055051804 -0.011092856526374817 0.13199999928474426 101 73 74
0.09405012428760529 -0.011092856526374817 0.13199999928474426 102 74 75
0.09436050802469254 -0.011092856526374817 0.13199999928474426 102 71 71
0.09538809955120087 -0.01117689348757267 0.13300000131130219 105 74 74
0.09570083022117615 -0.01117689348757267 0.13300000131130219 104 71 70
0.09601356834173203 -0.01117689348757267 0.13300000131130219 105 72 71
0.0963263064622879 -0.01117689348757267 0.13300000131130219 114 79 76
0.09663903713226318 -0.01117689348757267 0.13300000131130219 115 80 77
0.09695177525281906 -0.01117689348757267 0.13300000131130219 118 88 81
0.09726451337337494 -0.01117689348757267 0.13300000131130219 123 93 86
0.09757724404335022 -0.01117689348757267 0.13300000131130219 116 95 92
0.09862599521875381 -0.011260930448770523 0.1340000033378601 115 94 91
0.09894108027219772 -0.011260930448770523 0.1340000033378601 113 99 95
0.09925617277622223 -0.011260930448770523 0.1340000033378601 111 97 93
0.09957125782966614 -0.011260930448770523 0.1340000033378601 105 92 96
0.09988634288311005 -0.011260930448770523 0.1340000033378601 107 94 98
0.10020142793655396 -0.011260930448770523 0.1340000033378601 110 87 95
0.10051652044057846 -0.011260930448770523 0.1340000033378601 111 88 96
0.06411246210336685 -0.011599326506257057 0.1420000046491623 217 181 183
0.06399251520633698 -0.011517641134560108 0.14100000262260437 207 171 173
0.06432405859231949 -0.011517641134560108 0.14100000262260437 194 167 172
0.0646556094288826 -0.011517641134560108 0.14100000262260437 187 160 165
0.06498715281486511 -0.011517641134560108 0.14100000262260437 183 161 165
0.06531869620084763 -0.011517641134560108 0.14100000262260437 182 160 164
0.06565024703741074 -0.011517641134560108 0.14100000262260437 186 165 176
0.06551383435726166 -0.01143595576286316 0.14000000059604645 186 165 176
0.06584303081035614 -0.01143595576286316 0.14000000059604645 184 165 180
0.06617222726345062 -0.01143595576286316 0.14000000059604645 181 162 177
0.0665014237165451 -0.01143595576286316 0.14000000059604645 170 147 157
0.06635325402021408 -0.01135427039116621 0.13899999856948853 157 134 144
0.06668009608983994 -0.01135427039116621 0.13899999856948853 159 120 118
0.06700694561004639 -0.01135427039116621 0.13899999856948853 128 89 87
0.06814733892679214 -0.011272585019469261 0.1379999965429306 232 209 204
0.06847183406352997 -0.011272585019469261 0.1379999965429306 230 207 202
0.06879632920026779 -0.011272585019469261 0.1379999965429306 221 202 200
0.06861994415521622 -0.011190899647772312 0.13699999451637268 214 195 193
0.06894208490848541 -0.011190899647772312 0.13699999451637268 211 191 194
0.06875864416360855 -0.011109214276075363 0.13600000739097595 213 193 196
0.06907843798398972 -0.011109214276075363 0.13600000739097595 212 194 200
0.06888794153928757 -0.011027528904378414 0.13500000536441803 207 189 195
0.0692053809762001 -0.011027528904378414 0.13500000536441803 204 187 199
0.06952282041311264 -0.011027528904378414 0.13500000536441803 200 183 195
0.06932292133569717 -0.010945843532681465 0.1340000033378601 192 181 189
0.06963801383972168 -0.010945843532681465 0.1340000033378601 186 175 183
0.06995309889316559 -0.010945843532681465 0.1340000033378601 181 168 174
0.0702681839466095 -0.010945843532681465 0.1340000033378601 180 167 173
0.0705832690000534 -0.010945843532681465 0.1340000033378601 179 163 168
0.07089836150407791 -0.010945843532681465 0.1340000033378601 160 144 149
0.07121344655752182 -0.010945843532681465 0.1340000033378601 157 135 139
0.07152853161096573 -0.010945843532681465 0.1340000033378601 157 135 139
0.07184361666440964 -0.010945843532681465 0.1340000033378601 163 123 126
0.07215870171785355 -0.010945843532681465 0.1340000033378601 126 86 89
0.07318388670682907 -0.010864158160984516 0.13300000131130219 192 159 158
0.07349661737680435 -0.010864158160984516 0.13300000131130219 202 169 168
0.07380935549736023 -0.010864158160984516 0.13300000131130219 178 165 169
0.07356478273868561 -0.010782472789287567 0.13199999928474426 174 161 165
0.07387516647577286 -0.010782472789287567 0.13199999928474426 166 155 163
0.07418555021286011 -0.010782472789287567 0.13199999928474426 164 153 161
0.07449593394994736 -0.010782472789287567 0.13199999928474426 145 132 136
0.0748063176870346 -0.010782472789287567 0.13199999928474426 147 134 138
0.07511670142412186 -0.010782472789287567 0.13199999928474426 156 136 139
0.0754270851612091 -0.010782472789287567 0.13199999928474426 153 133 136
0.07573746889829636 -0.010782472789287567 0.13199999928474426 154 137 139
0.0760478526353836 -0.010782472789287567 0.13199999928474426 154 137 139
0.07635823637247086 -0.010782472789287567 0.13199999928474426 143 128 129
0.0766686201095581 -0.010782472789287567 0.13199999928474426 153 138 139
0.07639583200216293 -0.010700787417590618 0.13099999725818634 147 132 133
0.07670386135578156 -0.010700787417590618 0.13099999725818634 141 126 127
0.07701189815998077 -0.010700787417590618 0.13099999725818634 126 108 114
0.0773199275135994 -0.010700787417590618 0.13099999725818634 130 112 118
0.07762796431779861 -0.010700787417590618 0.13099999725818634 132 109 117
0.07793599367141724 -0.010700787417590618 0.13099999725818634 127 104 112
0.07764674723148346 -0.010619102045893669 0.12999999523162842 125 100 108
0.07795242220163345 -0.010619102045893669 0.12999999523162842 134 109 117
0.07825810462236404 -0.010619102045893669 0.12999999523162842 126 103 111
0.07856378704309464 -0.010619102045893669 0.12999999523162842 132 109 117
0.07886946946382523 -0.010619102045893669 0.12999999523162842 133 109 111
0.07917515188455582 -0.010619102045893669 0.12999999523162842 131 107 109
0.07948083430528641 -0.010619102045893669 0.12999999523162842 136 101 98
0.079786516726017 -0.010619102045893669 0.12999999523162842 125 90 87
0.08253764361143112 -0.010619102045893669 0.12999999523162842 139 103 103
0.08284332603216171 -0.010619102045893669 0.12999999523162842 139 103 103
0.0831490084528923 -0.010619102045893669 0.12999999523162842 131 100 98
0.0834546908736229 -0.010619102045893669 0.12999999523162842 127 96 94
0.08376036584377289 -0.010619102045893669 0.12999999523162842 123 96 88
0.08471271395683289 -0.010700787417590618 0.13099999725818634 106 79 71
0.08502074331045151 -0.010700787417590618 0.13099999725818634 118 91 83
0.08532878011465073 -0.010700787417590618 0.13099999725818634 122 95 87
0.08563680946826935 -0.010700787417590618 0.13099999725818634 120 94 90
0.08594484627246857 -0.010700787417590618 0.13099999725818634 113 87 83
0.08625287562608719 -0.010700787417590618 0.13099999725818634 110 87 82
0.08656090497970581 -0.010700787417590618 0.13099999725818634 110 87 82
0.08686894178390503 -0.010700787417590618 0.13099999725818634 108 85 80
0.08717697113752365 -0.010700787417590618 0.13099999725818634 107 84 79
0.08748500794172287 -0.010700787417590618 0.13099999725818634 113 90 85
0.08779303729534149 -0.010700787417590618 0.13099999725818634 113 90 85
0.08810107409954071 -0.010700787417590618 0.13099999725818634 102 71 71
0.08840910345315933 -0.010700787417590618 0.13099999725818634 99 68 68
0.08803990483283997 -0.010619102045893669 0.12999999523162842 105 69 71
0.08834558725357056 -0.010619102045893669 0.12999999523162842 106 70 72
0.08865126967430115 -0.010619102045893669 0.12999999523162842 107 74 75
0.08895695209503174 -0.010619102045893669 0.12999999523162842 113 80 81
0.08926263451576233 -0.010619102045893669 0.12999999523162842 110 84 82
0.08956830948591232 -0.010619102045893669 0.12999999523162842 108 82 80
0.08987399190664291 -0.010619102045893669 0.12999999523162842 104 81 80
0.0908733680844307 -0.010700787417590618 0.13099999725818634 101 78 77
0.09118139743804932 -0.010700787417590618 0.13099999725818634 98 74 76
0.09148942679166794 -0.010700787417590618 0.13099999725818634 92 68 70
0.09179746359586716 -0.010700787417590618 0.13099999725818634 86 63 62
0.09210549294948578 -0.010700787417590618 0.13099999725818634 89 66 65
0.092413529753685 -0.010700787417590618 0.13099999725818634 91 63 62
0.09342935681343079 -0.010782472789287567 0.13199999928474426 88 60 59
0.09373974055051804 -0.010782472789287567 0.13199999928474426 97 61 61
0.09476263076066971 -0.010864158160984516 0.13300000131130219 105 69 69
0.09507536143064499 -0.010864158160984516 0.13300000131130219 109 72 69
0.09538809955120087 -0.010864158160984516 0.13300000131130219 110 73 70
0.09570083022117615 -0.010864158160984516 0.13300000131130219 108 71 68
0.09601356834173203 -0.010864158160984516 0.13300000131130219 107 70 67
0.0963263064622879 -0.010864158160984516 0.13300000131130219 104 69 64
0.09736564755439758 -0.010945843532681465 0.1340000033378601 109 74 69
0.09768073260784149 -0.010945843532681465 0.1340000033378601 115 81 71
0.097995825111866 -0.010945843532681465 0.1340000033378601 123 89 79
0.0983109101653099 -0.010945843532681465 0.1340000033378601 120 95 86
0.09862599521875381 -0.010945843532681465 0.1340000033378601 121 96 87
0.09894108027219772 -0.010945843532681465 0.1340000033378601 116 97 93
0.09925617277622223 -0.010945843532681465 0.1340000033378601 115 96 92
0.09957125782966614 -0.010945843532681465 0.1340000033378601 112 95 95
0.09988634288311005 -0.010945843532681465 0.1340000033378601 110 93 93
0.10020142793655396 -0.010945843532681465 0.1340000033378601 117 89 98
0.10126663744449615 -0.011027528904378414 0.13500000536441803 117 89 98
0.06411246210336685 -0.011265428736805916 0.1420000046491623 218 182 184
0.06399251520633698 -0.011186094023287296 0.14100000262260437 214 178 180
0.06432405859231949 -0.011186094023287296 0.14100000262260437 187 159 168
0.0646556094288826 -0.011186094023287296 0.14100000262260437 188 160 169
0.06498715281486511 -0.011186094023287296 0.14100000262260437 182 161 168
0.06531869620084763 -0.011186094023287296 0.14100000262260437 180 159 166
0.06565024703741074 -0.011186094023287296 0.14100000262260437 180 159 170
0.06551383435726166 -0.011106760241091251 0.14000000059604645 182 161 172
0.06584303081035614 -0.011106760241091251 0.14000000059604645 185 166 181
0.06617222726345062 -0.011106760241091251 0.14000000059604645 159 140 155
0.0665014237165451 -0.011106760241091251 0.14000000059604645 150 122 135
0.06635325402021408 -0.011027426458895206 0.13899999856948853 144 116 129
0.06814733892679214 -0.010948092676699162 0.1379999965429306 231 204 196
0.06847183406352997 -0.010948092676699162 0.1379999965429306 223 196 188
0.06879632920026779 -0.010948092676699162 0.1379999965429306 218 199 197
0.06861994415521622 -0.010868758894503117 0.13699999451637268 221 202 200
0.06894208490848541 -0.010868758894503117 0.13699999451637268 214 198 203
0.06875864416360855 -0.010789424180984497 0.13600000739097595 214 198 203
0.06907843798398972 -0.010789424180984497 0.13600000739097595 213 197 206
0.06939822435379028 -0.010789424180984497 0.13600000739097595 200 184 193
0.0692053809762001 -0.010710090398788452 0.13500000536441803 203 186 200
0.06952282041311264 -0.010710090398788452 0.13500000536441803 197 180 194
0.06984025985002518 -0.010710090398788452 0.13500000536441803 197 184 192
0.06963801383972168 -0.010630756616592407 0.1340000033378601 189 176 184
0.06995309889316559 -0.010630756616592407 0.1340000033378601 181 163 169
0.0702681839466095 -0.010630756616592407 0.1340000033378601 149 131 137
0.0705832690000534 -0.010630756616592407 0.1340000033378601 163 139 143
0.07089836150407791 -0.010630756616592407 0.1340000033378601 156 132 136
0.07121344655752182 -0.010630756616592407 0.1340000033378601 149 111 115
0.07152853161096573 -0.010630756616592407 0.1340000033378601 134 96 100
0.07380935549736023 -0.010551422834396362 0.13300000131130219 179 143 145
0.07356478273868561 -0.010472088120877743 0.13199999928474426 177 141 143
0.07387516647577286 -0.010472088120877743 0.13199999928474426 172 141 143
0.07418555021286011 -0.010472088120877743 0.13199999928474426 168 137 139
0.07449593394994736 -0.010472088120877743 0.13199999928474426 163 130 129
0.0748063176870346 -0.010472088120877743 0.13199999928474426 163 130 129
0.07511670142412186 -0.010472088120877743 0.13199999928474426 162 129 128
0.0754270851612091 -0.010472088120877743 0.13199999928474426 160 127 126
0.07573746889829636 -0.010472088120877743 0.13199999928474426 156 123 122
0.0760478526353836 -0.010472088120877743 0.13199999928474426 153 120 119
0.07635823637247086 -0.010472088120877743 0.13199999928474426 151 120 118
0.0766686201095581 -0.010472088120877743 0.13199999928474426 154 123 121
0.07697900384664536 -0.010472088120877743 0.13199999928474426 149 121 118
0.07670386135578156 -0.010392754338681698 0.13099999725818634 134 106 103
0.07701189815998077 -0.010392754338681698 0.13099999725818634 125 94 94
0.0773199275135994 -0.010392754338681698 0.13099999725818634 136 105 105
0.07762796431779861 -0.010392754338681698 0.13099999725818634 144 104 109
0.07793599367141724 -0.010392754338681698 0.13099999725818634 136 96 101
0.07764674723148346 -0.010313420556485653 0.12999999523162842 127 90 97
0.07795242220163345 -0.010313420556485653 0.12999999523162842 130 93 100
0.07825810462236404 -0.010313420556485653 0.12999999523162842 125 88 97
0.07856378704309464 -0.010313420556485653 0.12999999523162842 112 75 84
0.07886946946382523 -0.010313420556485653 0.12999999523162842 103 65 67
0.07917515188455582 -0.010313420556485653 0.12999999523162842 87 49 51
0.08563680946826935 -0.010392754338681698 0.13099999725818634 117 79 72
0.08594484627246857 -0.010392754338681698 0.13099999725818634 119 81 74
0.08625287562608719 -0.010392754338681698 0.13099999725818634 114 79 74
0.08656090497970581 -0.010392754338681698 0.13099999725818634 108 73 68
0.08686894178390503 -0.010392754338681698 0.13099999725818634 102 70 64
0.08717697113752365 -0.010392754338681698 0.13099999725818634 100 68 62
0.08748500794172287 -0.010392754338681698 0.13099999725818634 102 70 64
0.08779303729534149 -0.010392754338681698 0.13099999725818634 91 59 53
0.08810107409954071 -0.010392754338681698 0.13099999725818634 99 62 59
0.08840910345315933 -0.010392754338681698 0.13099999725818634 103 66 63
0.08871713280677795 -0.010392754338681698 0.13099999725818634 104 65 63
0.08834558725357056 -0.010313420556485653 0.12999999523162842 109 70 68
0.08865126967430115 -0.010313420556485653 0.12999999523162842 111 73 73
0.08895695209503174 -0.010313420556485653 0.12999999523162842 117 79 79
0.08926263451576233 -0.010313420556485653 0.12999999523162842 113 85 82
0.09025730192661285 -0.010392754338681698 0.13099999725818634 109 81 78
0.09056533128023148 -0.010392754338681698 0.13099999725818634 106 80 80
0.0908733680844307 -0.010392754338681698 0.13099999725818634 103 77 77
0.09118139743804932 -0.010392754338681698 0.13099999725818634 97 68 72
0.09148942679166794 -0.010392754338681698 0.13099999725818634 93 64 68
0.09249820560216904 -0.010472088120877743 0.13199999928474426 93 62 62
0.09280858933925629 -0.010472088120877743 0.13199999928474426 93 62 62
0.09382442384958267 -0.010551422834396362 0.13300000131130219 91 58 57
0.09413715451955795 -0.010551422834396362 0.13300000131130219 88 55 54
0.09516004472970963 -0.010630756616592407 0.1340000033378601 93 54 50
0.09618762880563736 -0.010710090398788452 0.13500000536441803 95 56 52
0.0965050682425499 -0.010710090398788452 0.13500000536441803 105 63 60
0.09682250767946243 -0.010710090398788452 0.13500000536441803 111 69 66
0.09713994711637497 -0.010710090398788452 0.13500000536441803 104 68 60
0.09673547744750977 -0.010630756616592407 0.1340000033378601 115 79 71
0.09705056250095367 -0.010630756616592407 0.1340000033378601 116 80 70
0.09736564755439758 -0.010630756616592407 0.1340000033378601 102 66 56
0.09768073260784149 -0.010630756616592407 0.1340000033378601 113 77 67
0.097995825111866 -0.010630756616592407 0.1340000033378601 120 84 74
0.0983109101653099 -0.010630756616592407 0.1340000033378601 119 88 79
0.09862599521875381 -0.010630756616592407 0.1340000033378601 126 95 86
0.09894108027219772 -0.010630756616592407 0.1340000033378601 117 91 87
0.0999968871474266 -0.010710090398788452 0.13500000536441803 116 90 86
0.10031432658433914 -0.010710090398788452 0.13500000536441803 114 91 90
0.10063176602125168 -0.010710090398788452 0.13500000536441803 114 91 90
0.10094920545816422 -0.010710090398788452 0.13500000536441803 121 84 93
0.10126663744449615 -0.010710090398788452 0.13500000536441803 121 84 93
0.06411246210336685 -0.010931530967354774 0.1420000046491623 221 183 187
0.06399251520633698 -0.010854547843337059 0.14100000262260437 217 179 183
0.06432405859231949 -0.010854547843337059 0.14100000262260437 198 168 178
0.0646556094288826 -0.010854547843337059 0.14100000262260437 193 163 173
0.06498715281486511 -0.010854547843337059 0.14100000262260437 182 161 170
0.06531869620084763 -0.010854547843337059 0.14100000262260437 176 155 164
0.06565024703741074 -0.010854547843337059 0.14100000262260437 175 154 163
0.06551383435726166 -0.010777565650641918 0.14000000059604645 181 160 169
0.06584303081035614 -0.010777565650641918 0.14000000059604645 179 156 168
0.06617222726345062 -0.010777565650641918 0.14000000059604645 153 130 142
0.0665014237165451 -0.010777565650641918 0.14000000059604645 159 117 133
0.06635325402021408 -0.010700582526624203 0.13899999856948853 117 75 91
0.06814733892679214 -0.010623600333929062 0.1379999965429306 221 185 177
0.06847183406352997 -0.010623600333929062 0.1379999965429306 231 195 187
0.06879632920026779 -0.010623600333929062 0.1379999965429306 219 196 193
0.06861994415521622 -0.010546617209911346 0.13699999451637268 198 175 172
0.06894208490848541 -0.010546617209911346 0.13699999451637268 185 167 173
0.06926422566175461 -0.010546617209911346 0.13699999451637268 194 176 182
0.06907843798398972 -0.010469635017216206 0.13600000739097595 198 179 192
0.06939822435379028 -0.010469635017216206 0.13600000739097595 192 173 186
0.0692053809762001 -0.01039265189319849 0.13500000536441803 198 179 194
0.06952282041311264 -0.01039265189319849 0.13500000536441803 188 169 184
0.06984025985002518 -0.01039265189319849 0.13500000536441803 174 153 164
0.06963801383972168 -0.01031566970050335 0.1340000033378601 153 132 143
0.06995309889316559 -0.01031566970050335 0.1340000033378601 166 136 146
0.0702681839466095 -0.01031566970050335 0.1340000033378601 159 129 139
0.0705832690000534 -0.01031566970050335 0.1340000033378601 153 109 118
0.07089836150407791 -0.01031566970050335 0.1340000033378601 128 84 93
0.08748500794172287 -0.010084722191095352 0.13099999725818634 106 65 59
0.08779303729534149 -0.010084722191095352 0.13099999725818634 105 64 58
0.08810107409954071 -0.010084722191095352 0.13099999725818634 106 64 61
0.08840910345315933 -0.010084722191095352 0.13099999725818634 109 67 64
0.08871713280677795 -0.010084722191095352 0.13099999725818634 104 62 59
0.08902516961097717 -0.010084722191095352 0.13099999725818634 107 65 62
0.0893331989645958 -0.010084722191095352 0.13099999725818634 111 71 72
0.08964123576879501 -0.010084722191095352 0.13099999725818634 115 75 76
0.08994926512241364 -0.010084722191095352 0.13099999725818634 114 81 80
0.09025730192661285 -0.010084722191095352 0.13099999725818634 112 79 78
0.09056533128023148 -0.010084722191095352 0.13099999725818634 104 73 73
0.0908733680844307 -0.010084722191095352 0.13099999725818634 101 70 70
0.09187743812799454 -0.010161704383790493 0.13199999928474426 97 64 67
0.09218782186508179 -0.010161704383790493 0.13199999928474426 92 59 62
0.10090713202953339 -0.011085495352745056 0.14399999380111694 95 57 59
0.10124573856592178 -0.011085495352745056 0.14399999380111694 93 55 57
0.10017344355583191 -0.010931530967354774 0.1420000046491623 89 50 46
0.09979954361915588 -0.010854547843337059 0.14100000262260437 90 51 47
0.0994209423661232 -0.010777565650641918 0.14000000059604645 92 49 44
0.09903763234615326 -0.010700582526624203 0.13899999856948853 95 52 47
0.09785950183868408 -0.010469635017216206 0.13600000739097595 106 65 57
0.09817928820848465 -0.010469635017216206 0.13600000739097595 112 71 63
0.09777481853961945 -0.01039265189319849 0.13500000536441803 110 74 64
0.09736564755439758 -0.01031566970050335 0.1340000033378601 103 67 57
0.09768073260784149 -0.01031566970050335 0.1340000033378601 103 67 57
0.097995825111866 -0.01031566970050335 0.1340000033378601 110 74 64
0.0983109101653099 -0.01031566970050335 0.1340000033378601 108 72 64
0.09862599521875381 -0.01031566970050335 0.1340000033378601 110 74 66
0.09967944771051407 -0.01039265189319849 0.13500000536441803 114 79 74
0.0999968871474266 -0.01039265189319849 0.13500000536441803 116 81 76
0.10031432658433914 -0.01039265189319849 0.13500000536441803 114 81 82
0.10063176602125168 -0.01039265189319849 0.13500000536441803 118 85 86
0.10094920545816422 -0.01039265189319849 0.13500000536441803 106 60 70
0.10126663744449615 -0.01039265189319849 0.13500000536441803 119 73 83
0.06248541176319122 -0.01089615747332573 0.1459999978542328 166 119 120
0.06282871961593628 -0.01089615747332573 0.1459999978542328 161 114 115
0.06273933500051498 -0.010821525938808918 0.14499999582767487 156 109 110
0.06308028846979141 -0.010821525938808918 0.14499999582767487 141 94 95
0.06411246210336685 -0.010597632266581059 0.1420000046491623 221 180 188
0.06399251520633698 -0.010523001663386822 0.14100000262260437 222 181 189
0.06432405859231949 -0.010523001663386822 0.14100000262260437 200 170 180
0.0646556094288826 -0.010523001663386822 0.14100000262260437 191 161 171
0.06498715281486511 -0.010523001663386822 0.14100000262260437 182 161 172
0.06531869620084763 -0.010523001663386822 0.14100000262260437 175 154 165
0.06565024703741074 -0.010523001663386822 0.14100000262260437 174 153 164
0.06551383435726166 -0.01044837012887001 0.14000000059604645 176 155 166
0.06584303081035614 -0.01044837012887001 0.14000000059604645 168 140 151
0.06617222726345062 -0.01044837012887001 0.14000000059604645 158 130 141
0.06879632920026779 -0.010299107991158962 0.1379999965429306 203 167 167
0.06861994415521622 -0.010224476456642151 0.13699999451637268 203 167 167
0.06894208490848541 -0.010224476456642151 0.13699999451637268 193 164 170
0.06926422566175461 -0.010224476456642151 0.13699999451637268 195 166 172
0.06907843798398972 -0.01014984492212534 0.13600000739097595 193 162 179
0.06939822435379028 -0.01014984492212534 0.13600000739097595 188 157 174
0.0692053809762001 -0.010075214318931103 0.13500000536441803 186 152 170
0.06952282041311264 -0.010075214318931103 0.13500000536441803 179 145 163
0.06984025985002518 -0.010075214318931103 0.13500000536441803 168 126 144
0.06963801383972168 -0.010000582784414291 0.1340000033378601 151 109 127
0.08871713280677795 -0.009776689112186432 0.13099999725818634 105 61 59
0.08902516961097717 -0.009776689112186432 0.13099999725818634 108 64 62
0.0893331989645958 -0.009776689112186432 0.13099999725818634 113 71 70
0.08964123576879501 -0.009776689112186432 0.13099999725818634 117 75 74
0.08994926512241364 -0.009776689112186432 0.13099999725818634 111 76 73
0.09025730192661285 -0.009776689112186432 0.13099999725818634 111 76 73
0.09056533128023148 -0.009776689112186432 0.13099999725818634 105 72 75
0.09156705439090729 -0.009851320646703243 0.13199999928474426 102 69 72
0.10162201523780823 -0.01089615747332573 0.1459999978542328 102 66 70
0.10196531563997269 -0.01089615747332573 0.1459999978542328 96 60 64
0.10090713202953339 -0.010746895335614681 0.14399999380111694 95 55 58
0.10124573856592178 -0.010746895335614681 0.14399999380111694 95 55 58
0.10158433765172958 -0.010746895335614681 0.14399999380111694 90 51 49
0.10192293673753738 -0.010746895335614681 0.14399999380111694 92 53 51
0.10226153582334518 -0.010746895335614681 0.14399999380111694 90 47 42
0.10188763588666916 -0.01067226380109787 0.14300000667572021 92 49 44
0.09913865476846695 -0.01014984492212534 0.13600000739097595 109 71 62
0.09872713685035706 -0.010075214318931103 0.13500000536441803 112 74 65
0.09904457628726959 -0.010075214318931103 0.13500000536441803 109 71 64
0.09936200827360153 -0.010075214318931103 0.13500000536441803 110 72 65
0.09967944771051407 -0.010075214318931103 0.13500000536441803 108 69 65
0.0999968871474266 -0.010075214318931103 0.13500000536441803 100 61 57
0.10105739533901215 -0.01014984492212534 0.13600000739097595 107 69 69
0.10137718170881271 -0.01014984492212534 0.13600000739097595 109 71 71
0.06248541176319122 -0.010552854277193546 0.1459999978542328 171 127 127
0.06282871961593628 -0.010552854277193546 0.1459999978542328 159 115 115
0.06273933500051498 -0.010480574332177639 0.14499999582767487 143 96 97
0.06308028846979141 -0.010480574332177639 0.14499999582767487 123 76 77
0.06411246210336685 -0.010263734497129917 0.1420000046491623 223 178 185
0.06399251520633698 -0.01019145455211401 0.14100000262260437 228 183 190
0.06432405859231949 -0.01019145455211401 0.14100000262260437 210 177 192
0.0646556094288826 -0.01019145455211401 0.14100000262260437 189 156 171
0.06498715281486511 -0.01019145455211401 0.14100000262260437 182 158 175
0.06531869620084763 -0.01019145455211401 0.14100000262260437 172 148 165
0.06565024703741074 -0.01019145455211401 0.14100000262260437 170 147 159
0.06551383435726166 -0.010119174607098103 0.14000000059604645 162 139 151
0.06584303081035614 -0.010119174607098103 0.14000000059604645 163 123 136
0.06617222726345062 -0.010119174607098103 0.14000000059604645 124 84 97
0.0893331989645958 -0.009468656964600086 0.13099999725818634 114 70 70
0.08964123576879501 -0.009468656964600086 0.13099999725818634 117 73 73
0.08994926512241364 -0.009468656964600086 0.13099999725818634 111 71 72
0.10162201523780823 -0.010552854277193546 0.1459999978542328 98 59 66
0.10196531563997269 -0.010552854277193546 0.1459999978542328 96 57 64
0.10230862349271774 -0.010552854277193546 0.1459999978542328 93 53 58
0.1026519238948822 -0.010552854277193546 0.1459999978542328 93 53 58
0.10299523174762726 -0.010552854277193546 0.1459999978542328 91 48 50
0.10333853214979172 -0.010552854277193546 0.1459999978542328 91 48 50
0.10297168791294098 -0.010480574332177639 0.14499999582767487 91 47 45
0.10331264138221741 -0.010480574332177639 0.14499999582767487 91 47 45
0.09977823495864868 -0.009830055758357048 0.13600000739097595 111 70 64
0.10009802877902985 -0.009830055758357048 0.13600000739097595 109 68 62
0.10041781514883041 -0.009830055758357048 0.13600000739097595 105 66 62
0.10073760896921158 -0.009830055758357048 0.13600000739097595 107 68 64
0.10105739533901215 -0.009830055758357048 0.13600000739097595 109 67 64
0.10137718170881271 -0.009830055758357048 0.13600000739097595 109 67 64
0.062222085893154144 -0.010279478505253792 0.1469999998807907 162 121 115
0.062142107635736465 -0.010209550149738789 0.1459999978542328 159 118 112
0.06248541176319122 -0.010209550149738789 0.1459999978542328 155 113 110
0.06282871961593628 -0.010209550149738789 0.1459999978542328 146 104 101
0.06317202001810074 -0.010209550149738789 0.1459999978542328 141 94 95
0.06308028846979141 -0.010139621794223785 0.14499999582767487 102 55 56
0.06411246210336685 -0.009929836727678776 0.1420000046491623 225 176 187
0.064446359872818 -0.009929836727678776 0.1420000046491623 222 173 184
0.06432405859231949 -0.009859908372163773 0.14100000262260437 222 188 206
0.0646556094288826 -0.009859908372163773 0.14100000262260437 190 156 174
0.06498715281486511 -0.009859908372163773 0.14100000262260437 182 156 171
0.06531869620084763 -0.009859908372163773 0.14100000262260437 178 152 167
0.06565024703741074 -0.009859908372163773 0.14100000262260437 161 133 144
0.06551383435726166 -0.00978998001664877 0.14000000059604645 142 114 125
0.10301409661769867 -0.010349406860768795 0.14800000190734863 102 61 69
0.10336210578680038 -0.010349406860768795 0.14800000190734863 103 62 70
0.10300936549901962 -0.010279478505253792 0.1469999998807907 103 59 68
0.10335502028465271 -0.010279478505253792 0.1469999998807907 103 59 68
0.1037006750702858 -0.010279478505253792 0.1469999998807907 96 53 57
0.10404632985591888 -0.010279478505253792 0.1469999998807907 92 49 53
0.10439198464155197 -0.010279478505253792 0.1469999998807907 91 49 46
0.10473763942718506 -0.010279478505253792 0.1469999998807907 89 47 44
0.10271289199590683 -0.00978998001664877 0.14000000059604645 111 70 62
0.10009802877902985 -0.009510265663266182 0.13600000739097595 110 69 61
0.10041781514883041 -0.009510265663266182 0.13600000739097595 109 68 62
0.10073760896921158 -0.009510265663266182 0.13600000739097595 109 68 62
0.06194935366511345 -0.010001400485634804 0.14800000190734863 171 127 127
0.06187643110752106 -0.009933823719620705 0.1469999998807907 156 112 112
0.062222085893154144 -0.009933823719620705 0.1469999998807907 158 116 113
0.06256774067878723 -0.009933823719620705 0.1469999998807907 145 103 100
0.06248541176319122 -0.009866246953606606 0.1459999978542328 141 99 96
0.06282871961593628 -0.009866246953606606 0.1459999978542328 130 88 85
0.06317202001810074 -0.009866246953606606 0.1459999978542328 114 67 66
0.0635153204202652 -0.009866246953606606 0.1459999978542328 105 58 57
0.06411246210336685 -0.009595938958227634 0.1420000046491623 216 168 176
0.064446359872818 -0.009595938958227634 0.1420000046491623 208 160 168
0.06478025764226913 -0.009595938958227634 0.1420000046491623 197 164 179
0.06511415541172028 -0.009595938958227634 0.1420000046491623 194 161 176
0.06498715281486511 -0.00952836126089096 0.14100000262260437 177 151 166
0.06531869620084763 -0.00952836126089096 0.14100000262260437 159 133 148
0.06565024703741074 -0.00952836126089096 0.14100000262260437 160 122 137
0.06551383435726166 -0.009460784494876862 0.14000000059604645 126 88 103
0.10301409661769867 -0.010001400485634804 0.14800000190734863 110 67 71
0.10336210578680038 -0.010001400485634804 0.14800000190734863 104 61 65
0.1037101075053215 -0.010001400485634804 0.14800000190734863 92 48 59
0.10335502028465271 -0.009933823719620705 0.1469999998807907 92 48 59
0.1037006750702858 -0.009933823719620705 0.1469999998807907 91 48 54
