0.06185498088598251 -0.01892228238284588 0.13699999451637268 255 92 107
0.06217712163925171 -0.01892228238284588 0.13699999451637268 245 82 97
0.062499262392520905 -0.01892228238284588 0.13699999451637268 249 81 98
0.0628214031457901 -0.01892228238284588 0.13699999451637268 248 80 97
0.0631435438990593 -0.01892228238284588 0.13699999451637268 248 81 95
0.06346568465232849 -0.01892228238284588 0.13699999451637268 255 89 103
0.06378782540559769 -0.01892228238284588 0.13699999451637268 246 79 91
0.06410996615886688 -0.01892228238284588 0.13699999451637268 245 78 90
0.06443210691213608 -0.01892228238284588 0.13699999451637268 241 76 85
0.06475424766540527 -0.01892228238284588 0.13699999451637268 240 75 84
0.06460138410329819 -0.018784163519740105 0.13600000739097595 235 77 81
0.06492117047309875 -0.018784163519740105 0.13600000739097595 247 89 93
0.06524096429347992 -0.018784163519740105 0.13600000739097595 234 85 86
0.06556075066328049 -0.018784163519740105 0.13600000739097595 214 65 66
0.06588053703308105 -0.018784163519740105 0.13600000739097595 210 65 61
0.06620033085346222 -0.018784163519740105 0.13600000739097595 204 59 55
0.07404922693967819 -0.018507925793528557 0.1340000033378601 210 115 116
0.0743643119931221 -0.018507925793528557 0.1340000033378601 214 125 131
0.07467939704656601 -0.018507925793528557 0.1340000033378601 221 132 138
0.07443482428789139 -0.018369806930422783 0.13300000131130219 218 137 138
0.07474756240844727 -0.018369806930422783 0.13300000131130219 215 134 135
0.07506029307842255 -0.018369806930422783 0.13300000131130219 206 133 129
0.07537303119897842 -0.018369806930422783 0.13300000131130219 201 128 124
0.05504577234387398 -0.020636653527617455 0.15199999511241913 255 142 143
0.05540318414568901 -0.020636653527617455 0.15199999511241913 242 127 128
0.055760595947504044 -0.020636653527617455 0.15199999511241913 243 130 137
0.05611800774931908 -0.020636653527617455 0.15199999511241913 252 139 146
0.05647541955113411 -0.020636653527617455 0.15199999511241913 253 141 150
0.05683283135294914 -0.020636653527617455 0.15199999511241913 252 140 149
0.057190243154764175 -0.020636653527617455 0.15199999511241913 255 144 153
0.05792625993490219 -0.0207724217325449 0.15299999713897705 255 145 154
0.058286022394895554 -0.0207724217325449 0.15299999713897705 255 146 155
0.058645784854888916 -0.0207724217325449 0.15299999713897705 255 145 154
0.05900555104017258 -0.0207724217325449 0.15299999713897705 252 143 149
0.05936531350016594 -0.0207724217325449 0.15299999713897705 245 136 142
0.05933471769094467 -0.020636653527617455 0.15199999511241913 247 134 139
0.05929941684007645 -0.02050088718533516 0.1509999930858612 246 133 138
0.05965447798371315 -0.02050088718533516 0.1509999930858612 255 136 145
0.05841987952589989 -0.01995781622827053 0.1469999998807907 242 117 126
0.058765534311532974 -0.01995781622827053 0.1469999998807907 248 117 130
0.057100605219602585 -0.019278978928923607 0.1420000046491623 252 121 134
0.05703003704547882 -0.01914321258664131 0.14100000262260437 252 119 131
0.057361580431461334 -0.01914321258664131 0.14100000262260437 246 113 125
0.05728395655751228 -0.019007444381713867 0.14000000059604645 254 120 127
0.057613153010606766 -0.019007444381713867 0.14000000059604645 255 124 131
0.05752847343683243 -0.018871676176786423 0.13899999856948853 253 120 122
0.05785531923174858 -0.018871676176786423 0.13899999856948853 251 118 120
0.058182161301374435 -0.018871676176786423 0.13899999856948853 252 119 119
0.05850900709629059 -0.018871676176786423 0.13899999856948853 253 120 120
0.05883584916591644 -0.018871676176786423 0.13899999856948853 253 118 119
0.0591626912355423 -0.018871676176786423 0.13899999856948853 249 114 115
0.05948953703045845 -0.018871676176786423 0.13899999856948853 249 101 116
0.05938604846596718 -0.018735909834504128 0.1379999965429306 247 99 114
0.0597105398774147 -0.018735909834504128 0.1379999965429306 249 97 115
0.06003503128886223 -0.018735909834504128 0.1379999965429306 255 106 124
0.06035952270030975 -0.018735909834504128 0.1379999965429306 255 103 115
0.06068401783704758 -0.018735909834504128 0.1379999965429306 251 97 109
0.0610085092484951 -0.018735909834504128 0.1379999965429306 250 95 101
0.06133300065994263 -0.018735909834504128 0.1379999965429306 253 98 104
0.06165749207139015 -0.018735909834504128 0.1379999965429306 241 80 85
0.061981987208127975 -0.018735909834504128 0.1379999965429306 236 75 80
0.0623064786195755 -0.018735909834504128 0.1379999965429306 249 82 94
0.06217712163925171 -0.018600141629576683 0.13699999451637268 252 85 97
0.062499262392520905 -0.018600141629576683 0.13699999451637268 249 78 93
0.0628214031457901 -0.018600141629576683 0.13699999451637268 243 72 87
0.0631435438990593 -0.018600141629576683 0.13699999451637268 237 67 82
0.06346568465232849 -0.018600141629576683 0.13699999451637268 246 76 91
0.06378782540559769 -0.018600141629576683 0.13699999451637268 224 63 68
0.06410996615886688 -0.018600141629576683 0.13699999451637268 239 78 83
0.06443210691213608 -0.018600141629576683 0.13699999451637268 238 81 85
0.06475424766540527 -0.018600141629576683 0.13699999451637268 227 70 74
0.06507638841867447 -0.018600141629576683 0.13699999451637268 203 56 59
0.06492117047309875 -0.018464375287294388 0.13600000739097595 203 56 59
0.06556075066328049 -0.018464375287294388 0.13600000739097595 202 61 66
0.06588053703308105 -0.018464375287294388 0.13600000739097595 202 67 68
0.06875864416360855 -0.018464375287294388 0.13600000739097595 205 91 83
0.06907843798398972 -0.018464375287294388 0.13600000739097595 207 98 88
0.06888794153928757 -0.018328607082366943 0.13500000536441803 208 99 89
0.0692053809762001 -0.018328607082366943 0.13500000536441803 202 105 91
0.07341904938220978 -0.0181928388774395 0.1340000033378601 206 111 108
0.07373414188623428 -0.0181928388774395 0.1340000033378601 218 125 128
0.07404922693967819 -0.0181928388774395 0.1340000033378601 238 145 148
0.0743643119931221 -0.0181928388774395 0.1340000033378601 229 147 155
0.07467939704656601 -0.0181928388774395 0.1340000033378601 225 143 151
0.07443482428789139 -0.018057072535157204 0.13300000131130219 205 131 134
0.07474756240844727 -0.018057072535157204 0.13300000131130219 209 135 138
0.07506029307842255 -0.018057072535157204 0.13300000131130219 206 136 138
0.07537303119897842 -0.018057072535157204 0.13300000131130219 206 136 138
0.0756857693195343 -0.018057072535157204 0.13300000131130219 204 139 141
0.07599849998950958 -0.018057072535157204 0.13300000131130219 204 139 141
0.07631123811006546 -0.018057072535157204 0.13300000131130219 211 144 147
0.07662397623062134 -0.018057072535157204 0.13300000131130219 201 134 137
0.05504577234387398 -0.02027924172580242 0.15199999511241913 253 141 141
0.05540318414568901 -0.02027924172580242 0.15199999511241913 244 132 132
0.055760595947504044 -0.02027924172580242 0.15199999511241913 250 137 142
0.05611800774931908 -0.02027924172580242 0.15199999511241913 253 140 145
0.05647541955113411 -0.02027924172580242 0.15199999511241913 251 140 146
0.05683283135294914 -0.02027924172580242 0.15199999511241913 252 141 147
0.057190243154764175 -0.02027924172580242 0.15199999511241913 254 142 151
0.05792625993490219 -0.020412657409906387 0.15299999713897705 255 144 153
0.058286022394895554 -0.020412657409906387 0.15299999713897705 255 146 155
0.058645784854888916 -0.020412657409906387 0.15299999713897705 255 147 156
0.05900555104017258 -0.020412657409906387 0.15299999713897705 255 147 153
0.05897730588912964 -0.02027924172580242 0.15199999511241913 254 145 151
0.05933471769094467 -0.02027924172580242 0.15199999511241913 250 139 143
0.05929941684007645 -0.020145826041698456 0.1509999930858612 247 136 140
0.05965447798371315 -0.020145826041698456 0.1509999930858612 254 129 138
0.05841987952589989 -0.019612161442637444 0.1469999998807907 242 117 126
0.058765534311532974 -0.019612161442637444 0.1469999998807907 242 111 124
0.057100605219602585 -0.018945081159472466 0.1420000046491623 251 120 133
0.05703003704547882 -0.0188116654753685 0.14100000262260437 253 120 130
0.057361580431461334 -0.0188116654753685 0.14100000262260437 251 118 128
0.05728395655751228 -0.018678249791264534 0.14000000059604645 254 120 127
0.057613153010606766 -0.018678249791264534 0.14000000059604645 254 120 127
0.05752847343683243 -0.018544834107160568 0.13899999856948853 251 117 122
0.05785531923174858 -0.018544834107160568 0.13899999856948853 252 118 123
0.058182161301374435 -0.018544834107160568 0.13899999856948853 252 117 120
0.05850900709629059 -0.018544834107160568 0.13899999856948853 255 121 124
0.05883584916591644 -0.018544834107160568 0.13899999856948853 255 116 120
0.0591626912355423 -0.018544834107160568 0.13899999856948853 247 104 108
0.05948953703045845 -0.018544834107160568 0.13899999856948853 251 95 110
0.059816379100084305 -0.018544834107160568 0.13899999856948853 246 90 105
0.06014322489500046 -0.018544834107160568 0.13899999856948853 244 84 100
0.06047006696462631 -0.018544834107160568 0.13899999856948853 250 90 106
0.060796912759542465 -0.018544834107160568 0.13899999856948853 255 93 106
0.06112375482916832 -0.018544834107160568 0.13899999856948853 245 80 93
0.06145060062408447 -0.018544834107160568 0.13899999856948853 252 88 92
0.06177744269371033 -0.018544834107160568 0.13899999856948853 255 95 99
0.06165749207139015 -0.018411416560411453 0.1379999965429306 246 80 85
0.061981987208127975 -0.018411416560411453 0.1379999965429306 246 80 85
0.0623064786195755 -0.018411416560411453 0.1379999965429306 250 80 88
0.06263097375631332 -0.018411416560411453 0.1379999965429306 249 79 87
0.06295546144247055 -0.018411416560411453 0.1379999965429306 255 83 97
0.06327995657920837 -0.018411416560411453 0.1379999965429306 249 75 89
0.0636044442653656 -0.018411416560411453 0.1379999965429306 238 71 81
0.06392893940210342 -0.018411416560411453 0.1379999965429306 240 73 83
0.06425343453884125 -0.018411416560411453 0.1379999965429306 220 71 70
0.06457792222499847 -0.018411416560411453 0.1379999965429306 212 63 62
0.06811906397342682 -0.01814458519220352 0.13600000739097595 201 91 88
0.06843885779380798 -0.01814458519220352 0.13600000739097595 210 99 94
0.06875864416360855 -0.01814458519220352 0.13600000739097595 217 106 101
0.06907843798398972 -0.01814458519220352 0.13600000739097595 224 115 109
0.06888794153928757 -0.018011169508099556 0.13500000536441803 222 113 107
0.0692053809762001 -0.018011169508099556 0.13500000536441803 209 112 102
0.06952282041311264 -0.018011169508099556 0.13500000536441803 202 105 95
0.07341904938220978 -0.01787775382399559 0.1340000033378601 214 122 120
0.07373414188623428 -0.01787775382399559 0.1340000033378601 231 147 149
0.07404922693967819 -0.01787775382399559 0.1340000033378601 240 156 158
0.0743643119931221 -0.01787775382399559 0.1340000033378601 231 157 167
0.07467939704656601 -0.01787775382399559 0.1340000033378601 225 151 161
0.07499448955059052 -0.01787775382399559 0.1340000033378601 215 147 153
0.07474756240844727 -0.017744336277246475 0.13300000131130219 208 140 146
0.07506029307842255 -0.017744336277246475 0.13300000131130219 212 146 151
0.07537303119897842 -0.017744336277246475 0.13300000131130219 214 148 153
0.0756857693195343 -0.017744336277246475 0.13300000131130219 211 145 150
0.07599849998950958 -0.017744336277246475 0.13300000131130219 208 142 147
0.07631123811006546 -0.017744336277246475 0.13300000131130219 207 141 146
0.07662397623062134 -0.017744336277246475 0.13300000131130219 206 140 145
0.08163238316774368 -0.017477504909038544 0.13099999725818634 201 136 127
0.05504577234387398 -0.01992182992398739 0.15199999511241913 254 139 140
0.05540318414568901 -0.01992182992398739 0.15199999511241913 250 135 136
0.055760595947504044 -0.01992182992398739 0.15199999511241913 255 143 143
0.05611800774931908 -0.01992182992398739 0.15199999511241913 255 145 145
0.05647541955113411 -0.01992182992398739 0.15199999511241913 255 144 149
0.05683283135294914 -0.01992182992398739 0.15199999511241913 255 142 147
0.05756649747490883 -0.020052894949913025 0.15299999713897705 255 145 149
0.05792625993490219 -0.020052894949913025 0.15299999713897705 255 147 151
0.058286022394895554 -0.020052894949913025 0.15299999713897705 255 147 153
0.058645784854888916 -0.020052894949913025 0.15299999713897705 255 146 152
0.05900555104017258 -0.020052894949913025 0.15299999713897705 255 148 152
0.05897730588912964 -0.01992182992398739 0.15199999511241913 255 149 153
0.05933471769094467 -0.01992182992398739 0.15199999511241913 253 142 144
0.059692129492759705 -0.01992182992398739 0.15199999511241913 253 142 144
0.05802246555685997 -0.01913544163107872 0.1459999978542328 249 128 136
0.05836576968431473 -0.01913544163107872 0.1459999978542328 249 121 131
0.05728395655751228 -0.01834905333817005 0.14000000059604645 253 119 124
0.057613153010606766 -0.01834905333817005 0.14000000059604645 248 114 119
0.05752847343683243 -0.018217990174889565 0.13899999856948853 249 113 119
0.05785531923174858 -0.018217990174889565 0.13899999856948853 250 114 120
0.058182161301374435 -0.018217990174889565 0.13899999856948853 250 109 114
0.05850900709629059 -0.018217990174889565 0.13899999856948853 245 104 109
0.05925912782549858 -0.01834905333817005 0.14000000059604645 252 102 108
0.0591626912355423 -0.018217990174889565 0.13899999856948853 247 97 103
0.05948953703045845 -0.018217990174889565 0.13899999856948853 246 84 96
0.06024671345949173 -0.01834905333817005 0.14000000059604645 248 86 98
0.06057590991258621 -0.01834905333817005 0.14000000059604645 241 74 86
0.060905102640390396 -0.01834905333817005 0.14000000059604645 242 75 87
0.06123429909348488 -0.01834905333817005 0.14000000059604645 248 77 88
0.06156349554657936 -0.01834905333817005 0.14000000059604645 243 72 83
0.061892688274383545 -0.01834905333817005 0.14000000059604645 251 81 85
0.06177744269371033 -0.018217990174889565 0.13899999856948853 255 89 93
0.06210428848862648 -0.018217990174889565 0.13899999856948853 252 82 86
0.062431130558252335 -0.018217990174889565 0.13899999856948853 249 79 83
0.06275797635316849 -0.018217990174889565 0.13899999856948853 250 77 86
0.06308481842279434 -0.018217990174889565 0.13899999856948853 228 55 64
0.0634116604924202 -0.018217990174889565 0.13899999856948853 212 45 55
0.06373850256204605 -0.018217990174889565 0.13899999856948853 227 60 70
0.0636044442653656 -0.018086925148963928 0.1379999965429306 215 66 67
0.06392893940210342 -0.018086925148963928 0.1379999965429306 212 63 64
0.06539852917194366 -0.017955860123038292 0.13699999451637268 204 81 78
0.06829780340194702 -0.017955860123038292 0.13699999451637268 201 92 94
0.06861994415521622 -0.017955860123038292 0.13699999451637268 219 110 112
0.06894208490848541 -0.017955860123038292 0.13699999451637268 241 129 129
0.06875864416360855 -0.017824795097112656 0.13600000739097595 241 129 129
0.06907843798398972 -0.017824795097112656 0.13600000739097595 243 135 134
0.06939822435379028 -0.017824795097112656 0.13600000739097595 240 132 131
0.06971801817417145 -0.017824795097112656 0.13600000739097595 235 136 134
0.06952282041311264 -0.01769373007118702 0.13500000536441803 230 131 129
0.06984025985002518 -0.01769373007118702 0.13500000536441803 218 124 116
0.07015769928693771 -0.01769373007118702 0.13500000536441803 205 111 103
0.07310396432876587 -0.017562666907906532 0.1340000033378601 205 117 118
0.07341904938220978 -0.017562666907906532 0.1340000033378601 255 171 172
0.07373414188623428 -0.017562666907906532 0.1340000033378601 243 165 174
0.07404922693967819 -0.017562666907906532 0.1340000033378601 242 164 173
0.0743643119931221 -0.017562666907906532 0.1340000033378601 243 171 187
0.07467939704656601 -0.017562666907906532 0.1340000033378601 224 152 168
0.07443482428789139 -0.017431601881980896 0.13300000131130219 222 155 167
0.07474756240844727 -0.017431601881980896 0.13300000131130219 211 144 156
0.07506029307842255 -0.017431601881980896 0.13300000131130219 218 154 163
0.07537303119897842 -0.017431601881980896 0.13300000131130219 212 148 157
0.0756857693195343 -0.017431601881980896 0.13300000131130219 212 148 157
0.07599849998950958 -0.017431601881980896 0.13300000131130219 212 148 157
0.07631123811006546 -0.017431601881980896 0.13300000131130219 208 145 151
0.07662397623062134 -0.017431601881980896 0.13300000131130219 206 143 149
0.07635823637247086 -0.01730053685605526 0.13199999928474426 206 143 147
0.0766686201095581 -0.01730053685605526 0.13199999928474426 201 138 142
0.0772893875837326 -0.01730053685605526 0.13199999928474426 204 141 145
0.07759977132081985 -0.01730053685605526 0.13199999928474426 201 138 144
0.07946208119392395 -0.01730053685605526 0.13199999928474426 201 128 126
0.08132435381412506 -0.017169471830129623 0.13099999725818634 205 140 129
0.08255648612976074 -0.017169471830129623 0.13099999725818634 202 143 136
0.05504577234387398 -0.019564418122172356 0.15199999511241913 252 136 140
0.05540318414568901 -0.019564418122172356 0.15199999511241913 253 137 141
0.055760595947504044 -0.019564418122172356 0.15199999511241913 253 137 141
0.05611800774931908 -0.019564418122172356 0.15199999511241913 253 137 141
0.05647541955113411 -0.019564418122172356 0.15199999511241913 253 137 141
0.05683283135294914 -0.019564418122172356 0.15199999511241913 250 134 138
0.057190243154764175 -0.019564418122172356 0.15199999511241913 255 146 151
0.05754765495657921 -0.019564418122172356 0.15199999511241913 255 145 150
0.05790506675839424 -0.019564418122172356 0.15199999511241913 255 147 153
0.058262478560209274 -0.019564418122172356 0.15199999511241913 254 143 149
0.05861989036202431 -0.019564418122172356 0.15199999511241913 255 145 151
0.05897730588912964 -0.019564418122172356 0.15199999511241913 255 153 159
0.05933471769094467 -0.019564418122172356 0.15199999511241913 252 139 144
0.05802246555685997 -0.01879213936626911 0.1459999978542328 247 124 132
0.05796600505709648 -0.018663424998521805 0.14499999582767487 249 121 129
0.057904839515686035 -0.018534712493419647 0.14399999380111694 250 122 130
0.058243442326784134 -0.018534712493419647 0.14399999380111694 254 122 129
0.057613153010606766 -0.01801985874772072 0.14000000059604645 249 110 117
0.05794234946370125 -0.01801985874772072 0.14000000059604645 242 99 105
0.05827154219150543 -0.01801985874772072 0.14000000059604645 251 108 114
0.058600738644599915 -0.01801985874772072 0.14000000059604645 248 101 106
0.0589299350976944 -0.01801985874772072 0.14000000059604645 245 98 103
0.05925912782549858 -0.01801985874772072 0.14000000059604645 255 97 106
0.05958832427859306 -0.01801985874772072 0.14000000059604645 244 85 94
0.059917520731687546 -0.01801985874772072 0.14000000059604645 239 74 83
0.06024671345949173 -0.01801985874772072 0.14000000059604645 248 83 92
0.06057590991258621 -0.01801985874772072 0.14000000059604645 246 77 85
0.060905102640390396 -0.01801985874772072 0.14000000059604645 251 82 90
0.06167168915271759 -0.018148573115468025 0.14100000262260437 251 81 87
0.062003232538700104 -0.018148573115468025 0.14100000262260437 249 79 85
0.061892688274383545 -0.01801985874772072 0.14000000059604645 250 77 82
0.06222188472747803 -0.01801985874772072 0.14000000059604645 250 77 82
0.06255108118057251 -0.01801985874772072 0.14000000059604645 245 75 81
0.06288027763366699 -0.01801985874772072 0.14000000059604645 245 75 81
0.06320947408676147 -0.01801985874772072 0.14000000059604645 237 70 82
0.06353866308927536 -0.01801985874772072 0.14000000059604645 219 52 64
0.0634116604924202 -0.01789114624261856 0.13899999856948853 219 64 72
0.06373850256204605 -0.01789114624261856 0.13899999856948853 223 68 76
0.0640653520822525 -0.01789114624261856 0.13899999856948853 212 75 72
0.06439219415187836 -0.01789114624261856 0.13899999856948853 215 78 75
0.06471903622150421 -0.01789114624261856 0.13899999856948853 205 80 71
0.06457792222499847 -0.017762431874871254 0.1379999965429306 201 76 67
0.06847183406352997 -0.017762431874871254 0.1379999965429306 206 107 109
0.06829780340194702 -0.017633719369769096 0.13699999451637268 230 126 126
0.06861994415521622 -0.017633719369769096 0.13699999451637268 233 129 129
0.06894208490848541 -0.017633719369769096 0.13699999451637268 237 130 133
0.06926422566175461 -0.017633719369769096 0.13699999451637268 237 130 133
0.06907843798398972 -0.01750500500202179 0.13600000739097595 242 141 144
0.06939822435379028 -0.01750500500202179 0.13600000739097595 243 142 145
0.06971801817417145 -0.01750500500202179 0.13600000739097595 239 143 144
0.07003780454397202 -0.01750500500202179 0.13600000739097595 228 132 133
0.07035759091377258 -0.01750500500202179 0.13600000739097595 225 133 131
0.07015769928693771 -0.017376292496919632 0.13500000536441803 229 137 135
0.07047513872385025 -0.017376292496919632 0.13500000536441803 207 118 113
0.07310396432876587 -0.017247579991817474 0.1340000033378601 243 164 171
0.07341904938220978 -0.017247579991817474 0.1340000033378601 255 192 199
0.07373414188623428 -0.017247579991817474 0.1340000033378601 250 179 188
0.07404922693967819 -0.017247579991817474 0.1340000033378601 250 179 188
0.0743643119931221 -0.017247579991817474 0.1340000033378601 239 167 181
0.07467939704656601 -0.017247579991817474 0.1340000033378601 230 158 172
0.07443482428789139 -0.017118865624070168 0.13300000131130219 230 161 172
0.07474756240844727 -0.017118865624070168 0.13300000131130219 219 150 161
0.07506029307842255 -0.017118865624070168 0.13300000131130219 224 157 167
0.07537303119897842 -0.017118865624070168 0.13300000131130219 222 155 165
0.0756857693195343 -0.017118865624070168 0.13300000131130219 215 151 160
0.07599849998950958 -0.017118865624070168 0.13300000131130219 217 153 162
0.07573746889829636 -0.01699015311896801 0.13199999928474426 214 152 160
0.0760478526353836 -0.01699015311896801 0.13199999928474426 211 149 157
0.07635823637247086 -0.01699015311896801 0.13199999928474426 207 151 155
0.07759977132081985 -0.01699015311896801 0.13199999928474426 204 143 146
0.0779101550579071 -0.01699015311896801 0.13199999928474426 202 141 144
0.07884130626916885 -0.01699015311896801 0.13199999928474426 206 140 145
0.0791516974568367 -0.01699015311896801 0.13199999928474426 205 139 144
0.07946208119392395 -0.01699015311896801 0.13199999928474426 213 136 142
0.0797724649310112 -0.01699015311896801 0.13199999928474426 208 131 137
0.08163238316774368 -0.016861438751220703 0.13099999725818634 201 138 126
0.0819404199719429 -0.016861438751220703 0.13099999725818634 204 141 131
0.08224844932556152 -0.016861438751220703 0.13099999725818634 206 143 133
0.08255648612976074 -0.016861438751220703 0.13099999725818634 203 139 134
0.0546836294233799 -0.019080644473433495 0.1509999930858612 253 137 141
0.05540318414568901 -0.019207006320357323 0.15199999511241913 249 133 137
0.055760595947504044 -0.019207006320357323 0.15199999511241913 252 136 140
0.05611800774931908 -0.019207006320357323 0.15199999511241913 253 137 141
0.05647541955113411 -0.019207006320357323 0.15199999511241913 253 137 141
0.05683283135294914 -0.019207006320357323 0.15199999511241913 250 134 138
0.057190243154764175 -0.019207006320357323 0.15199999511241913 255 145 149
0.05754765495657921 -0.019207006320357323 0.15199999511241913 255 140 144
0.05790506675839424 -0.019207006320357323 0.15199999511241913 255 144 149
0.058262478560209274 -0.019207006320357323 0.15199999511241913 254 141 146
0.058234233409166336 -0.019080644473433495 0.1509999930858612 255 144 149
0.05858929455280304 -0.019080644473433495 0.1509999930858612 254 141 146
0.057566240429878235 -0.018196111544966698 0.14399999380111694 251 118 128
0.057904839515686035 -0.018196111544966698 0.14399999380111694 253 120 130
0.05783897265791893 -0.01806974969804287 0.14300000667572021 255 118 127
0.0581752210855484 -0.01806974969804287 0.14300000667572021 249 110 119
0.05843619629740715 -0.01794338785111904 0.1420000046491623 246 100 107
0.05794234946370125 -0.017690664157271385 0.14000000059604645 242 95 100
0.05827154219150543 -0.017690664157271385 0.14000000059604645 247 100 105
0.058600738644599915 -0.017690664157271385 0.14000000059604645 250 91 100
0.0589299350976944 -0.017690664157271385 0.14000000059604645 246 87 96
0.05968240648508072 -0.017817026004195213 0.14100000262260437 248 83 92
0.06001395359635353 -0.017817026004195213 0.14100000262260437 255 90 99
0.06034550070762634 -0.017817026004195213 0.14100000262260437 255 87 93
0.060677047818899155 -0.017817026004195213 0.14100000262260437 254 85 91
0.06100859493017197 -0.017817026004195213 0.14100000262260437 249 74 77
0.06134014204144478 -0.017817026004195213 0.14100000262260437 254 79 82
0.062109075486660004 -0.01794338785111904 0.1420000046491623 255 84 89
0.062003232538700104 -0.017817026004195213 0.14100000262260437 252 79 84
0.062334779649972916 -0.017817026004195213 0.14100000262260437 244 74 82
0.06266632676124573 -0.017817026004195213 0.14100000262260437 249 79 87
0.06299787014722824 -0.017817026004195213 0.14100000262260437 253 86 96
0.06332942098379135 -0.017817026004195213 0.14100000262260437 255 88 98
0.06366096436977386 -0.017817026004195213 0.14100000262260437 243 87 102
0.06353866308927536 -0.017690664157271385 0.14000000059604645 233 77 92
0.06386785954236984 -0.017690664157271385 0.14000000059604645 215 72 78
0.06419705599546432 -0.017690664157271385 0.14000000059604645 217 74 80
0.06452625244855881 -0.017690664157271385 0.14000000059604645 204 74 69
0.06439219415187836 -0.017564302310347557 0.13899999856948853 213 83 78
0.06471903622150421 -0.017564302310347557 0.13899999856948853 211 89 79
0.06814733892679214 -0.01743794046342373 0.1379999965429306 204 108 112
0.06847183406352997 -0.01743794046342373 0.1379999965429306 235 139 143
0.06829780340194702 -0.0173115786164999 0.13699999451637268 247 152 151
0.06861994415521622 -0.0173115786164999 0.13699999451637268 246 151 150
0.06894208490848541 -0.0173115786164999 0.13699999451637268 249 153 152
0.06926422566175461 -0.0173115786164999 0.13699999451637268 250 154 153
0.0695863664150238 -0.0173115786164999 0.13699999451637268 251 154 158
0.06939822435379028 -0.017185216769576073 0.13600000739097595 253 156 160
0.06971801817417145 -0.017185216769576073 0.13600000739097595 245 152 155
0.07003780454397202 -0.017185216769576073 0.13600000739097595 248 155 158
0.07035759091377258 -0.017185216769576073 0.13600000739097595 241 147 155
0.07067738473415375 -0.017185216769576073 0.13600000739097595 234 140 148
0.07047513872385025 -0.017058854922652245 0.13500000536441803 225 134 141
0.07333207875490189 -0.017058854922652245 0.13500000536441803 210 127 124
0.07364951819181442 -0.017058854922652245 0.13500000536441803 255 189 202
0.07341904938220978 -0.016932493075728416 0.1340000033378601 255 190 203
0.07373414188623428 -0.016932493075728416 0.1340000033378601 255 194 204
0.07404922693967819 -0.016932493075728416 0.1340000033378601 254 187 197
0.0743643119931221 -0.016932493075728416 0.1340000033378601 255 187 199
0.07467939704656601 -0.016932493075728416 0.1340000033378601 248 176 188
0.07443482428789139 -0.01680613122880459 0.13300000131130219 229 155 165
0.07474756240844727 -0.01680613122880459 0.13300000131130219 229 155 165
0.07506029307842255 -0.01680613122880459 0.13300000131130219 235 164 171
0.07537303119897842 -0.01680613122880459 0.13300000131130219 234 163 170
0.0756857693195343 -0.01680613122880459 0.13300000131130219 231 168 172
0.0754270851612091 -0.01667976938188076 0.13199999928474426 232 169 173
0.07573746889829636 -0.01667976938188076 0.13199999928474426 223 168 174
0.0760478526353836 -0.01667976938188076 0.13199999928474426 216 161 167
0.07635823637247086 -0.01667976938188076 0.13199999928474426 202 151 153
0.07759977132081985 -0.01667976938188076 0.13199999928474426 207 149 149
0.0779101550579071 -0.01667976938188076 0.13199999928474426 207 149 149
0.07822053879499435 -0.01667976938188076 0.13199999928474426 203 143 143
0.0785309225320816 -0.01667976938188076 0.13199999928474426 205 145 145
0.07884130626916885 -0.01667976938188076 0.13199999928474426 214 148 153
0.0791516974568367 -0.01667976938188076 0.13199999928474426 205 139 144
0.07946208119392395 -0.01667976938188076 0.13199999928474426 205 127 136
0.0797724649310112 -0.01667976938188076 0.13199999928474426 211 133 142
0.08008284866809845 -0.01667976938188076 0.13199999928474426 202 127 135
0.0819404199719429 -0.016553407534956932 0.13099999725818634 215 154 146
0.08224844932556152 -0.016553407534956932 0.13099999725818634 210 149 141
0.08192627876996994 -0.016427045688033104 0.12999999523162842 205 143 140
0.08223196119070053 -0.016427045688033104 0.12999999523162842 209 147 144
0.0546836294233799 -0.01872558332979679 0.1509999930858612 252 133 138
0.0550386905670166 -0.01872558332979679 0.1509999930858612 252 133 138
0.055760595947504044 -0.01884959451854229 0.15199999511241913 252 133 138
0.05611800774931908 -0.01884959451854229 0.15199999511241913 254 135 140
0.056103870272636414 -0.01872558332979679 0.1509999930858612 255 137 142
0.05645893141627312 -0.01872558332979679 0.1509999930858612 255 137 142
0.05681399255990982 -0.01872558332979679 0.1509999930858612 255 137 142
0.057169053703546524 -0.01872558332979679 0.1509999930858612 255 136 141
0.05752411484718323 -0.01872558332979679 0.1509999930858612 249 133 139
0.05787917599081993 -0.01872558332979679 0.1509999930858612 255 139 145
0.058234233409166336 -0.01872558332979679 0.1509999930858612 255 143 151
0.05858929455280304 -0.01872558332979679 0.1509999930858612 249 133 141
0.05772856995463371 -0.018229542300105095 0.1469999998807907 252 129 139
0.05767916142940521 -0.018105531111359596 0.1459999978542328 255 124 136
0.05802246555685997 -0.018105531111359596 0.1459999978542328 252 119 131
0.057566240429878235 -0.017857510596513748 0.14399999380111694 252 113 122
0.057904839515686035 -0.017857510596513748 0.14399999380111694 243 104 113
0.05783897265791893 -0.01773349940776825 0.14300000667572021 249 102 109
0.0581752210855484 -0.01773349940776825 0.14300000667572021 243 96 103
0.05851146951317787 -0.01773349940776825 0.14300000667572021 251 96 104
0.05843619629740715 -0.0176094900816679 0.1420000046491623 253 98 106
0.05835622176527977 -0.0174854788929224 0.14100000262260437 255 98 107
0.05868776887655258 -0.0174854788929224 0.14100000262260437 247 89 98
0.05943789333105087 -0.0176094900816679 0.1420000046491623 247 82 93
0.059771791100502014 -0.0176094900816679 0.1420000046491623 251 86 97
0.060105688869953156 -0.0176094900816679 0.1420000046491623 242 73 81
0.0604395866394043 -0.0176094900816679 0.1420000046491623 250 81 89
0.06077348440885544 -0.0176094900816679 0.1420000046491623 249 74 75
0.06110738217830658 -0.0176094900816679 0.1420000046491623 251 76 77
0.06144127994775772 -0.0176094900816679 0.1420000046491623 241 64 66
0.06177517771720886 -0.0176094900816679 0.1420000046491623 229 52 54
0.062109075486660004 -0.0176094900816679 0.1420000046491623 231 61 67
0.062442973256111145 -0.0176094900816679 0.1420000046491623 244 74 80
0.06277687102556229 -0.0176094900816679 0.1420000046491623 244 85 94
0.06311076879501343 -0.0176094900816679 0.1420000046491623 255 99 108
0.06344466656446457 -0.0176094900816679 0.1420000046491623 255 104 115
0.06332942098379135 -0.0174854788929224 0.14100000262260437 255 107 118
0.06366096436977386 -0.0174854788929224 0.14100000262260437 249 106 119
0.06399251520633698 -0.0174854788929224 0.14100000262260437 246 103 116
0.06386785954236984 -0.017361469566822052 0.14000000059604645 237 105 112
0.06419705599546432 -0.017361469566822052 0.14000000059604645 231 99 106
0.06439219415187836 -0.017237458378076553 0.13899999856948853 207 82 75
0.06471903622150421 -0.017237458378076553 0.13899999856948853 206 84 74
0.06522691249847412 -0.017113447189331055 0.1379999965429306 201 84 77
0.06814733892679214 -0.017113447189331055 0.1379999965429306 218 125 128
0.06847183406352997 -0.017113447189331055 0.1379999965429306 243 150 153
0.06879632920026779 -0.017113447189331055 0.1379999965429306 255 168 171
0.06861994415521622 -0.016989437863230705 0.13699999451637268 252 164 167
0.06894208490848541 -0.016989437863230705 0.13699999451637268 252 163 169
0.06926422566175461 -0.016989437863230705 0.13699999451637268 252 163 169
0.0695863664150238 -0.016989437863230705 0.13699999451637268 249 160 166
0.06939822435379028 -0.016865426674485207 0.13600000739097595 252 163 169
0.06971801817417145 -0.016865426674485207 0.13600000739097595 247 161 168
0.07003780454397202 -0.016865426674485207 0.13600000739097595 253 167 174
0.07035759091377258 -0.016865426674485207 0.13600000739097595 249 162 174
0.07067738473415375 -0.016865426674485207 0.13600000739097595 253 166 178
0.07099717110395432 -0.016865426674485207 0.13600000739097595 249 163 172
0.07079257071018219 -0.016741415485739708 0.13500000536441803 211 125 134
0.07111001014709473 -0.016741415485739708 0.13500000536441803 207 123 120
0.07142744958400726 -0.016741415485739708 0.13500000536441803 207 123 120
0.07333207875490189 -0.016741415485739708 0.13500000536441803 232 151 150
0.07364951819181442 -0.016741415485739708 0.13500000536441803 255 202 212
0.07396695762872696 -0.016741415485739708 0.13500000536441803 255 203 213
0.07373414188623428 -0.01661740615963936 0.1340000033378601 255 201 216
0.07404922693967819 -0.01661740615963936 0.1340000033378601 254 191 206
0.0743643119931221 -0.01661740615963936 0.1340000033378601 254 185 196
0.07412209361791611 -0.01649339497089386 0.13300000131130219 246 177 188
0.07443482428789139 -0.01649339497089386 0.13300000131130219 240 166 174
0.07474756240844727 -0.01649339497089386 0.13300000131130219 239 165 173
0.07506029307842255 -0.01649339497089386 0.13300000131130219 237 167 169
0.07537303119897842 -0.01649339497089386 0.13300000131130219 239 169 171
0.0756857693195343 -0.01649339497089386 0.13300000131130219 235 168 171
0.0754270851612091 -0.01636938564479351 0.13199999928474426 236 169 172
0.07573746889829636 -0.01636938564479351 0.13199999928474426 226 167 170
0.0760478526353836 -0.01636938564479351 0.13199999928474426 216 157 160
0.07635823637247086 -0.01636938564479351 0.13199999928474426 204 150 153
0.0766686201095581 -0.01636938564479351 0.13199999928474426 211 157 160
0.07697900384664536 -0.01636938564479351 0.13199999928474426 210 154 156
0.0772893875837326 -0.01636938564479351 0.13199999928474426 210 154 156
0.07759977132081985 -0.01636938564479351 0.13199999928474426 220 162 162
0.0779101550579071 -0.01636938564479351 0.13199999928474426 208 150 150
0.07822053879499435 -0.01636938564479351 0.13199999928474426 210 152 152
0.0785309225320816 -0.01636938564479351 0.13199999928474426 216 158 158
0.07884130626916885 -0.01636938564479351 0.13199999928474426 218 155 159
0.0791516974568367 -0.01636938564479351 0.13199999928474426 216 153 157
0.07946208119392395 -0.01636938564479351 0.13199999928474426 221 150 157
0.07916812598705292 -0.016245374456048012 0.13099999725818634 214 143 150
0.07947615534067154 -0.016245374456048012 0.13099999725818634 209 135 143
0.07978419214487076 -0.016245374456048012 0.13099999725818634 202 128 136
0.08132435381412506 -0.016245374456048012 0.13099999725818634 203 146 137
0.0819404199719429 -0.016245374456048012 0.13099999725818634 207 149 145
0.08162060379981995 -0.016121363267302513 0.12999999523162842 214 156 152
0.08223196119070053 -0.016121363267302513 0.12999999523162842 201 142 145
0.0546836294233799 -0.018370524048805237 0.1509999930858612 249 134 133
0.0550386905670166 -0.018370524048805237 0.1509999930858612 249 134 133
0.055393751710653305 -0.018370524048805237 0.1509999930858612 241 126 127
0.05574881285429001 -0.018370524048805237 0.1509999930858612 250 135 136
0.056103870272636414 -0.018370524048805237 0.1509999930858612 254 139 140
0.05645893141627312 -0.018370524048805237 0.1509999930858612 255 141 142
0.05681399255990982 -0.018370524048805237 0.1509999930858612 252 136 140
0.057169053703546524 -0.018370524048805237 0.1509999930858612 252 136 140
0.05752411484718323 -0.018370524048805237 0.1509999930858612 255 140 148
0.05787917599081993 -0.018370524048805237 0.1509999930858612 255 139 147
0.057462919503450394 -0.018127204850316048 0.14900000393390656 252 131 141
0.05781327933073044 -0.018127204850316048 0.14900000393390656 248 127 137
0.058163635432720184 -0.018127204850316048 0.14900000393390656 249 118 129
0.05772856995463371 -0.017883887514472008 0.1469999998807907 240 109 120
0.05767916142940521 -0.017762228846549988 0.1459999978542328 240 101 110
0.05762505158782005 -0.01764056831598282 0.14499999582767487 244 105 114
0.05796600505709648 -0.01764056831598282 0.14499999582767487 255 109 116
0.057904839515686035 -0.0175189096480608 0.14399999380111694 249 102 109
0.05783897265791893 -0.01739725098013878 0.14300000667572021 240 85 91
0.0581752210855484 -0.01739725098013878 0.14300000667572021 236 81 87
0.05851146951317787 -0.01739725098013878 0.14300000667572021 250 88 96
0.05918397009372711 -0.01739725098013878 0.14300000667572021 250 80 91
0.05952021852135658 -0.01739725098013878 0.14300000667572021 249 79 90
0.05985646694898605 -0.01739725098013878 0.14300000667572021 248 78 91
0.060865215957164764 -0.01739725098013878 0.14300000667572021 240 71 79
0.061201464384794235 -0.01739725098013878 0.14300000667572021 240 66 60
0.061537716537714005 -0.01739725098013878 0.14300000667572021 234 60 54
0.061873964965343475 -0.01739725098013878 0.14300000667572021 223 49 45
0.062210213392972946 -0.01739725098013878 0.14300000667572021 237 63 59
0.06254646182060242 -0.01739725098013878 0.14300000667572021 249 88 93
0.06288271397352219 -0.01739725098013878 0.14300000667572021 255 112 117
0.06321895867586136 -0.01739725098013878 0.14300000667572021 255 121 136
0.06311076879501343 -0.01727559231221676 0.1420000046491623 255 115 130
0.06344466656446457 -0.01727559231221676 0.1420000046491623 255 123 135
0.06377856433391571 -0.01727559231221676 0.1420000046491623 255 123 135
0.06366096436977386 -0.01715393178164959 0.14100000262260437 250 118 134
0.06399251520633698 -0.01715393178164959 0.14100000262260437 241 109 125
0.06432405859231949 -0.01715393178164959 0.14100000262260437 225 102 110
0.0646556094288826 -0.01715393178164959 0.14100000262260437 230 107 115
0.06485544890165329 -0.01703227311372757 0.14000000059604645 211 85 81
0.06471903622150421 -0.01691061444580555 0.13899999856948853 203 83 74
0.06504587829113007 -0.01691061444580555 0.13899999856948853 207 87 78
0.0649024173617363 -0.01678895577788353 0.1379999965429306 201 90 83
0.06522691249847412 -0.01678895577788353 0.1379999965429306 204 93 86
0.06782285124063492 -0.01678895577788353 0.1379999965429306 218 126 122
0.06814733892679214 -0.01678895577788353 0.1379999965429306 248 160 161
0.06847183406352997 -0.01678895577788353 0.1379999965429306 255 176 177
0.06879632920026779 -0.01678895577788353 0.1379999965429306 255 177 181
0.06912081688642502 -0.01678895577788353 0.1379999965429306 255 176 180
0.06894208490848541 -0.01666729710996151 0.13699999451637268 253 175 184
0.06926422566175461 -0.01666729710996151 0.13699999451637268 255 177 186
0.0695863664150238 -0.01666729710996151 0.13699999451637268 255 181 189
0.06939822435379028 -0.01654563657939434 0.13600000739097595 255 181 189
0.06971801817417145 -0.01654563657939434 0.13600000739097595 255 179 192
0.07003780454397202 -0.01654563657939434 0.13600000739097595 252 176 189
0.07035759091377258 -0.01654563657939434 0.13600000739097595 249 173 186
0.07067738473415375 -0.01654563657939434 0.13600000739097595 248 172 185
0.07099717110395432 -0.01654563657939434 0.13600000739097595 255 177 184
0.07079257071018219 -0.01642397791147232 0.13500000536441803 227 148 155
0.07111001014709473 -0.01642397791147232 0.13500000536441803 222 142 138
0.07142744958400726 -0.01642397791147232 0.13500000536441803 217 137 133
0.07333207875490189 -0.01642397791147232 0.13500000536441803 255 176 175
0.07364951819181442 -0.01642397791147232 0.13500000536441803 255 214 218
0.07341904938220978 -0.0163023192435503 0.1340000033378601 255 216 220
0.07373414188623428 -0.0163023192435503 0.1340000033378601 255 208 228
0.07404922693967819 -0.0163023192435503 0.1340000033378601 255 203 223
0.0743643119931221 -0.0163023192435503 0.1340000033378601 255 188 202
0.07412209361791611 -0.01618066057562828 0.13300000131130219 243 176 190
0.07443482428789139 -0.01618066057562828 0.13300000131130219 244 176 182
0.07474756240844727 -0.01618066057562828 0.13300000131130219 240 172 178
0.07506029307842255 -0.01618066057562828 0.13300000131130219 234 164 164
0.07537303119897842 -0.01618066057562828 0.13300000131130219 242 172 172
0.07511670142412186 -0.01605900004506111 0.13199999928474426 240 173 176
0.0754270851612091 -0.01605900004506111 0.13199999928474426 234 167 170
0.07573746889829636 -0.01605900004506111 0.13199999928474426 230 168 169
0.0760478526353836 -0.01605900004506111 0.13199999928474426 227 165 166
0.07635823637247086 -0.01605900004506111 0.13199999928474426 222 166 168
0.0766686201095581 -0.01605900004506111 0.13199999928474426 217 161 163
0.07697900384664536 -0.01605900004506111 0.13199999928474426 209 149 149
0.0772893875837326 -0.01605900004506111 0.13199999928474426 211 151 151
0.07759977132081985 -0.01605900004506111 0.13199999928474426 216 158 156
0.0779101550579071 -0.01605900004506111 0.13199999928474426 212 154 152
0.07822053879499435 -0.01605900004506111 0.13199999928474426 213 155 153
0.0785309225320816 -0.01605900004506111 0.13199999928474426 214 156 154
0.07884130626916885 -0.01605900004506111 0.13199999928474426 216 157 160
0.07855205982923508 -0.01593734137713909 0.13099999725818634 219 160 163
0.0788600891828537 -0.01593734137713909 0.13099999725818634 219 156 160
0.07916812598705292 -0.01593734137713909 0.13099999725818634 222 159 163
0.07947615534067154 -0.01593734137713909 0.13099999725818634 213 147 152
0.08162060379981995 -0.01581568270921707 0.12999999523162842 206 151 146
0.0546836294233799 -0.018015462905168533 0.1509999930858612 255 138 138
0.0550386905670166 -0.018015462905168533 0.1509999930858612 251 133 133
0.055393751710653305 -0.018015462905168533 0.1509999930858612 249 131 131
0.05574881285429001 -0.018015462905168533 0.1509999930858612 251 133 133
0.056103870272636414 -0.018015462905168533 0.1509999930858612 255 137 138
0.05608503147959709 -0.017896154895424843 0.15000000596046448 255 139 140
0.056437741965055466 -0.017896154895424843 0.15000000596046448 251 130 136
0.05679044872522354 -0.017896154895424843 0.15000000596046448 255 134 140
0.057143159210681915 -0.017896154895424843 0.15000000596046448 255 137 147
0.05749586969614029 -0.017896154895424843 0.15000000596046448 244 121 131
0.057462919503450394 -0.017776846885681152 0.14900000393390656 255 124 137
0.05742526799440384 -0.01765754073858261 0.14800000190734863 251 120 133
0.057382915169000626 -0.01753823272883892 0.1469999998807907 255 115 127
0.05733586102724075 -0.01741892471909523 0.1459999978542328 250 110 122
0.05728410184383392 -0.01729961670935154 0.14499999582767487 245 97 107
0.05762505158782005 -0.01729961670935154 0.14499999582767487 253 105 115
0.05796600505709648 -0.01729961670935154 0.14499999582767487 248 94 97
0.057904839515686035 -0.01718030869960785 0.14399999380111694 247 93 96
0.058243442326784134 -0.01718030869960785 0.14399999380111694 251 93 95
0.058582041412591934 -0.01718030869960785 0.14399999380111694 247 89 91
0.058920640498399734 -0.01718030869960785 0.14399999380111694 255 87 93
0.05925924330949783 -0.01718030869960785 0.14399999380111694 249 79 85
0.059597842395305634 -0.01718030869960785 0.14399999380111694 234 56 65
0.05952021852135658 -0.01706100068986416 0.14300000667572021 239 61 70
0.05985646694898605 -0.01706100068986416 0.14300000667572021 255 86 94
0.06061364710330963 -0.01718030869960785 0.14399999380111694 238 68 76
0.06095224618911743 -0.01718030869960785 0.14399999380111694 228 63 63
0.06129084900021553 -0.01718030869960785 0.14399999380111694 244 79 79
0.06162944808602333 -0.01718030869960785 0.14399999380111694 235 69 58
0.06196804717183113 -0.01718030869960785 0.14399999380111694 222 56 45
0.06230664998292923 -0.01718030869960785 0.14399999380111694 216 52 45
0.06264524906873703 -0.01718030869960785 0.14399999380111694 251 87 80
0.06254646182060242 -0.01706100068986416 0.14300000667572021 255 114 118
0.06288271397352219 -0.01706100068986416 0.14300000667572021 255 115 119
0.06321895867586136 -0.01706100068986416 0.14300000667572021 255 128 140
0.06355521082878113 -0.01706100068986416 0.14300000667572021 255 128 140
0.06344466656446457 -0.016941694542765617 0.1420000046491623 255 129 141
0.06377856433391571 -0.016941694542765617 0.1420000046491623 255 128 140
0.06366096436977386 -0.016822386533021927 0.14100000262260437 255 133 148
0.06399251520633698 -0.016822386533021927 0.14100000262260437 252 130 145
0.06432405859231949 -0.016822386533021927 0.14100000262260437 248 128 142
0.06419705599546432 -0.016703078523278236 0.14000000059604645 247 127 141
0.06452625244855881 -0.016703078523278236 0.14000000059604645 253 131 134
0.06485544890165329 -0.016703078523278236 0.14000000059604645 237 115 118
0.06471903622150421 -0.016583770513534546 0.13899999856948853 221 102 100
0.06504587829113007 -0.016583770513534546 0.13899999856948853 212 93 91
0.06569956988096237 -0.016583770513534546 0.13899999856948853 203 97 95
0.06782285124063492 -0.016464462503790855 0.1379999965429306 250 162 154
0.06814733892679214 -0.016464462503790855 0.1379999965429306 250 171 174
0.06847183406352997 -0.016464462503790855 0.1379999965429306 255 182 185
0.06879632920026779 -0.016464462503790855 0.1379999965429306 255 188 196
0.06912081688642502 -0.016464462503790855 0.1379999965429306 255 188 196
0.06894208490848541 -0.016345154494047165 0.13699999451637268 252 188 201
0.06926422566175461 -0.016345154494047165 0.13699999451637268 254 190 203
0.0695863664150238 -0.016345154494047165 0.13699999451637268 251 188 203
0.069908507168293 -0.016345154494047165 0.13699999451637268 253 190 205
0.06971801817417145 -0.016225848346948624 0.13600000739097595 255 193 210
0.07003780454397202 -0.016225848346948624 0.13600000739097595 255 196 213
0.07035759091377258 -0.016225848346948624 0.13600000739097595 254 191 208
0.07067738473415375 -0.016225848346948624 0.13600000739097595 251 188 205
0.07099717110395432 -0.016225848346948624 0.13600000739097595 255 190 198
0.07079257071018219 -0.016106540337204933 0.13500000536441803 246 178 186
0.07111001014709473 -0.016106540337204933 0.13500000536441803 222 150 146
0.07142744958400726 -0.016106540337204933 0.13500000536441803 218 146 142
0.0717448890209198 -0.016106540337204933 0.13500000536441803 209 132 127
0.07333207875490189 -0.016106540337204933 0.13500000536441803 255 183 182
0.07364951819181442 -0.016106540337204933 0.13500000536441803 255 229 229
0.07341904938220978 -0.015987232327461243 0.1340000033378601 255 229 229
0.07373414188623428 -0.015987232327461243 0.1340000033378601 255 215 234
0.07404922693967819 -0.015987232327461243 0.1340000033378601 241 191 210
0.0743643119931221 -0.015987232327461243 0.1340000033378601 247 188 208
0.07412209361791611 -0.015867924317717552 0.13300000131130219 253 194 214
0.07443482428789139 -0.015867924317717552 0.13300000131130219 240 177 183
0.07474756240844727 -0.015867924317717552 0.13300000131130219 238 175 181
0.07506029307842255 -0.015867924317717552 0.13300000131130219 234 172 173
0.0748063176870346 -0.01574861630797386 0.13199999928474426 239 177 178
0.07511670142412186 -0.01574861630797386 0.13199999928474426 245 179 184
0.0754270851612091 -0.01574861630797386 0.13199999928474426 241 175 180
0.07573746889829636 -0.01574861630797386 0.13199999928474426 230 168 169
0.0760478526353836 -0.01574861630797386 0.13199999928474426 233 171 172
0.07635823637247086 -0.01574861630797386 0.13199999928474426 231 171 171
0.0766686201095581 -0.01574861630797386 0.13199999928474426 217 157 157
0.07697900384664536 -0.01574861630797386 0.13199999928474426 211 151 149
0.0772893875837326 -0.01574861630797386 0.13199999928474426 211 151 149
0.07759977132081985 -0.01574861630797386 0.13199999928474426 217 157 153
