0.06791260093450546 -0.015275475569069386 0.15199999511241913 242 193 204
0.0682700127363205 -0.015275475569069386 0.15199999511241913 241 192 203
0.06862742453813553 -0.015275475569069386 0.15199999511241913 244 192 197
0.06898483633995056 -0.015275475569069386 0.15199999511241913 253 201 206
0.0693422481417656 -0.015275475569069386 0.15199999511241913 255 201 207
0.06969965994358063 -0.015275475569069386 0.15199999511241913 255 200 206
0.07005707174539566 -0.015275475569069386 0.15199999511241913 255 204 213
0.0704144835472107 -0.015275475569069386 0.15199999511241913 255 204 213
0.07077189534902573 -0.015275475569069386 0.15199999511241913 250 195 220
0.07112930715084076 -0.015275475569069386 0.15199999511241913 233 178 203
0.07148671895265579 -0.015275475569069386 0.15199999511241913 211 153 181
0.07184413075447083 -0.015275475569069386 0.15199999511241913 195 137 165
0.07220154255628586 -0.015275475569069386 0.15199999511241913 192 126 131
0.07255895435810089 -0.015275475569069386 0.15199999511241913 184 118 123
0.07291636615991592 -0.015275475569069386 0.15199999511241913 222 149 150
0.07327377796173096 -0.015275475569069386 0.15199999511241913 255 189 190
0.07363118976354599 -0.015275475569069386 0.15199999511241913 255 196 201
0.0735018402338028 -0.015174979344010353 0.1509999930858612 255 194 199
0.0738568976521492 -0.015174979344010353 0.1509999930858612 237 173 184
0.0742119550704956 -0.015174979344010353 0.1509999930858612 224 160 171
0.07456701993942261 -0.015174979344010353 0.1509999930858612 206 142 151
0.07492207735776901 -0.015174979344010353 0.1509999930858612 191 127 136
0.07527714222669601 -0.015174979344010353 0.1509999930858612 187 126 129
0.07563219964504242 -0.015174979344010353 0.1509999930858612 200 139 142
0.07598725706338882 -0.015174979344010353 0.1509999930858612 199 143 145
0.07634232193231583 -0.015174979344010353 0.1509999930858612 204 148 150
0.07669737935066223 -0.015174979344010353 0.1509999930858612 207 153 154
0.07705244421958923 -0.015174979344010353 0.1509999930858612 205 151 152
0.07740750163793564 -0.015174979344010353 0.1509999930858612 182 132 138
0.07776255905628204 -0.015174979344010353 0.1509999930858612 190 140 146
0.07811762392520905 -0.015174979344010353 0.1509999930858612 184 139 146
0.07899236679077148 -0.015275475569069386 0.15199999511241913 178 133 140
0.07934977859258652 -0.015275475569069386 0.15199999511241913 176 133 139
0.07970719039440155 -0.015275475569069386 0.15199999511241913 176 133 139
0.0805913433432579 -0.015375971794128418 0.15299999713897705 173 130 134
0.08095110952854156 -0.015375971794128418 0.15299999713897705 177 134 138
0.08131087571382523 -0.015375971794128418 0.15299999713897705 175 128 129
0.08167063444852829 -0.015375971794128418 0.15299999713897705 169 122 123
0.08203040063381195 -0.015375971794128418 0.15299999713897705 169 118 120
0.08239016681909561 -0.015375971794128418 0.15299999713897705 169 118 120
0.08274992555379868 -0.015375971794128418 0.15299999713897705 179 130 131
0.08310969173908234 -0.015375971794128418 0.15299999713897705 182 133 134
0.0834694504737854 -0.015375971794128418 0.15299999713897705 177 135 134
0.08382921665906906 -0.015375971794128418 0.15299999713897705 170 128 127
0.08418898284435272 -0.015375971794128418 0.15299999713897705 167 129 129
0.08454874157905579 -0.015375971794128418 0.15299999713897705 158 120 120
0.08490850776433945 -0.015375971794128418 0.15299999713897705 152 114 116
0.08582557737827301 -0.015476468950510025 0.15399999916553497 158 120 122
0.0861876904964447 -0.015476468950510025 0.15399999916553497 159 121 123
0.08654981106519699 -0.015476468950510025 0.15399999916553497 156 118 120
0.08691192418336868 -0.015476468950510025 0.15399999916553497 149 109 112
0.08727403730154037 -0.015476468950510025 0.15399999916553497 151 111 114
0.08820521831512451 -0.015576965175569057 0.1550000011920929 158 115 119
0.08856968581676483 -0.015576965175569057 0.1550000011920929 154 111 115
0.08893415331840515 -0.015576965175569057 0.1550000011920929 161 119 118
0.08929861336946487 -0.015576965175569057 0.1550000011920929 173 131 130
0.0896630808711052 -0.015576965175569057 0.1550000011920929 174 139 134
0.09002754837274551 -0.015576965175569057 0.1550000011920929 172 137 132
0.09039201587438583 -0.015576965175569057 0.1550000011920929 162 129 128
0.09075648337602615 -0.015576965175569057 0.1550000011920929 174 141 140
0.09112094342708588 -0.015576965175569057 0.1550000011920929 160 127 140
0.0914854109287262 -0.015576965175569057 0.1550000011920929 153 120 133
0.09184987843036652 -0.015576965175569057 0.1550000011920929 152 118 136
0.09221434593200684 -0.015576965175569057 0.1550000011920929 153 119 137
0.09257881343364716 -0.015576965175569057 0.1550000011920929 166 121 136
0.0935429111123085 -0.01567746140062809 0.15600000321865082 144 99 114
0.09390972554683685 -0.01567746140062809 0.15600000321865082 155 98 107
0.0942765474319458 -0.01567746140062809 0.15600000321865082 156 99 108
0.09525005519390106 -0.015777958557009697 0.15700000524520874 163 97 104
0.09561922401189804 -0.015777958557009697 0.15700000524520874 147 81 88
0.09659978002309799 -0.015878455713391304 0.15800000727176666 152 78 83
0.0975850448012352 -0.015978951007127762 0.1589999943971634 139 65 70
0.055431801825761795 -0.016292095184326172 0.16599999368190765 255 186 177
0.055822134017944336 -0.016292095184326172 0.16599999368190765 255 219 210
0.05587383359670639 -0.016193950548768044 0.16500000655651093 255 247 236
0.0562618151307106 -0.016193950548768044 0.16500000655651093 255 250 239
0.05664979666471481 -0.016193950548768044 0.16500000655651093 255 254 247
0.05669208988547325 -0.016095805913209915 0.164000004529953 255 254 247
0.05707772076129913 -0.016095805913209915 0.164000004529953 255 253 247
0.05711296200752258 -0.015997661277651787 0.16300000250339508 255 253 247
0.05749623849987984 -0.015997661277651787 0.16300000250339508 255 226 229
0.0575244277715683 -0.01589951477944851 0.16200000047683716 236 196 199
0.05790535360574722 -0.01589951477944851 0.16200000047683716 255 180 184
0.05828627943992615 -0.01589951477944851 0.16200000047683716 244 167 171
0.059819359332323074 -0.01580137014389038 0.16099999845027924 233 183 180
0.06019793450832367 -0.01580137014389038 0.16099999845027924 255 240 237
0.060576509684324265 -0.01580137014389038 0.16099999845027924 255 255 249
0.06057647988200188 -0.015703225508332253 0.1599999964237213 255 255 249
0.06095270439982414 -0.015703225508332253 0.1599999964237213 254 255 249
0.06132892519235611 -0.015703225508332253 0.1599999964237213 254 255 249
0.061319492757320404 -0.01560507994145155 0.1589999943971634 254 255 249
0.06169336289167404 -0.01560507994145155 0.1589999943971634 254 255 249
0.06206723675131798 -0.01560507994145155 0.1589999943971634 254 255 249
0.06204839423298836 -0.015506934374570847 0.15800000727176666 254 255 249
0.062419917434453964 -0.015506934374570847 0.15800000727176666 254 255 249
0.06279143691062927 -0.015506934374570847 0.15800000727176666 254 255 249
0.06316296011209488 -0.015506934374570847 0.15800000727176666 255 255 249
0.06313236057758331 -0.015408789739012718 0.15700000524520874 255 255 249
0.06350152939558029 -0.015408789739012718 0.15700000524520874 255 237 229
0.06387069821357727 -0.015408789739012718 0.15700000524520874 245 223 215
0.06423986703157425 -0.015408789739012718 0.15700000524520874 246 200 182
0.06460903584957123 -0.015408789739012718 0.15700000524520874 232 186 168
0.06456433236598969 -0.015310644172132015 0.15600000321865082 255 222 200
0.06493114680051804 -0.015310644172132015 0.15600000321865082 255 247 225
0.06529796868562698 -0.015310644172132015 0.15600000321865082 255 255 237
0.06524385511875153 -0.015212499536573887 0.1550000011920929 255 255 237
0.06560832262039185 -0.015212499536573887 0.1550000011920929 254 254 248
0.06597279012203217 -0.015212499536573887 0.1550000011920929 243 243 237
0.06633725017309189 -0.015212499536573887 0.1550000011920929 244 239 237
0.06670171767473221 -0.015212499536573887 0.1550000011920929 240 235 233
0.06663350015878677 -0.015114353969693184 0.15399999916553497 244 236 235
0.06699561327695847 -0.015114353969693184 0.15399999916553497 255 247 246
0.06692034006118774 -0.015016208402812481 0.15299999713897705 255 251 254
0.0672801062464714 -0.015016208402812481 0.15299999713897705 255 250 253
0.06763986498117447 -0.015016208402812481 0.15299999713897705 246 225 232
0.06755518913269043 -0.014918063767254353 0.15199999511241913 255 235 242
0.06791260093450546 -0.014918063767254353 0.15199999511241913 255 217 232
0.0682700127363205 -0.014918063767254353 0.15199999511241913 247 202 217
0.06862742453813553 -0.014918063767254353 0.15199999511241913 249 194 204
0.06898483633995056 -0.014918063767254353 0.15199999511241913 246 191 201
0.0693422481417656 -0.014918063767254353 0.15199999511241913 252 200 207
0.06969965994358063 -0.014918063767254353 0.15199999511241913 253 201 208
0.07005707174539566 -0.014918063767254353 0.15199999511241913 255 205 213
0.0704144835472107 -0.014918063767254353 0.15199999511241913 255 206 214
0.07077189534902573 -0.014918063767254353 0.15199999511241913 255 207 226
0.07066135108470917 -0.01481991820037365 0.1509999930858612 244 192 211
0.07101641595363617 -0.01481991820037365 0.1509999930858612 216 162 184
0.07184413075447083 -0.014918063767254353 0.15199999511241913 186 132 154
0.07172653079032898 -0.01481991820037365 0.1509999930858612 189 128 133
0.07208159565925598 -0.01481991820037365 0.1509999930858612 180 119 124
0.07243665307760239 -0.01481991820037365 0.1509999930858612 211 141 141
0.07279171794652939 -0.01481991820037365 0.1509999930858612 251 181 181
0.0731467753648758 -0.01481991820037365 0.1509999930858612 255 204 210
0.0735018402338028 -0.01481991820037365 0.1509999930858612 255 199 205
0.0738568976521492 -0.01481991820037365 0.1509999930858612 242 180 190
0.0742119550704956 -0.01481991820037365 0.1509999930858612 224 162 172
0.07456701993942261 -0.01481991820037365 0.1509999930858612 209 147 155
0.07492207735776901 -0.01481991820037365 0.1509999930858612 207 145 153
0.07527714222669601 -0.01481991820037365 0.1509999930858612 201 142 147
0.07563219964504242 -0.01481991820037365 0.1509999930858612 202 143 148
0.07598725706338882 -0.01481991820037365 0.1509999930858612 203 149 150
0.07634232193231583 -0.01481991820037365 0.1509999930858612 203 149 150
0.07669737935066223 -0.01481991820037365 0.1509999930858612 201 150 150
0.07705244421958923 -0.01481991820037365 0.1509999930858612 203 152 152
0.07740750163793564 -0.01481991820037365 0.1509999930858612 193 148 151
0.07776255905628204 -0.01481991820037365 0.1509999930858612 185 140 143
0.07811762392520905 -0.01481991820037365 0.1509999930858612 181 138 142
0.07899236679077148 -0.014918063767254353 0.15199999511241913 175 132 136
0.07934977859258652 -0.014918063767254353 0.15199999511241913 171 131 136
0.07970719039440155 -0.014918063767254353 0.15199999511241913 174 134 139
0.0805913433432579 -0.015016208402812481 0.15299999713897705 170 130 133
0.08095110952854156 -0.015016208402812481 0.15299999713897705 178 138 141
0.08131087571382523 -0.015016208402812481 0.15299999713897705 180 137 141
0.08167063444852829 -0.015016208402812481 0.15299999713897705 153 110 114
0.08203040063381195 -0.015016208402812481 0.15299999713897705 161 111 119
0.08239016681909561 -0.015016208402812481 0.15299999713897705 166 116 124
0.08274992555379868 -0.015016208402812481 0.15299999713897705 170 125 130
0.08256649225950241 -0.014918063767254353 0.15199999511241913 167 122 127
0.08292390406131744 -0.014918063767254353 0.15199999511241913 159 121 123
0.08328131586313248 -0.014918063767254353 0.15199999511241913 163 125 127
0.08418898284435272 -0.015016208402812481 0.15299999713897705 171 135 137
0.08454874157905579 -0.015016208402812481 0.15299999713897705 172 136 138
0.08490850776433945 -0.015016208402812481 0.15299999713897705 170 134 136
0.08526826649904251 -0.015016208402812481 0.15299999713897705 164 128 130
0.0861876904964447 -0.015114353969693184 0.15399999916553497 153 115 117
0.08654981106519699 -0.015114353969693184 0.15399999916553497 162 124 126
0.08691192418336868 -0.015114353969693184 0.15399999916553497 154 114 117
0.08727403730154037 -0.015114353969693184 0.15399999916553497 156 116 119
0.08820521831512451 -0.015212499536573887 0.1550000011920929 156 116 121
0.08856968581676483 -0.015212499536573887 0.1550000011920929 152 112 117
0.08893415331840515 -0.015212499536573887 0.1550000011920929 152 112 115
0.08929861336946487 -0.015212499536573887 0.1550000011920929 166 126 129
0.0896630808711052 -0.015212499536573887 0.1550000011920929 172 140 136
0.09002754837274551 -0.015212499536573887 0.1550000011920929 162 130 126
0.09039201587438583 -0.015212499536573887 0.1550000011920929 152 124 125
0.09075648337602615 -0.015212499536573887 0.1550000011920929 160 132 133
0.09112094342708588 -0.015212499536573887 0.1550000011920929 150 120 134
0.0914854109287262 -0.015212499536573887 0.1550000011920929 153 123 137
0.09184987843036652 -0.015212499536573887 0.1550000011920929 152 121 140
0.09221434593200684 -0.015212499536573887 0.1550000011920929 148 117 136
0.09257881343364716 -0.015212499536573887 0.1550000011920929 164 122 140
0.0935429111123085 -0.015310644172132015 0.15600000321865082 153 111 129
0.09390972554683685 -0.015310644172132015 0.15600000321865082 157 102 112
0.0942765474319458 -0.015310644172132015 0.15600000321865082 159 104 114
0.09525005519390106 -0.015408789739012718 0.15700000524520874 166 103 109
0.09561922401189804 -0.015408789739012718 0.15700000524520874 162 99 105
0.09659978002309799 -0.015506934374570847 0.15800000727176666 161 86 94
0.0975850448012352 -0.01560507994145155 0.1589999943971634 124 49 57
0.055431801825761795 -0.01590176485478878 0.16599999368190765 255 203 191
0.055822134017944336 -0.01590176485478878 0.16599999368190765 255 239 227
0.05587383359670639 -0.01580597087740898 0.16500000655651093 255 254 241
0.0562618151307106 -0.01580597087740898 0.16500000655651093 255 254 241
0.05664979666471481 -0.01580597087740898 0.16500000655651093 255 255 249
0.05669208988547325 -0.015710176900029182 0.164000004529953 255 255 249
0.05707772076129913 -0.015710176900029182 0.164000004529953 255 255 249
0.05711296200752258 -0.015614382922649384 0.16300000250339508 255 255 249
0.05749623849987984 -0.015614382922649384 0.16300000250339508 255 247 250
0.05787951871752739 -0.015614382922649384 0.16300000250339508 235 215 218
0.05790535360574722 -0.015518588945269585 0.16200000047683716 244 185 188
0.05828627943992615 -0.015518588945269585 0.16200000047683716 237 178 181
0.05866720527410507 -0.015518588945269585 0.16200000047683716 255 179 178
0.059819359332323074 -0.01542279589921236 0.16099999845027924 245 204 198
0.06019793450832367 -0.01542279589921236 0.16099999845027924 255 243 237
0.06020025908946991 -0.015327001921832561 0.1599999964237213 255 255 247
0.06057647988200188 -0.015327001921832561 0.1599999964237213 255 255 247
0.06095270439982414 -0.015327001921832561 0.1599999964237213 254 255 249
0.06132892519235611 -0.015327001921832561 0.1599999964237213 254 255 249
0.061319492757320404 -0.015231207944452763 0.1589999943971634 254 255 249
0.06169336289167404 -0.015231207944452763 0.1589999943971634 254 255 249
0.06206723675131798 -0.015231207944452763 0.1589999943971634 254 255 249
0.06204839423298836 -0.015135413967072964 0.15800000727176666 254 255 249
0.062419917434453964 -0.015135413967072964 0.15800000727176666 254 255 249
0.06279143691062927 -0.015135413967072964 0.15800000727176666 254 255 249
0.06316296011209488 -0.015135413967072964 0.15800000727176666 254 255 249
0.06313236057758331 -0.01503962092101574 0.15700000524520874 253 254 248
0.06350152939558029 -0.01503962092101574 0.15700000524520874 255 245 238
0.06387069821357727 -0.01503962092101574 0.15700000524520874 251 235 228
0.06423986703157425 -0.01503962092101574 0.15700000524520874 230 193 177
0.06460903584957123 -0.01503962092101574 0.15700000524520874 230 193 177
0.06456433236598969 -0.01494382694363594 0.15600000321865082 252 223 202
0.06493114680051804 -0.01494382694363594 0.15600000321865082 255 248 227
0.06529796868562698 -0.01494382694363594 0.15600000321865082 255 255 239
0.06524385511875153 -0.014848032966256142 0.1550000011920929 255 255 239
0.06560832262039185 -0.014848032966256142 0.1550000011920929 254 255 249
0.06597279012203217 -0.014848032966256142 0.1550000011920929 250 251 245
0.06633725017309189 -0.014848032966256142 0.1550000011920929 240 241 235
0.06670171767473221 -0.014848032966256142 0.1550000011920929 242 243 237
0.06663350015878677 -0.014752238988876343 0.15399999916553497 255 255 249
0.06699561327695847 -0.014752238988876343 0.15399999916553497 255 255 249
0.06735772639513016 -0.014752238988876343 0.15399999916553497 255 255 251
0.0672801062464714 -0.014656445942819118 0.15299999713897705 252 252 248
0.06763986498117447 -0.014656445942819118 0.15299999713897705 252 239 243
0.06755518913269043 -0.01456065196543932 0.15199999511241913 255 242 246
0.06791260093450546 -0.01456065196543932 0.15199999511241913 255 224 241
0.0682700127363205 -0.01456065196543932 0.15199999511241913 241 201 218
0.06862742453813553 -0.01456065196543932 0.15199999511241913 244 193 206
0.06898483633995056 -0.01456065196543932 0.15199999511241913 246 195 208
0.0693422481417656 -0.01456065196543932 0.15199999511241913 250 199 210
0.06969965994358063 -0.01456065196543932 0.15199999511241913 255 208 219
0.06959617137908936 -0.01446485798805952 0.1509999930858612 255 211 221
0.06995122879743576 -0.01446485798805952 0.1509999930858612 255 214 224
0.07030629366636276 -0.01446485798805952 0.1509999930858612 255 213 229
0.07066135108470917 -0.01446485798805952 0.1509999930858612 239 192 208
0.07101641595363617 -0.01446485798805952 0.1509999930858612 217 165 184
0.07137147337198257 -0.01446485798805952 0.1509999930858612 202 150 169
0.07172653079032898 -0.01446485798805952 0.1509999930858612 193 132 137
0.07208159565925598 -0.01446485798805952 0.1509999930858612 179 118 123
0.07243665307760239 -0.01446485798805952 0.1509999930858612 201 134 135
0.07279171794652939 -0.01446485798805952 0.1509999930858612 255 188 189
0.0731467753648758 -0.01446485798805952 0.1509999930858612 255 205 209
0.0735018402338028 -0.01446485798805952 0.1509999930858612 255 206 210
0.0738568976521492 -0.01446485798805952 0.1509999930858612 239 182 193
0.0742119550704956 -0.01446485798805952 0.1509999930858612 219 162 173
0.07456701993942261 -0.01446485798805952 0.1509999930858612 204 142 150
0.07492207735776901 -0.01446485798805952 0.1509999930858612 207 145 153
0.07527714222669601 -0.01446485798805952 0.1509999930858612 203 147 151
0.07563219964504242 -0.01446485798805952 0.1509999930858612 199 143 147
0.07598725706338882 -0.01446485798805952 0.1509999930858612 200 151 152
0.07583674043416977 -0.014369064010679722 0.15000000596046448 202 153 154
0.07618945091962814 -0.014369064010679722 0.15000000596046448 198 156 155
0.07705244421958923 -0.01446485798805952 0.1509999930858612 198 156 155
0.07740750163793564 -0.01446485798805952 0.1509999930858612 194 151 153
0.07776255905628204 -0.01446485798805952 0.1509999930858612 188 145 147
0.07811762392520905 -0.01446485798805952 0.1509999930858612 178 138 141
0.07899236679077148 -0.01456065196543932 0.15199999511241913 173 133 136
0.07934977859258652 -0.01456065196543932 0.15199999511241913 171 131 136
0.07970719039440155 -0.01456065196543932 0.15199999511241913 173 133 138
0.0805913433432579 -0.014656445942819118 0.15299999713897705 167 129 131
0.08095110952854156 -0.014656445942819118 0.15299999713897705 172 134 136
0.08131087571382523 -0.014656445942819118 0.15299999713897705 172 132 135
0.08167063444852829 -0.014656445942819118 0.15299999713897705 161 121 124
0.08203040063381195 -0.014656445942819118 0.15299999713897705 162 119 125
0.08239016681909561 -0.014656445942819118 0.15299999713897705 165 122 128
0.08274992555379868 -0.014656445942819118 0.15299999713897705 176 132 141
0.08256649225950241 -0.01456065196543932 0.15199999511241913 174 130 139
0.08292390406131744 -0.01456065196543932 0.15199999511241913 164 128 132
0.08328131586313248 -0.01456065196543932 0.15199999511241913 162 126 130
0.08418898284435272 -0.014656445942819118 0.15299999713897705 163 129 135
0.08454874157905579 -0.014656445942819118 0.15299999713897705 163 129 135
0.08490850776433945 -0.014656445942819118 0.15299999713897705 160 127 128
0.08526826649904251 -0.014656445942819118 0.15299999713897705 159 126 127
0.0861876904964447 -0.014752238988876343 0.15399999916553497 162 126 128
0.08654981106519699 -0.014752238988876343 0.15399999916553497 150 114 116
0.08691192418336868 -0.014752238988876343 0.15399999916553497 149 113 115
0.08727403730154037 -0.014752238988876343 0.15399999916553497 151 115 117
0.08820521831512451 -0.014848032966256142 0.1550000011920929 153 116 123
0.08856968581676483 -0.014848032966256142 0.1550000011920929 149 112 119
0.08893415331840515 -0.014848032966256142 0.1550000011920929 153 115 119
0.08929861336946487 -0.014848032966256142 0.1550000011920929 174 136 140
0.0896630808711052 -0.014848032966256142 0.1550000011920929 172 141 143
0.09002754837274551 -0.014848032966256142 0.1550000011920929 175 144 146
0.09039201587438583 -0.014848032966256142 0.1550000011920929 156 127 133
0.09075648337602615 -0.014848032966256142 0.1550000011920929 157 128 134
0.09112094342708588 -0.014848032966256142 0.1550000011920929 158 129 145
0.0914854109287262 -0.014848032966256142 0.1550000011920929 148 119 135
0.09184987843036652 -0.014848032966256142 0.1550000011920929 155 126 142
0.09221434593200684 -0.014848032966256142 0.1550000011920929 151 122 138
0.09257881343364716 -0.014848032966256142 0.1550000011920929 158 120 135
0.0935429111123085 -0.01494382694363594 0.15600000321865082 156 118 133
0.09390972554683685 -0.01494382694363594 0.15600000321865082 154 101 113
0.0942765474319458 -0.01494382694363594 0.15600000321865082 148 95 107
0.09525005519390106 -0.01503962092101574 0.15700000524520874 161 99 109
0.09561922401189804 -0.01503962092101574 0.15700000524520874 165 103 113
0.09659978002309799 -0.015135413967072964 0.15800000727176666 157 79 90
0.0975850448012352 -0.015231207944452763 0.1589999943971634 123 45 56
0.055431801825761795 -0.01551143266260624 0.16599999368190765 255 216 202
0.055822134017944336 -0.01551143266260624 0.16599999368190765 255 241 227
0.05587383359670639 -0.015417990274727345 0.16500000655651093 255 255 241
0.0562618151307106 -0.015417990274727345 0.16500000655651093 255 255 241
0.05664979666471481 -0.015417990274727345 0.16500000655651093 254 255 249
0.05669208988547325 -0.01532454788684845 0.164000004529953 254 255 249
0.05707772076129913 -0.01532454788684845 0.164000004529953 254 255 249
0.05711296200752258 -0.015231105498969555 0.16300000250339508 254 255 249
0.05749623849987984 -0.015231105498969555 0.16300000250339508 255 253 251
0.05787951871752739 -0.015231105498969555 0.16300000250339508 251 246 244
0.058262795209884644 -0.015231105498969555 0.16300000250339508 241 209 205
0.05828627943992615 -0.01513766311109066 0.16200000047683716 226 194 190
0.05866720527410507 -0.01513766311109066 0.16200000047683716 249 180 177
0.059048131108284 -0.01513766311109066 0.16200000047683716 239 170 167
0.05906221270561218 -0.015044220723211765 0.16099999845027924 245 173 169
0.05944078415632248 -0.015044220723211765 0.16099999845027924 243 171 167
0.059819359332323074 -0.015044220723211765 0.16099999845027924 255 228 220
0.06019793450832367 -0.015044220723211765 0.16099999845027924 255 245 237
0.06020025908946991 -0.014950779266655445 0.1599999964237213 255 255 245
0.06057647988200188 -0.014950779266655445 0.1599999964237213 255 255 245
0.06095270439982414 -0.014950779266655445 0.1599999964237213 254 255 249
0.06132892519235611 -0.014950779266655445 0.1599999964237213 254 255 249
0.061319492757320404 -0.01485733687877655 0.1589999943971634 254 255 249
0.06169336289167404 -0.01485733687877655 0.1589999943971634 254 255 249
0.06206723675131798 -0.01485733687877655 0.1589999943971634 254 255 249
0.06204839423298836 -0.014763894490897655 0.15800000727176666 254 255 249
0.062419917434453964 -0.014763894490897655 0.15800000727176666 254 255 249
0.06279143691062927 -0.014763894490897655 0.15800000727176666 254 255 249
0.06316296011209488 -0.014763894490897655 0.15800000727176666 254 255 249
0.06313236057758331 -0.01467045210301876 0.15700000524520874 254 255 249
0.06350152939558029 -0.01467045210301876 0.15700000524520874 255 252 247
0.06387069821357727 -0.01467045210301876 0.15700000524520874 239 230 225
0.06423986703157425 -0.01467045210301876 0.15700000524520874 234 203 190
0.06460903584957123 -0.01467045210301876 0.15700000524520874 236 205 192
0.06456433236598969 -0.014577009715139866 0.15600000321865082 247 224 203
0.06493114680051804 -0.014577009715139866 0.15600000321865082 255 250 229
0.06529796868562698 -0.014577009715139866 0.15600000321865082 255 255 239
0.06524385511875153 -0.014483567327260971 0.1550000011920929 255 255 239
0.06560832262039185 -0.014483567327260971 0.1550000011920929 254 255 249
0.06597279012203217 -0.014483567327260971 0.1550000011920929 254 255 249
0.06633725017309189 -0.014483567327260971 0.1550000011920929 253 254 248
0.06670171767473221 -0.014483567327260971 0.1550000011920929 254 255 249
0.06663350015878677 -0.014390124939382076 0.15399999916553497 254 255 249
0.06699561327695847 -0.014390124939382076 0.15399999916553497 254 255 249
0.06735772639513016 -0.014390124939382076 0.15399999916553497 254 255 249
0.0672801062464714 -0.014296682551503181 0.15299999713897705 254 255 249
0.06763986498117447 -0.014296682551503181 0.15299999713897705 255 252 250
0.06799963116645813 -0.014296682551503181 0.15299999713897705 244 239 237
0.06791260093450546 -0.014203240163624287 0.15199999511241913 253 214 234
0.0682700127363205 -0.014203240163624287 0.15199999511241913 241 202 222
0.06862742453813553 -0.014203240163624287 0.15199999511241913 241 190 214
0.06898483633995056 -0.014203240163624287 0.15199999511241913 243 192 216
0.06888604909181595 -0.014109797775745392 0.1509999930858612 238 193 208
0.06924111396074295 -0.014109797775745392 0.1509999930858612 247 202 217
0.06959617137908936 -0.014109797775745392 0.1509999930858612 255 222 232
0.06995122879743576 -0.014109797775745392 0.1509999930858612 255 219 229
0.07030629366636276 -0.014109797775745392 0.1509999930858612 255 215 232
0.07066135108470917 -0.014109797775745392 0.1509999930858612 227 182 199
0.07101641595363617 -0.014109797775745392 0.1509999930858612 204 157 175
0.07137147337198257 -0.014109797775745392 0.1509999930858612 203 156 174
0.07172653079032898 -0.014109797775745392 0.1509999930858612 195 135 143
0.07208159565925598 -0.014109797775745392 0.1509999930858612 177 117 125
0.07243665307760239 -0.014109797775745392 0.1509999930858612 191 124 125
0.07279171794652939 -0.014109797775745392 0.1509999930858612 246 179 180
0.0731467753648758 -0.014109797775745392 0.1509999930858612 255 208 211
0.0735018402338028 -0.014109797775745392 0.1509999930858612 255 207 210
0.0738568976521492 -0.014109797775745392 0.1509999930858612 255 202 215
0.0742119550704956 -0.014109797775745392 0.1509999930858612 230 174 187
0.07456701993942261 -0.014109797775745392 0.1509999930858612 223 163 171
0.07492207735776901 -0.014109797775745392 0.1509999930858612 210 150 158
0.07527714222669601 -0.014109797775745392 0.1509999930858612 200 141 144
0.07513132691383362 -0.014016355387866497 0.15000000596046448 196 137 140
0.0754840299487114 -0.014016355387866497 0.15000000596046448 196 152 150
0.07583674043416977 -0.014016355387866497 0.15000000596046448 198 154 152
0.07618945091962814 -0.014016355387866497 0.15000000596046448 198 163 160
0.07654216140508652 -0.014016355387866497 0.15000000596046448 199 164 161
0.07740750163793564 -0.014109797775745392 0.1509999930858612 184 146 150
0.07776255905628204 -0.014109797775745392 0.1509999930858612 174 136 140
0.07811762392520905 -0.014109797775745392 0.1509999930858612 172 132 137
0.07899236679077148 -0.014203240163624287 0.15199999511241913 174 134 139
0.07934977859258652 -0.014203240163624287 0.15199999511241913 171 133 137
0.07970719039440155 -0.014203240163624287 0.15199999511241913 176 138 142
0.0805913433432579 -0.014296682551503181 0.15299999713897705 179 141 145
0.08095110952854156 -0.014296682551503181 0.15299999713897705 162 124 128
0.08131087571382523 -0.014296682551503181 0.15299999713897705 169 131 135
0.08167063444852829 -0.014296682551503181 0.15299999713897705 162 124 128
0.08203040063381195 -0.014296682551503181 0.15299999713897705 142 104 108
0.08239016681909561 -0.014296682551503181 0.15299999713897705 155 117 121
0.08274992555379868 -0.014296682551503181 0.15299999713897705 178 137 145
0.08256649225950241 -0.014203240163624287 0.15199999511241913 170 129 137
0.08292390406131744 -0.014203240163624287 0.15199999511241913 165 132 135
0.08328131586313248 -0.014203240163624287 0.15199999511241913 166 133 136
0.08418898284435272 -0.014296682551503181 0.15299999713897705 161 129 134
0.08454874157905579 -0.014296682551503181 0.15299999713897705 161 129 134
0.08490850776433945 -0.014296682551503181 0.15299999713897705 161 129 134
0.08526826649904251 -0.014296682551503181 0.15299999713897705 153 121 126
0.0861876904964447 -0.014390124939382076 0.15399999916553497 158 127 129
0.08654981106519699 -0.014390124939382076 0.15399999916553497 152 121 123
0.08691192418336868 -0.014390124939382076 0.15399999916553497 160 129 131
0.08727403730154037 -0.014390124939382076 0.15399999916553497 148 117 119
0.08820521831512451 -0.014483567327260971 0.1550000011920929 149 116 119
0.08856968581676483 -0.014483567327260971 0.1550000011920929 149 116 119
0.08893415331840515 -0.014483567327260971 0.1550000011920929 157 119 123
0.08929861336946487 -0.014483567327260971 0.1550000011920929 173 135 139
0.0896630808711052 -0.014483567327260971 0.1550000011920929 168 136 141
0.09002754837274551 -0.014483567327260971 0.1550000011920929 168 136 141
0.09039201587438583 -0.014483567327260971 0.1550000011920929 159 129 141
0.09075648337602615 -0.014483567327260971 0.1550000011920929 153 123 135
0.09112094342708588 -0.014483567327260971 0.1550000011920929 150 124 139
0.0914854109287262 -0.014483567327260971 0.1550000011920929 148 122 137
0.09184987843036652 -0.014483567327260971 0.1550000011920929 154 129 141
0.09221434593200684 -0.014483567327260971 0.1550000011920929 154 129 141
0.09317609667778015 -0.014577009715139866 0.15600000321865082 153 118 130
0.0935429111123085 -0.014577009715139866 0.15600000321865082 149 114 126
0.09390972554683685 -0.014577009715139866 0.15600000321865082 155 102 114
0.0942765474319458 -0.014577009715139866 0.15600000321865082 158 105 117
0.09464336186647415 -0.014577009715139866 0.15600000321865082 160 100 110
0.09561922401189804 -0.01467045210301876 0.15700000524520874 160 100 110
0.055431801825761795 -0.015121101401746273 0.16599999368190765 255 232 219
0.055822134017944336 -0.015121101401746273 0.16599999368190765 255 242 229
0.05587383359670639 -0.015030010603368282 0.16500000655651093 255 255 241
0.0562618151307106 -0.015030010603368282 0.16500000655651093 255 255 241
0.05664979666471481 -0.015030010603368282 0.16500000655651093 254 255 249
0.05669208988547325 -0.014938919804990292 0.164000004529953 254 255 249
0.05707772076129913 -0.014938919804990292 0.164000004529953 254 255 249
0.05711296200752258 -0.014847829006612301 0.16300000250339508 254 255 249
0.05749623849987984 -0.014847829006612301 0.16300000250339508 255 255 249
0.05787951871752739 -0.014847829006612301 0.16300000250339508 255 255 249
0.058262795209884644 -0.014847829006612301 0.16300000250339508 255 247 239
0.05828627943992615 -0.014756737276911736 0.16200000047683716 253 233 225
0.05866720527410507 -0.014756737276911736 0.16200000047683716 243 185 183
0.059048131108284 -0.014756737276911736 0.16200000047683716 240 182 180
0.05906221270561218 -0.014665646478533745 0.16099999845027924 250 190 186
0.05944078415632248 -0.014665646478533745 0.16099999845027924 247 187 183
0.059819359332323074 -0.014665646478533745 0.16099999845027924 255 244 234
0.06019793450832367 -0.014665646478533745 0.16099999845027924 255 247 237
0.06020025908946991 -0.014574555680155754 0.1599999964237213 255 255 245
0.06057647988200188 -0.014574555680155754 0.1599999964237213 255 255 245
0.06095270439982414 -0.014574555680155754 0.1599999964237213 254 255 249
0.06132892519235611 -0.014574555680155754 0.1599999964237213 254 255 249
0.061319492757320404 -0.014483464881777763 0.1589999943971634 254 255 249
0.06169336289167404 -0.014483464881777763 0.1589999943971634 254 255 249
0.06206723675131798 -0.014483464881777763 0.1589999943971634 254 255 249
0.06204839423298836 -0.014392374083399773 0.15800000727176666 254 255 249
0.062419917434453964 -0.014392374083399773 0.15800000727176666 254 255 249
0.06279143691062927 -0.014392374083399773 0.15800000727176666 254 255 249
0.06316296011209488 -0.014392374083399773 0.15800000727176666 254 255 249
0.06313236057758331 -0.014301283285021782 0.15700000524520874 254 255 249
0.06350152939558029 -0.014301283285021782 0.15700000524520874 255 252 249
0.06387069821357727 -0.014301283285021782 0.15700000524520874 248 240 237
0.06423986703157425 -0.014301283285021782 0.15700000524520874 251 227 215
0.06419751048088074 -0.014210191555321217 0.15600000321865082 242 218 206
0.06456433236598969 -0.014210191555321217 0.15600000321865082 243 222 205
0.06493114680051804 -0.014210191555321217 0.15600000321865082 255 250 233
0.06529796868562698 -0.014210191555321217 0.15600000321865082 255 255 241
0.06524385511875153 -0.014119100756943226 0.1550000011920929 255 255 241
0.06560832262039185 -0.014119100756943226 0.1550000011920929 254 255 247
0.06597279012203217 -0.014119100756943226 0.1550000011920929 254 255 247
0.06633725017309189 -0.014119100756943226 0.1550000011920929 252 253 247
0.06670171767473221 -0.014119100756943226 0.1550000011920929 253 254 248
0.06706618517637253 -0.014119100756943226 0.1550000011920929 254 255 249
0.06699561327695847 -0.014028009958565235 0.15399999916553497 254 255 249
0.06735772639513016 -0.014028009958565235 0.15399999916553497 254 255 249
0.0672801062464714 -0.013936919160187244 0.15299999713897705 254 255 249
0.06763986498117447 -0.013936919160187244 0.15299999713897705 255 254 251
0.06799963116645813 -0.013936919160187244 0.15299999713897705 252 249 246
0.06791260093450546 -0.013845828361809254 0.15199999511241913 253 218 234
0.0682700127363205 -0.013845828361809254 0.15199999511241913 234 199 215
0.06862742453813553 -0.013845828361809254 0.15199999511241913 249 201 228
0.06898483633995056 -0.013845828361809254 0.15199999511241913 245 197 224
0.06888604909181595 -0.013754736632108688 0.1509999930858612 242 199 222
0.06924111396074295 -0.013754736632108688 0.1509999930858612 249 206 229
0.06959617137908936 -0.013754736632108688 0.1509999930858612 249 209 226
0.06995122879743576 -0.013754736632108688 0.1509999930858612 249 209 226
0.07030629366636276 -0.013754736632108688 0.1509999930858612 255 217 234
0.07066135108470917 -0.013754736632108688 0.1509999930858612 230 190 207
0.07101641595363617 -0.013754736632108688 0.1509999930858612 214 171 192
0.07137147337198257 -0.013754736632108688 0.1509999930858612 204 161 182
0.07172653079032898 -0.013754736632108688 0.1509999930858612 200 140 152
0.07208159565925598 -0.013754736632108688 0.1509999930858612 173 113 125
0.07243665307760239 -0.013754736632108688 0.1509999930858612 186 116 118
0.07279171794652939 -0.013754736632108688 0.1509999930858612 249 179 181
0.0731467753648758 -0.013754736632108688 0.1509999930858612 255 211 216
0.0735018402338028 -0.013754736632108688 0.1509999930858612 255 210 215
0.0738568976521492 -0.013754736632108688 0.1509999930858612 244 192 213
0.0742119550704956 -0.013754736632108688 0.1509999930858612 222 170 191
0.07456701993942261 -0.013754736632108688 0.1509999930858612 207 151 164
0.07492207735776901 -0.013754736632108688 0.1509999930858612 205 149 162
0.07527714222669601 -0.013754736632108688 0.1509999930858612 202 147 153
0.07513132691383362 -0.013663645833730698 0.15000000596046448 198 143 149
0.0754840299487114 -0.013663645833730698 0.15000000596046448 194 146 150
0.07583674043416977 -0.013663645833730698 0.15000000596046448 198 150 154
0.07618945091962814 -0.013663645833730698 0.15000000596046448 199 163 165
0.07654216140508652 -0.013663645833730698 0.15000000596046448 194 158 160
0.07740750163793564 -0.013754736632108688 0.1509999930858612 183 147 151
0.07776255905628204 -0.013754736632108688 0.1509999930858612 180 144 148
0.07811762392520905 -0.013754736632108688 0.1509999930858612 169 132 139
0.07899236679077148 -0.013845828361809254 0.15199999511241913 170 133 140
0.07934977859258652 -0.013845828361809254 0.15199999511241913 169 133 137
0.07970719039440155 -0.013845828361809254 0.15199999511241913 175 139 143
0.08006460964679718 -0.013845828361809254 0.15199999511241913 172 136 138
0.08095110952854156 -0.013936919160187244 0.15299999713897705 163 127 129
0.08131087571382523 -0.013936919160187244 0.15299999713897705 168 132 136
0.08167063444852829 -0.013936919160187244 0.15299999713897705 164 128 132
0.08203040063381195 -0.013936919160187244 0.15299999713897705 150 113 120
0.08239016681909561 -0.013936919160187244 0.15299999713897705 150 113 120
0.08274992555379868 -0.013936919160187244 0.15299999713897705 180 136 145
0.08310969173908234 -0.013936919160187244 0.15299999713897705 175 131 140
0.0834694504737854 -0.013936919160187244 0.15299999713897705 167 130 137
0.08382921665906906 -0.013936919160187244 0.15299999713897705 162 125 132
0.08418898284435272 -0.013936919160187244 0.15299999713897705 160 128 135
0.08454874157905579 -0.013936919160187244 0.15299999713897705 165 133 140
0.08490850776433945 -0.013936919160187244 0.15299999713897705 172 140 147
0.08582557737827301 -0.014028009958565235 0.15399999916553497 164 132 139
0.0861876904964447 -0.014028009958565235 0.15399999916553497 161 129 136
0.08654981106519699 -0.014028009958565235 0.15399999916553497 150 118 125
0.08691192418336868 -0.014028009958565235 0.15399999916553497 147 115 122
0.08784075081348419 -0.014119100756943226 0.1550000011920929 145 113 120
0.08820521831512451 -0.014119100756943226 0.1550000011920929 145 112 115
0.08856968581676483 -0.014119100756943226 0.1550000011920929 146 113 116
0.08893415331840515 -0.014119100756943226 0.1550000011920929 157 121 123
0.08929861336946487 -0.014119100756943226 0.1550000011920929 167 131 133
0.0896630808711052 -0.014119100756943226 0.1550000011920929 166 135 137
0.09002754837274551 -0.014119100756943226 0.1550000011920929 165 134 136
0.09039201587438583 -0.014119100756943226 0.1550000011920929 162 132 144
0.09075648337602615 -0.014119100756943226 0.1550000011920929 160 130 142
0.09112094342708588 -0.014119100756943226 0.1550000011920929 155 130 142
0.0914854109287262 -0.014119100756943226 0.1550000011920929 155 130 142
0.09184987843036652 -0.014119100756943226 0.1550000011920929 156 131 141
0.09221434593200684 -0.014119100756943226 0.1550000011920929 149 124 134
0.09317609667778015 -0.014210191555321217 0.15600000321865082 150 118 125
0.0935429111123085 -0.014210191555321217 0.15600000321865082 147 115 122
0.09390972554683685 -0.014210191555321217 0.15600000321865082 155 107 113
0.0942765474319458 -0.014210191555321217 0.15600000321865082 152 104 110
0.09464336186647415 -0.014210191555321217 0.15600000321865082 159 99 107
0.09561922401189804 -0.014301283285021782 0.15700000524520874 162 102 110
0.055431801825761795 -0.014730770140886307 0.16599999368190765 255 239 228
0.055822134017944336 -0.014730770140886307 0.16599999368190765 255 242 231
0.05587383359670639 -0.01464203093200922 0.16500000655651093 255 255 241
0.0562618151307106 -0.01464203093200922 0.16500000655651093 255 255 241
0.05664979666471481 -0.01464203093200922 0.16500000655651093 254 255 249
0.05669208988547325 -0.014553290791809559 0.164000004529953 254 255 249
0.05707772076129913 -0.014553290791809559 0.164000004529953 254 255 249
0.05711296200752258 -0.014464551582932472 0.16300000250339508 254 255 249
0.05749623849987984 -0.014464551582932472 0.16300000250339508 254 255 249
0.05787951871752739 -0.014464551582932472 0.16300000250339508 254 255 249
0.058262795209884644 -0.014464551582932472 0.16300000250339508 255 252 245
0.05828627943992615 -0.014375811442732811 0.16200000047683716 250 241 234
0.05866720527410507 -0.014375811442732811 0.16200000047683716 239 196 191
0.059048131108284 -0.014375811442732811 0.16200000047683716 240 197 192
0.05906221270561218 -0.014287072233855724 0.16099999845027924 247 197 192
0.05944078415632248 -0.014287072233855724 0.16099999845027924 240 190 185
0.059819359332323074 -0.014287072233855724 0.16099999845027924 255 244 238
0.06019793450832367 -0.014287072233855724 0.16099999845027924 255 247 241
0.06020025908946991 -0.014198333024978638 0.1599999964237213 254 255 245
0.06057647988200188 -0.014198333024978638 0.1599999964237213 254 255 245
0.06095270439982414 -0.014198333024978638 0.1599999964237213 254 255 249
0.06132892519235611 -0.014198333024978638 0.1599999964237213 254 255 249
0.061319492757320404 -0.014109592884778976 0.1589999943971634 254 255 249
0.06169336289167404 -0.014109592884778976 0.1589999943971634 254 255 249
0.06206723675131798 -0.014109592884778976 0.1589999943971634 254 255 249
0.06204839423298836 -0.01402085367590189 0.15800000727176666 254 255 249
0.062419917434453964 -0.01402085367590189 0.15800000727176666 254 255 249
0.06279143691062927 -0.01402085367590189 0.15800000727176666 254 255 249
0.06316296011209488 -0.01402085367590189 0.15800000727176666 254 255 249
0.06313236057758331 -0.013932113535702229 0.15700000524520874 254 255 249
0.06350152939558029 -0.013932113535702229 0.15700000524520874 255 255 251
0.06387069821357727 -0.013932113535702229 0.15700000524520874 246 246 242
0.06423986703157425 -0.013932113535702229 0.15700000524520874 253 231 221
0.06419751048088074 -0.013843374326825142 0.15600000321865082 241 219 209
0.06456433236598969 -0.013843374326825142 0.15600000321865082 240 219 204
0.06493114680051804 -0.013843374326825142 0.15600000321865082 255 250 235
0.06529796868562698 -0.013843374326825142 0.15600000321865082 255 255 243
0.06524385511875153 -0.013754635117948055 0.1550000011920929 255 255 243
0.06560832262039185 -0.013754635117948055 0.1550000011920929 254 255 249
0.06597279012203217 -0.013754635117948055 0.1550000011920929 250 251 245
0.06633725017309189 -0.013754635117948055 0.1550000011920929 242 243 237
0.06670171767473221 -0.013754635117948055 0.1550000011920929 249 250 244
0.06706618517637253 -0.013754635117948055 0.1550000011920929 254 255 249
0.06699561327695847 -0.013665894977748394 0.15399999916553497 254 255 249
0.06735772639513016 -0.013665894977748394 0.15399999916553497 254 255 249
0.0672801062464714 -0.013577155768871307 0.15299999713897705 254 255 249
0.06763986498117447 -0.013577155768871307 0.15299999713897705 255 255 251
0.06799963116645813 -0.013577155768871307 0.15299999713897705 255 255 251
0.06791260093450546 -0.013488415628671646 0.15199999511241913 255 236 252
0.0682700127363205 -0.013488415628671646 0.15199999511241913 222 193 209
0.06862742453813553 -0.013488415628671646 0.15199999511241913 226 178 212
0.06898483633995056 -0.013488415628671646 0.15199999511241913 226 178 212
0.0693422481417656 -0.013488415628671646 0.15199999511241913 223 180 212
0.06969965994358063 -0.013488415628671646 0.15199999511241913 252 209 241
0.06959617137908936 -0.01339967641979456 0.1509999930858612 254 215 237
0.06995122879743576 -0.01339967641979456 0.1509999930858612 250 211 233
0.07030629366636276 -0.01339967641979456 0.1509999930858612 255 219 239
0.07066135108470917 -0.01339967641979456 0.1509999930858612 243 204 224
0.07101641595363617 -0.01339967641979456 0.1509999930858612 223 183 200
0.07137147337198257 -0.01339967641979456 0.1509999930858612 207 167 184
0.07172653079032898 -0.01339967641979456 0.1509999930858612 202 141 156
0.07208159565925598 -0.01339967641979456 0.1509999930858612 159 98 113
0.07243665307760239 -0.01339967641979456 0.1509999930858612 179 108 115
0.07279171794652939 -0.01339967641979456 0.1509999930858612 248 177 184
0.0731467753648758 -0.01339967641979456 0.1509999930858612 255 210 218
0.0735018402338028 -0.01339967641979456 0.1509999930858612 255 210 218
0.0738568976521492 -0.01339967641979456 0.1509999930858612 228 180 203
0.0742119550704956 -0.01339967641979456 0.1509999930858612 211 163 186
0.07456701993942261 -0.01339967641979456 0.1509999930858612 187 138 151
0.07492207735776901 -0.01339967641979456 0.1509999930858612 188 139 152
0.07527714222669601 -0.01339967641979456 0.1509999930858612 194 144 150
0.07563219964504242 -0.01339967641979456 0.1509999930858612 194 144 150
0.07598725706338882 -0.01339967641979456 0.1509999930858612 190 145 150
0.07583674043416977 -0.013310937210917473 0.15000000596046448 195 150 155
0.07618945091962814 -0.013310937210917473 0.15000000596046448 197 157 162
0.07705244421958923 -0.01339967641979456 0.1509999930858612 197 157 162
0.07740750163793564 -0.01339967641979456 0.1509999930858612 191 157 163
0.07776255905628204 -0.01339967641979456 0.1509999930858612 182 148 154
0.07811762392520905 -0.01339967641979456 0.1509999930858612 176 142 150
0.07899236679077148 -0.013488415628671646 0.15199999511241913 172 138 146
0.07934977859258652 -0.013488415628671646 0.15199999511241913 165 137 138
0.07970719039440155 -0.013488415628671646 0.15199999511241913 164 136 137
0.08006460964679718 -0.013488415628671646 0.15199999511241913 166 138 139
0.08095110952854156 -0.013577155768871307 0.15299999713897705 163 135 136
0.08131087571382523 -0.013577155768871307 0.15299999713897705 166 135 137
0.08167063444852829 -0.013577155768871307 0.15299999713897705 153 122 124
0.08203040063381195 -0.013577155768871307 0.15299999713897705 152 119 122
0.08239016681909561 -0.013577155768871307 0.15299999713897705 147 114 117
0.08274992555379868 -0.013577155768871307 0.15299999713897705 174 131 137
0.08310969173908234 -0.013577155768871307 0.15299999713897705 175 132 138
0.0834694504737854 -0.013577155768871307 0.15299999713897705 167 130 137
0.08382921665906906 -0.013577155768871307 0.15299999713897705 165 128 135
0.08418898284435272 -0.013577155768871307 0.15299999713897705 156 127 133
0.08454874157905579 -0.013577155768871307 0.15299999713897705 159 130 136
0.08490850776433945 -0.013577155768871307 0.15299999713897705 158 129 135
0.08582557737827301 -0.013665894977748394 0.15399999916553497 153 124 130
0.0861876904964447 -0.013665894977748394 0.15399999916553497 148 118 128
0.08654981106519699 -0.013665894977748394 0.15399999916553497 143 113 123
0.08691192418336868 -0.013665894977748394 0.15399999916553497 139 109 119
0.08784075081348419 -0.013754635117948055 0.1550000011920929 138 108 118
0.08820521831512451 -0.013754635117948055 0.1550000011920929 145 112 115
0.08856968581676483 -0.013754635117948055 0.1550000011920929 151 118 121
0.08893415331840515 -0.013754635117948055 0.1550000011920929 156 120 120
0.0898747369647026 -0.013843374326825142 0.15600000321865082 162 126 126
0.09024155139923096 -0.013843374326825142 0.15600000321865082 169 136 137
0.0906083732843399 -0.013843374326825142 0.15600000321865082 165 132 133
0.09097518771886826 -0.013843374326825142 0.15600000321865082 161 134 139
0.0913420096039772 -0.013843374326825142 0.15600000321865082 158 131 136
0.09112094342708588 -0.013754635117948055 0.1550000011920929 159 134 142
0.0914854109287262 -0.013754635117948055 0.1550000011920929 164 139 147
0.09184987843036652 -0.013754635117948055 0.1550000011920929 153 130 138
0.09221434593200684 -0.013754635117948055 0.1550000011920929 147 124 132
0.09317609667778015 -0.013843374326825142 0.15600000321865082 150 119 121
0.0935429111123085 -0.013843374326825142 0.15600000321865082 146 115 117
