0.06019793450832367 -0.015044220723211765 0.16099999845027924 255 245 235
0.06020025908946991 -0.014950779266655445 0.1599999964237213 255 255 243
0.06057647988200188 -0.014950779266655445 0.1599999964237213 255 255 243
0.06095270439982414 -0.014950779266655445 0.1599999964237213 254 255 249
0.060945622622966766 -0.01485733687877655 0.1589999943971634 254 255 249
0.061319492757320404 -0.01485733687877655 0.1589999943971634 254 255 249
0.06169336289167404 -0.01485733687877655 0.1589999943971634 254 255 249
0.06206723675131798 -0.01485733687877655 0.1589999943971634 254 255 249
0.06204839423298836 -0.014763894490897655 0.15800000727176666 254 255 249
0.062419917434453964 -0.014763894490897655 0.15800000727176666 254 255 249
0.06279143691062927 -0.014763894490897655 0.15800000727176666 254 255 249
0.06276319175958633 -0.01467045210301876 0.15700000524520874 254 255 249
0.06313236057758331 -0.01467045210301876 0.15700000524520874 254 255 249
0.06350152939558029 -0.01467045210301876 0.15700000524520874 255 251 248
0.06387069821357727 -0.01467045210301876 0.15700000524520874 238 230 227
0.06383069604635239 -0.014577009715139866 0.15600000321865082 247 216 205
0.06419751048088074 -0.014577009715139866 0.15600000321865082 236 205 194
0.06456433236598969 -0.014577009715139866 0.15600000321865082 237 211 196
0.06493114680051804 -0.014577009715139866 0.15600000321865082 255 248 233
0.0648793876171112 -0.014483567327260971 0.1550000011920929 255 255 239
0.06524385511875153 -0.014483567327260971 0.1550000011920929 255 255 239
0.06560832262039185 -0.014483567327260971 0.1550000011920929 254 255 249
0.06597279012203217 -0.014483567327260971 0.1550000011920929 254 255 249
0.06633725017309189 -0.014483567327260971 0.1550000011920929 253 254 248
0.06627138704061508 -0.014390124939382076 0.15399999916553497 254 255 249
0.06663350015878677 -0.014390124939382076 0.15399999916553497 254 255 249
0.06699561327695847 -0.014390124939382076 0.15399999916553497 254 255 249
0.06735772639513016 -0.014390124939382076 0.15399999916553497 254 255 249
0.0672801062464714 -0.014296682551503181 0.15299999713897705 254 255 249
0.06763986498117447 -0.014296682551503181 0.15299999713897705 254 254 248
0.06799963116645813 -0.014296682551503181 0.15299999713897705 254 254 248
0.06791260093450546 -0.014203240163624287 0.15199999511241913 246 210 212
0.0682700127363205 -0.014203240163624287 0.15199999511241913 243 207 209
0.06862742453813553 -0.014203240163624287 0.15199999511241913 252 200 207
0.06898483633995056 -0.014203240163624287 0.15199999511241913 247 195 202
0.06888604909181595 -0.014109797775745392 0.1509999930858612 253 201 210
0.06924111396074295 -0.014109797775745392 0.1509999930858612 255 208 217
0.06959617137908936 -0.014109797775745392 0.1509999930858612 250 200 217
0.06995122879743576 -0.014109797775745392 0.1509999930858612 255 221 238
0.07030629366636276 -0.014109797775745392 0.1509999930858612 255 215 232
0.07066135108470917 -0.014109797775745392 0.1509999930858612 255 206 223
0.07101641595363617 -0.014109797775745392 0.1509999930858612 235 182 194
0.07137147337198257 -0.014109797775745392 0.1509999930858612 207 154 166
0.07220154255628586 -0.014203240163624287 0.15199999511241913 203 141 151
0.07255895435810089 -0.014203240163624287 0.15199999511241913 167 105 115
0.07291636615991592 -0.014203240163624287 0.15199999511241913 204 137 149
0.07327377796173096 -0.014203240163624287 0.15199999511241913 239 172 184
0.07363118976354599 -0.014203240163624287 0.15199999511241913 255 205 213
0.07398860156536102 -0.014203240163624287 0.15199999511241913 255 214 222
0.0738568976521492 -0.014109797775745392 0.1509999930858612 246 200 210
0.0742119550704956 -0.014109797775745392 0.1509999930858612 217 171 181
0.07456701993942261 -0.014109797775745392 0.1509999930858612 202 154 160
0.07492207735776901 -0.014109797775745392 0.1509999930858612 194 146 152
0.07527714222669601 -0.014109797775745392 0.1509999930858612 197 148 147
0.07563219964504242 -0.014109797775745392 0.1509999930858612 199 150 149
0.07598725706338882 -0.014109797775745392 0.1509999930858612 192 144 148
0.07634232193231583 -0.014109797775745392 0.1509999930858612 200 152 156
0.07720530778169632 -0.014203240163624287 0.15199999511241913 198 154 163
0.07756271958351135 -0.014203240163624287 0.15199999511241913 195 151 160
0.07740750163793564 -0.014109797775745392 0.1509999930858612 197 154 160
0.07776255905628204 -0.014109797775745392 0.1509999930858612 191 148 154
0.07811762392520905 -0.014109797775745392 0.1509999930858612 190 147 153
0.07847268134355545 -0.014109797775745392 0.1509999930858612 185 142 148
0.07882774621248245 -0.014109797775745392 0.1509999930858612 174 135 142
0.07918280363082886 -0.014109797775745392 0.1509999930858612 164 125 132
0.07953786849975586 -0.014109797775745392 0.1509999930858612 166 133 144
0.07989292591810226 -0.014109797775745392 0.1509999930858612 166 133 144
0.08024798333644867 -0.014109797775745392 0.1509999930858612 157 127 139
0.08060304820537567 -0.014109797775745392 0.1509999930858612 153 123 135
0.08149425685405731 -0.014203240163624287 0.15199999511241913 151 117 123
0.08185166865587234 -0.014203240163624287 0.15199999511241913 146 112 118
0.08220908045768738 -0.014203240163624287 0.15199999511241913 165 129 131
0.08256649225950241 -0.014203240163624287 0.15199999511241913 169 133 135
0.08292390406131744 -0.014203240163624287 0.15199999511241913 162 129 130
0.08328131586313248 -0.014203240163624287 0.15199999511241913 166 133 134
0.08363872766494751 -0.014203240163624287 0.15199999511241913 155 123 128
0.08399613946676254 -0.014203240163624287 0.15199999511241913 151 119 124
0.08435355126857758 -0.014203240163624287 0.15199999511241913 164 132 139
0.08526826649904251 -0.014296682551503181 0.15299999713897705 157 125 132
0.08562803268432617 -0.014296682551503181 0.15299999713897705 163 133 143
0.08598779886960983 -0.014296682551503181 0.15299999713897705 157 127 137
0.0863475576043129 -0.014296682551503181 0.15299999713897705 151 121 133
0.08727403730154037 -0.014390124939382076 0.15399999916553497 149 119 131
0.08763615041971207 -0.014390124939382076 0.15399999916553497 145 110 124
0.08799826353788376 -0.014390124939382076 0.15399999916553497 146 111 125
0.08893415331840515 -0.014483567327260971 0.1550000011920929 166 119 137
0.08929861336946487 -0.014483567327260971 0.1550000011920929 166 119 137
0.0896630808711052 -0.014483567327260971 0.1550000011920929 179 134 153
0.09002754837274551 -0.014483567327260971 0.1550000011920929 182 137 156
0.09039201587438583 -0.014483567327260971 0.1550000011920929 159 124 136
0.09075648337602615 -0.014483567327260971 0.1550000011920929 163 128 140
0.09112094342708588 -0.014483567327260971 0.1550000011920929 158 129 133
0.0914854109287262 -0.014483567327260971 0.1550000011920929 157 128 132
0.09184987843036652 -0.014483567327260971 0.1550000011920929 152 125 128
0.09221434593200684 -0.014483567327260971 0.1550000011920929 148 121 124
0.09257881343364716 -0.014483567327260971 0.1550000011920929 148 117 117
0.09294327348470688 -0.014483567327260971 0.1550000011920929 148 117 117
0.0933077409863472 -0.014483567327260971 0.1550000011920929 153 97 101
0.0942765474319458 -0.014577009715139866 0.15600000321865082 155 99 103
0.09464336186647415 -0.014577009715139866 0.15600000321865082 171 95 110
0.09561922401189804 -0.01467045210301876 0.15700000524520874 174 98 113
0.055431801825761795 -0.015121101401746273 0.16599999368190765 255 224 223
0.055822134017944336 -0.015121101401746273 0.16599999368190765 255 240 239
0.05587383359670639 -0.015030010603368282 0.16500000655651093 255 255 247
0.0562618151307106 -0.015030010603368282 0.16500000655651093 255 255 247
0.05664979666471481 -0.015030010603368282 0.16500000655651093 254 255 249
0.05669208988547325 -0.014938919804990292 0.164000004529953 254 255 249
0.05707772076129913 -0.014938919804990292 0.164000004529953 254 255 249
0.05746334791183472 -0.014938919804990292 0.164000004529953 254 255 249
0.0578489787876606 -0.014938919804990292 0.164000004529953 255 255 247
0.05823460593819618 -0.014938919804990292 0.164000004529953 255 255 247
0.058262795209884644 -0.014847829006612301 0.16300000250339508 255 241 231
0.0586460717022419 -0.014847829006612301 0.16300000250339508 240 218 208
0.05866720527410507 -0.014756737276911736 0.16200000047683716 245 193 182
0.059048131108284 -0.014756737276911736 0.16200000047683716 242 190 179
0.05906221270561218 -0.014665646478533745 0.16099999845027924 254 195 186
0.05944078415632248 -0.014665646478533745 0.16099999845027924 237 178 169
0.059819359332323074 -0.014665646478533745 0.16099999845027924 255 243 232
0.06019793450832367 -0.014665646478533745 0.16099999845027924 255 246 235
0.06020025908946991 -0.014574555680155754 0.1599999964237213 255 255 245
0.06057647988200188 -0.014574555680155754 0.1599999964237213 255 255 245
0.06095270439982414 -0.014574555680155754 0.1599999964237213 254 255 249
0.060945622622966766 -0.014483464881777763 0.1589999943971634 254 255 249
0.061319492757320404 -0.014483464881777763 0.1589999943971634 254 255 249
0.06169336289167404 -0.014483464881777763 0.1589999943971634 254 255 249
0.06206723675131798 -0.014483464881777763 0.1589999943971634 254 255 249
0.06204839423298836 -0.014392374083399773 0.15800000727176666 254 255 249
0.062419917434453964 -0.014392374083399773 0.15800000727176666 254 255 249
0.06279143691062927 -0.014392374083399773 0.15800000727176666 254 255 249
0.06276319175958633 -0.014301283285021782 0.15700000524520874 254 255 249
0.06313236057758331 -0.014301283285021782 0.15700000524520874 254 255 249
0.06350152939558029 -0.014301283285021782 0.15700000524520874 255 253 248
0.06387069821357727 -0.014301283285021782 0.15700000524520874 247 244 239
0.06383069604635239 -0.014210191555321217 0.15600000321865082 251 227 215
0.06419751048088074 -0.014210191555321217 0.15600000321865082 236 212 200
0.06456433236598969 -0.014210191555321217 0.15600000321865082 234 210 196
0.06493114680051804 -0.014210191555321217 0.15600000321865082 255 249 235
0.0648793876171112 -0.014119100756943226 0.1550000011920929 255 255 241
0.06524385511875153 -0.014119100756943226 0.1550000011920929 255 255 241
0.06560832262039185 -0.014119100756943226 0.1550000011920929 254 255 249
0.06597279012203217 -0.014119100756943226 0.1550000011920929 254 255 249
0.06633725017309189 -0.014119100756943226 0.1550000011920929 253 254 248
0.06627138704061508 -0.014028009958565235 0.15399999916553497 249 250 244
0.06663350015878677 -0.014028009958565235 0.15399999916553497 254 255 249
0.06699561327695847 -0.014028009958565235 0.15399999916553497 254 255 249
0.06735772639513016 -0.014028009958565235 0.15399999916553497 254 255 251
0.0672801062464714 -0.013936919160187244 0.15299999713897705 254 255 251
0.06763986498117447 -0.013936919160187244 0.15299999713897705 255 255 249
0.06799963116645813 -0.013936919160187244 0.15299999713897705 254 254 248
0.06791260093450546 -0.013845828361809254 0.15199999511241913 243 217 217
0.0682700127363205 -0.013845828361809254 0.15199999511241913 226 200 200
0.06862742453813553 -0.013845828361809254 0.15199999511241913 250 198 205
0.06898483633995056 -0.013845828361809254 0.15199999511241913 245 193 200
0.06888604909181595 -0.013754736632108688 0.1509999930858612 242 187 197
0.06924111396074295 -0.013754736632108688 0.1509999930858612 249 194 204
0.06959617137908936 -0.013754736632108688 0.1509999930858612 253 201 218
0.06995122879743576 -0.013754736632108688 0.1509999930858612 255 209 226
0.07030629366636276 -0.013754736632108688 0.1509999930858612 250 205 222
0.07066135108470917 -0.013754736632108688 0.1509999930858612 246 201 218
0.07101641595363617 -0.013754736632108688 0.1509999930858612 223 173 190
0.07137147337198257 -0.013754736632108688 0.1509999930858612 200 150 167
0.07172653079032898 -0.013754736632108688 0.1509999930858612 201 139 151
0.07255895435810089 -0.013845828361809254 0.15199999511241913 165 103 115
0.07291636615991592 -0.013845828361809254 0.15199999511241913 199 132 144
0.07327377796173096 -0.013845828361809254 0.15199999511241913 247 180 192
0.07363118976354599 -0.013845828361809254 0.15199999511241913 255 207 217
0.07398860156536102 -0.013845828361809254 0.15199999511241913 255 211 221
0.0738568976521492 -0.013754736632108688 0.1509999930858612 240 194 206
0.0742119550704956 -0.013754736632108688 0.1509999930858612 210 164 176
0.07456701993942261 -0.013754736632108688 0.1509999930858612 194 146 150
0.07492207735776901 -0.013754736632108688 0.1509999930858612 200 152 156
0.07527714222669601 -0.013754736632108688 0.1509999930858612 198 151 150
0.07563219964504242 -0.013754736632108688 0.1509999930858612 195 148 147
0.07598725706338882 -0.013754736632108688 0.1509999930858612 191 147 147
0.07684789597988129 -0.013845828361809254 0.15199999511241913 198 154 154
0.07720530778169632 -0.013845828361809254 0.15199999511241913 196 155 163
0.07756271958351135 -0.013845828361809254 0.15199999511241913 196 155 163
0.07740750163793564 -0.013754736632108688 0.1509999930858612 189 149 154
0.07776255905628204 -0.013754736632108688 0.1509999930858612 179 139 144
0.07811762392520905 -0.013754736632108688 0.1509999930858612 181 143 147
0.07847268134355545 -0.013754736632108688 0.1509999930858612 180 142 146
0.07882774621248245 -0.013754736632108688 0.1509999930858612 174 142 149
0.07918280363082886 -0.013754736632108688 0.1509999930858612 168 136 143
0.07953786849975586 -0.013754736632108688 0.1509999930858612 162 137 145
0.07989292591810226 -0.013754736632108688 0.1509999930858612 161 136 144
0.08024798333644867 -0.013754736632108688 0.1509999930858612 155 130 140
0.08060304820537567 -0.013754736632108688 0.1509999930858612 148 123 133
0.08095810562372208 -0.013754736632108688 0.1509999930858612 148 119 125
0.08185166865587234 -0.013845828361809254 0.15199999511241913 146 117 123
0.08220908045768738 -0.013845828361809254 0.15199999511241913 167 133 141
0.08256649225950241 -0.013845828361809254 0.15199999511241913 168 134 142
0.08292390406131744 -0.013845828361809254 0.15199999511241913 166 132 138
0.08328131586313248 -0.013845828361809254 0.15199999511241913 163 129 135
0.08363872766494751 -0.013845828361809254 0.15199999511241913 160 131 137
0.08399613946676254 -0.013845828361809254 0.15199999511241913 152 123 129
0.08435355126857758 -0.013845828361809254 0.15199999511241913 166 136 146
0.08526826649904251 -0.013936919160187244 0.15299999713897705 163 133 143
0.08562803268432617 -0.013936919160187244 0.15299999713897705 149 121 132
0.08598779886960983 -0.013936919160187244 0.15299999713897705 154 126 137
0.0863475576043129 -0.013936919160187244 0.15299999713897705 150 122 133
0.08727403730154037 -0.014028009958565235 0.15399999916553497 147 119 130
0.08763615041971207 -0.014028009958565235 0.15399999916553497 145 112 123
0.08799826353788376 -0.014028009958565235 0.15399999916553497 148 115 126
0.08893415331840515 -0.014119100756943226 0.1550000011920929 173 126 142
0.08929861336946487 -0.014119100756943226 0.1550000011920929 173 126 142
0.0896630808711052 -0.014119100756943226 0.1550000011920929 174 129 144
0.09002754837274551 -0.014119100756943226 0.1550000011920929 173 128 143
0.09039201587438583 -0.014119100756943226 0.1550000011920929 169 129 142
0.09075648337602615 -0.014119100756943226 0.1550000011920929 164 124 137
0.09112094342708588 -0.014119100756943226 0.1550000011920929 158 124 130
0.0914854109287262 -0.014119100756943226 0.1550000011920929 160 126 132
0.09184987843036652 -0.014119100756943226 0.1550000011920929 156 128 129
0.09221434593200684 -0.014119100756943226 0.1550000011920929 156 128 129
0.09257881343364716 -0.014119100756943226 0.1550000011920929 151 120 118
0.09294327348470688 -0.014119100756943226 0.1550000011920929 158 127 125
0.0933077409863472 -0.014119100756943226 0.1550000011920929 146 92 95
0.09367220848798752 -0.014119100756943226 0.1550000011920929 147 93 96
0.09464336186647415 -0.014210191555321217 0.15600000321865082 162 87 100
0.0950101837515831 -0.014210191555321217 0.15600000321865082 173 98 111
0.055431801825761795 -0.014730770140886307 0.16599999368190765 255 229 228
0.055822134017944336 -0.014730770140886307 0.16599999368190765 255 240 239
0.05587383359670639 -0.01464203093200922 0.16500000655651093 255 255 245
0.0562618151307106 -0.01464203093200922 0.16500000655651093 255 255 245
0.05664979666471481 -0.01464203093200922 0.16500000655651093 254 255 249
0.05669208988547325 -0.014553290791809559 0.164000004529953 254 255 249
0.05707772076129913 -0.014553290791809559 0.164000004529953 254 255 249
0.05746334791183472 -0.014553290791809559 0.164000004529953 254 255 249
0.05749623849987984 -0.014464551582932472 0.16300000250339508 254 255 249
0.05787951871752739 -0.014464551582932472 0.16300000250339508 254 255 249
0.058262795209884644 -0.014464551582932472 0.16300000250339508 255 252 243
0.0586460717022419 -0.014464551582932472 0.16300000250339508 247 238 229
0.05866720527410507 -0.014375811442732811 0.16200000047683716 241 199 187
0.059048131108284 -0.014375811442732811 0.16200000047683716 240 198 186
0.05906221270561218 -0.014287072233855724 0.16099999845027924 252 198 188
0.05944078415632248 -0.014287072233855724 0.16099999845027924 238 184 174
0.059819359332323074 -0.014287072233855724 0.16099999845027924 255 244 234
0.059824034571647644 -0.014198333024978638 0.1599999964237213 255 247 237
0.06020025908946991 -0.014198333024978638 0.1599999964237213 255 255 245
0.06057647988200188 -0.014198333024978638 0.1599999964237213 255 255 245
0.06095270439982414 -0.014198333024978638 0.1599999964237213 254 255 249
0.060945622622966766 -0.014109592884778976 0.1589999943971634 254 255 249
0.061319492757320404 -0.014109592884778976 0.1589999943971634 254 255 249
0.06169336289167404 -0.014109592884778976 0.1589999943971634 254 255 249
0.06206723675131798 -0.014109592884778976 0.1589999943971634 254 255 249
0.06204839423298836 -0.01402085367590189 0.15800000727176666 254 255 249
0.062419917434453964 -0.01402085367590189 0.15800000727176666 254 255 249
0.06279143691062927 -0.01402085367590189 0.15800000727176666 254 255 249
0.06276319175958633 -0.013932113535702229 0.15700000524520874 254 255 249
0.06313236057758331 -0.013932113535702229 0.15700000524520874 254 255 249
0.06350152939558029 -0.013932113535702229 0.15700000524520874 255 255 249
0.06387069821357727 -0.013932113535702229 0.15700000524520874 254 254 248
0.06383069604635239 -0.013843374326825142 0.15600000321865082 255 233 225
0.06419751048088074 -0.013843374326825142 0.15600000321865082 238 216 208
0.06456433236598969 -0.013843374326825142 0.15600000321865082 234 210 196
0.06493114680051804 -0.013843374326825142 0.15600000321865082 255 249 235
0.0648793876171112 -0.013754635117948055 0.1550000011920929 255 255 241
0.06524385511875153 -0.013754635117948055 0.1550000011920929 255 255 241
0.06560832262039185 -0.013754635117948055 0.1550000011920929 254 255 249
0.06597279012203217 -0.013754635117948055 0.1550000011920929 254 255 249
0.06633725017309189 -0.013754635117948055 0.1550000011920929 254 255 249
0.06627138704061508 -0.013665894977748394 0.15399999916553497 250 251 245
0.06663350015878677 -0.013665894977748394 0.15399999916553497 252 253 247
0.06699561327695847 -0.013665894977748394 0.15399999916553497 254 255 249
0.06692034006118774 -0.013577155768871307 0.15299999713897705 254 255 249
0.0672801062464714 -0.013577155768871307 0.15299999713897705 254 255 249
0.06763986498117447 -0.013577155768871307 0.15299999713897705 254 255 249
0.06799963116645813 -0.013577155768871307 0.15299999713897705 250 251 245
0.06791260093450546 -0.013488415628671646 0.15199999511241913 251 230 229
0.0682700127363205 -0.013488415628671646 0.15199999511241913 240 219 218
0.06862742453813553 -0.013488415628671646 0.15199999511241913 250 198 207
0.06898483633995056 -0.013488415628671646 0.15199999511241913 240 188 197
0.06888604909181595 -0.01339967641979456 0.1509999930858612 242 189 201
0.06924111396074295 -0.01339967641979456 0.1509999930858612 245 192 204
0.06959617137908936 -0.01339967641979456 0.1509999930858612 250 201 214
0.06995122879743576 -0.01339967641979456 0.1509999930858612 253 204 217
0.07030629366636276 -0.01339967641979456 0.1509999930858612 244 204 221
0.07066135108470917 -0.01339967641979456 0.1509999930858612 237 197 214
0.07101641595363617 -0.01339967641979456 0.1509999930858612 217 170 190
0.07137147337198257 -0.01339967641979456 0.1509999930858612 192 145 165
0.07172653079032898 -0.01339967641979456 0.1509999930858612 204 140 151
0.07255895435810089 -0.013488415628671646 0.15199999511241913 166 102 113
0.07243665307760239 -0.01339967641979456 0.1509999930858612 185 114 121
0.07279171794652939 -0.01339967641979456 0.1509999930858612 227 156 163
0.0731467753648758 -0.01339967641979456 0.1509999930858612 255 211 221
0.07398860156536102 -0.013488415628671646 0.15199999511241913 255 212 222
0.07434601336717606 -0.013488415628671646 0.15199999511241913 237 195 209
0.07470342516899109 -0.013488415628671646 0.15199999511241913 217 175 189
0.07506083697080612 -0.013488415628671646 0.15199999511241913 191 146 151
0.07541824877262115 -0.013488415628671646 0.15199999511241913 193 148 153
0.07577566057443619 -0.013488415628671646 0.15199999511241913 195 148 147
0.07613307237625122 -0.013488415628671646 0.15199999511241913 194 147 146
0.07649048417806625 -0.013488415628671646 0.15199999511241913 191 147 147
0.07684789597988129 -0.013488415628671646 0.15199999511241913 203 159 159
0.07720530778169632 -0.013488415628671646 0.15199999511241913 195 157 159
0.07705244421958923 -0.01339967641979456 0.1509999930858612 195 157 159
0.07740750163793564 -0.01339967641979456 0.1509999930858612 185 149 153
0.07776255905628204 -0.01339967641979456 0.1509999930858612 174 138 142
0.07811762392520905 -0.01339967641979456 0.1509999930858612 180 147 148
0.07847268134355545 -0.01339967641979456 0.1509999930858612 177 144 145
0.07882774621248245 -0.01339967641979456 0.1509999930858612 148 121 126
0.07918280363082886 -0.01339967641979456 0.1509999930858612 150 123 128
0.07953786849975586 -0.01339967641979456 0.1509999930858612 161 136 144
0.07989292591810226 -0.01339967641979456 0.1509999930858612 156 131 139
0.08024798333644867 -0.01339967641979456 0.1509999930858612 158 130 139
0.08060304820537567 -0.01339967641979456 0.1509999930858612 150 122 131
0.08095810562372208 -0.01339967641979456 0.1509999930858612 148 116 121
0.08185166865587234 -0.013488415628671646 0.15199999511241913 151 119 124
0.08220908045768738 -0.013488415628671646 0.15199999511241913 173 139 147
0.08256649225950241 -0.013488415628671646 0.15199999511241913 174 140 148
0.08292390406131744 -0.013488415628671646 0.15199999511241913 170 136 144
0.08328131586313248 -0.013488415628671646 0.15199999511241913 162 128 136
0.08363872766494751 -0.013488415628671646 0.15199999511241913 159 130 134
0.08399613946676254 -0.013488415628671646 0.15199999511241913 158 129 133
0.08435355126857758 -0.013488415628671646 0.15199999511241913 159 132 137
0.08526826649904251 -0.013577155768871307 0.15299999713897705 151 124 129
0.08562803268432617 -0.013577155768871307 0.15299999713897705 149 120 136
0.08598779886960983 -0.013577155768871307 0.15299999713897705 149 120 136
0.0863475576043129 -0.013577155768871307 0.15299999713897705 149 121 132
0.08727403730154037 -0.013665894977748394 0.15399999916553497 149 121 132
0.08763615041971207 -0.013665894977748394 0.15399999916553497 151 121 131
0.08799826353788376 -0.013665894977748394 0.15399999916553497 148 118 128
0.08893415331840515 -0.013754635117948055 0.1550000011920929 163 117 127
0.08929861336946487 -0.013754635117948055 0.1550000011920929 167 121 131
0.0896630808711052 -0.013754635117948055 0.1550000011920929 165 121 130
0.09002754837274551 -0.013754635117948055 0.1550000011920929 167 123 132
0.09039201587438583 -0.013754635117948055 0.1550000011920929 173 129 138
0.09075648337602615 -0.013754635117948055 0.1550000011920929 169 125 134
0.09112094342708588 -0.013754635117948055 0.1550000011920929 166 128 132
0.0914854109287262 -0.013754635117948055 0.1550000011920929 165 127 131
0.09184987843036652 -0.013754635117948055 0.1550000011920929 165 127 131
0.09221434593200684 -0.013754635117948055 0.1550000011920929 171 133 137
0.09257881343364716 -0.013754635117948055 0.1550000011920929 156 118 118
0.09294327348470688 -0.013754635117948055 0.1550000011920929 164 126 126
0.0933077409863472 -0.013754635117948055 0.1550000011920929 161 107 108
0.09367220848798752 -0.013754635117948055 0.1550000011920929 152 98 99
0.09464336186647415 -0.013843374326825142 0.15600000321865082 165 87 98
0.0950101837515831 -0.013843374326825142 0.15600000321865082 177 99 110
0.055431801825761795 -0.01434043888002634 0.16599999368190765 255 231 230
0.055822134017944336 -0.01434043888002634 0.16599999368190765 255 239 238
0.05587383359670639 -0.014254050329327583 0.16500000655651093 255 255 245
0.0562618151307106 -0.014254050329327583 0.16500000655651093 255 255 245
0.05664979666471481 -0.014254050329327583 0.16500000655651093 254 255 249
0.05669208988547325 -0.0141676627099514 0.164000004529953 254 255 249
0.05707772076129913 -0.0141676627099514 0.164000004529953 254 255 249
0.05746334791183472 -0.0141676627099514 0.164000004529953 254 255 249
0.05749623849987984 -0.014081274159252644 0.16300000250339508 254 255 249
0.05787951871752739 -0.014081274159252644 0.16300000250339508 254 255 249
0.058262795209884644 -0.014081274159252644 0.16300000250339508 255 255 247
0.0586460717022419 -0.014081274159252644 0.16300000250339508 255 254 246
0.05866720527410507 -0.013994885608553886 0.16200000047683716 246 212 204
0.059048131108284 -0.013994885608553886 0.16200000047683716 240 206 198
0.05906221270561218 -0.013908497989177704 0.16099999845027924 249 200 190
0.05944078415632248 -0.013908497989177704 0.16099999845027924 235 186 176
0.059819359332323074 -0.013908497989177704 0.16099999845027924 255 246 234
0.059824034571647644 -0.013822109438478947 0.1599999964237213 255 249 237
0.06020025908946991 -0.013822109438478947 0.1599999964237213 254 255 245
0.06057647988200188 -0.013822109438478947 0.1599999964237213 254 255 245
0.06095270439982414 -0.013822109438478947 0.1599999964237213 254 255 249
0.060945622622966766 -0.013735721819102764 0.1589999943971634 254 255 249
0.061319492757320404 -0.013735721819102764 0.1589999943971634 254 255 249
0.06169336289167404 -0.013735721819102764 0.1589999943971634 254 255 249
0.06206723675131798 -0.013735721819102764 0.1589999943971634 254 255 249
0.062441106885671616 -0.013735721819102764 0.1589999943971634 254 255 249
0.062419917434453964 -0.013649333268404007 0.15800000727176666 254 255 249
0.06279143691062927 -0.013649333268404007 0.15800000727176666 254 255 249
0.06316296011209488 -0.013649333268404007 0.15800000727176666 254 255 249
0.06313236057758331 -0.01356294471770525 0.15700000524520874 254 255 249
0.06350152939558029 -0.01356294471770525 0.15700000524520874 255 255 249
0.06387069821357727 -0.01356294471770525 0.15700000524520874 253 253 247
0.06383069604635239 -0.013476557098329067 0.15600000321865082 249 230 226
0.06419751048088074 -0.013476557098329067 0.15600000321865082 234 215 211
0.06456433236598969 -0.013476557098329067 0.15600000321865082 233 212 199
0.06493114680051804 -0.013476557098329067 0.15600000321865082 255 250 237
0.0648793876171112 -0.01339016854763031 0.1550000011920929 255 255 241
0.06524385511875153 -0.01339016854763031 0.1550000011920929 255 255 241
0.06560832262039185 -0.01339016854763031 0.1550000011920929 254 255 249
0.06597279012203217 -0.01339016854763031 0.1550000011920929 254 255 249
0.06633725017309189 -0.01339016854763031 0.1550000011920929 254 255 249
0.06627138704061508 -0.013303780928254128 0.15399999916553497 253 254 248
0.06663350015878677 -0.013303780928254128 0.15399999916553497 254 255 249
0.06699561327695847 -0.013303780928254128 0.15399999916553497 254 255 249
0.06692034006118774 -0.01321739237755537 0.15299999713897705 254 255 249
0.0672801062464714 -0.01321739237755537 0.15299999713897705 254 255 249
0.06763986498117447 -0.01321739237755537 0.15299999713897705 254 255 249
0.06799963116645813 -0.01321739237755537 0.15299999713897705 254 255 249
0.06791260093450546 -0.013131003826856613 0.15199999511241913 255 249 246
0.0682700127363205 -0.013131003826856613 0.15199999511241913 245 229 226
0.06862742453813553 -0.013131003826856613 0.15199999511241913 235 190 197
0.06898483633995056 -0.013131003826856613 0.15199999511241913 239 194 201
0.06888604909181595 -0.01304461620748043 0.1509999930858612 243 194 205
0.06924111396074295 -0.01304461620748043 0.1509999930858612 248 199 210
0.06959617137908936 -0.01304461620748043 0.1509999930858612 252 212 225
0.06995122879743576 -0.01304461620748043 0.1509999930858612 251 211 224
0.07030629366636276 -0.01304461620748043 0.1509999930858612 253 214 234
0.07066135108470917 -0.01304461620748043 0.1509999930858612 240 201 221
0.07101641595363617 -0.01304461620748043 0.1509999930858612 222 180 198
0.07137147337198257 -0.01304461620748043 0.1509999930858612 194 152 170
0.07172653079032898 -0.01304461620748043 0.1509999930858612 209 147 159
0.07208159565925598 -0.01304461620748043 0.1509999930858612 165 103 115
0.07243665307760239 -0.01304461620748043 0.1509999930858612 175 101 106
0.07279171794652939 -0.01304461620748043 0.1509999930858612 225 151 156
0.0731467753648758 -0.01304461620748043 0.1509999930858612 255 211 221
0.07398860156536102 -0.013131003826856613 0.15199999511241913 255 209 219
0.07434601336717606 -0.013131003826856613 0.15199999511241913 227 187 202
0.07470342516899109 -0.013131003826856613 0.15199999511241913 207 167 182
0.07506083697080612 -0.013131003826856613 0.15199999511241913 195 150 155
0.07541824877262115 -0.013131003826856613 0.15199999511241913 193 148 153
0.07577566057443619 -0.013131003826856613 0.15199999511241913 192 145 144
0.07613307237625122 -0.013131003826856613 0.15199999511241913 192 145 144
0.07649048417806625 -0.013131003826856613 0.15199999511241913 187 148 146
0.07684789597988129 -0.013131003826856613 0.15199999511241913 202 163 161
0.07720530778169632 -0.013131003826856613 0.15199999511241913 192 156 156
0.07705244421958923 -0.01304461620748043 0.1509999930858612 193 157 157
0.07740750163793564 -0.01304461620748043 0.1509999930858612 183 152 152
0.07776255905628204 -0.01304461620748043 0.1509999930858612 179 148 148
0.07811762392520905 -0.01304461620748043 0.1509999930858612 175 147 146
0.07847268134355545 -0.01304461620748043 0.1509999930858612 159 131 130
0.07882774621248245 -0.01304461620748043 0.1509999930858612 149 124 132
0.07918280363082886 -0.01304461620748043 0.1509999930858612 164 139 147
0.07953786849975586 -0.01304461620748043 0.1509999930858612 163 138 148
0.07989292591810226 -0.01304461620748043 0.1509999930858612 159 134 144
0.08024798333644867 -0.01304461620748043 0.1509999930858612 167 138 144
0.08060304820537567 -0.01304461620748043 0.1509999930858612 156 127 133
0.08095810562372208 -0.01304461620748043 0.1509999930858612 150 113 120
0.08185166865587234 -0.013131003826856613 0.15199999511241913 147 110 117
0.08220908045768738 -0.013131003826856613 0.15199999511241913 160 123 132
0.08256649225950241 -0.013131003826856613 0.15199999511241913 171 134 143
0.08292390406131744 -0.013131003826856613 0.15199999511241913 159 125 133
0.08328131586313248 -0.013131003826856613 0.15199999511241913 152 118 126
0.08363872766494751 -0.013131003826856613 0.15199999511241913 160 128 135
0.08454874157905579 -0.01321739237755537 0.15299999713897705 162 130 137
0.08490850776433945 -0.01321739237755537 0.15299999713897705 162 135 140
0.08526826649904251 -0.01321739237755537 0.15299999713897705 154 127 132
0.0861876904964447 -0.013303780928254128 0.15399999916553497 146 120 135
0.08654981106519699 -0.013303780928254128 0.15399999916553497 143 117 132
0.08691192418336868 -0.013303780928254128 0.15399999916553497 146 121 131
0.08727403730154037 -0.013303780928254128 0.15399999916553497 142 117 127
0.08820521831512451 -0.01339016854763031 0.1550000011920929 142 112 122
0.08856968581676483 -0.01339016854763031 0.1550000011920929 143 113 123
0.08893415331840515 -0.01339016854763031 0.1550000011920929 156 112 121
0.08929861336946487 -0.01339016854763031 0.1550000011920929 166 122 131
0.0896630808711052 -0.01339016854763031 0.1550000011920929 167 124 130
0.09002754837274551 -0.01339016854763031 0.1550000011920929 172 129 135
0.09039201587438583 -0.01339016854763031 0.1550000011920929 172 132 137
0.09075648337602615 -0.01339016854763031 0.1550000011920929 168 128 133
0.09112094342708588 -0.01339016854763031 0.1550000011920929 167 127 132
0.0914854109287262 -0.01339016854763031 0.1550000011920929 167 127 132
0.09184987843036652 -0.01339016854763031 0.1550000011920929 168 128 133
0.09221434593200684 -0.01339016854763031 0.1550000011920929 170 130 135
0.09257881343364716 -0.01339016854763031 0.1550000011920929 158 115 117
0.09294327348470688 -0.01339016854763031 0.1550000011920929 160 117 119
0.0933077409863472 -0.01339016854763031 0.1550000011920929 164 105 108
0.09367220848798752 -0.01339016854763031 0.1550000011920929 157 98 101
0.09464336186647415 -0.013476557098329067 0.15600000321865082 166 88 97
0.0950101837515831 -0.013476557098329067 0.15600000321865082 169 91 100
0.055431801825761795 -0.013950107619166374 0.16599999368190765 255 235 234
0.05548585578799248 -0.013866070657968521 0.16500000655651093 255 240 239
0.05587383359670639 -0.013866070657968521 0.16500000655651093 255 255 245
0.0562618151307106 -0.013866070657968521 0.16500000655651093 255 255 245
0.05664979666471481 -0.013866070657968521 0.16500000655651093 254 255 249
0.05669208988547325 -0.013782033696770668 0.164000004529953 254 255 249
0.05707772076129913 -0.013782033696770668 0.164000004529953 254 255 249
0.05746334791183472 -0.013782033696770668 0.164000004529953 254 255 249
0.05749623849987984 -0.013697996735572815 0.16300000250339508 254 255 249
0.05787951871752739 -0.013697996735572815 0.16300000250339508 254 255 249
0.058262795209884644 -0.013697996735572815 0.16300000250339508 255 255 249
0.0586460717022419 -0.013697996735572815 0.16300000250339508 255 255 249
0.05866720527410507 -0.013613959774374962 0.16200000047683716 246 218 215
0.059048131108284 -0.013613959774374962 0.16200000047683716 240 212 209
0.05906221270561218 -0.013529923744499683 0.16099999845027924 255 209 203
0.05944078415632248 -0.013529923744499683 0.16099999845027924 230 184 178
0.059819359332323074 -0.013529923744499683 0.16099999845027924 255 235 227
0.059824034571647644 -0.01344588678330183 0.1599999964237213 255 249 241
0.06020025908946991 -0.01344588678330183 0.1599999964237213 254 255 247
0.06057647988200188 -0.01344588678330183 0.1599999964237213 254 255 247
0.06095270439982414 -0.01344588678330183 0.1599999964237213 254 255 249
0.060945622622966766 -0.013361849822103977 0.1589999943971634 254 255 249
0.061319492757320404 -0.013361849822103977 0.1589999943971634 254 255 249
0.06169336289167404 -0.013361849822103977 0.1589999943971634 254 255 249
0.06206723675131798 -0.013361849822103977 0.1589999943971634 254 255 249
0.062441106885671616 -0.013361849822103977 0.1589999943971634 254 255 249
0.062419917434453964 -0.013277812860906124 0.15800000727176666 254 255 249
0.06279143691062927 -0.013277812860906124 0.15800000727176666 254 255 249
0.06316296011209488 -0.013277812860906124 0.15800000727176666 254 255 249
0.06313236057758331 -0.013193775899708271 0.15700000524520874 254 255 249
0.06350152939558029 -0.013193775899708271 0.15700000524520874 255 255 249
0.06387069821357727 -0.013193775899708271 0.15700000524520874 254 254 248
0.06383069604635239 -0.013109739869832993 0.15600000321865082 255 237 235
0.06419751048088074 -0.013109739869832993 0.15600000321865082 236 217 215
0.06456433236598969 -0.013109739869832993 0.15600000321865082 218 200 189
0.06451492011547089 -0.01302570290863514 0.1550000011920929 255 240 229
0.0648793876171112 -0.01302570290863514 0.1550000011920929 255 255 237
0.06524385511875153 -0.01302570290863514 0.1550000011920929 255 255 237
0.06560832262039185 -0.01302570290863514 0.1550000011920929 254 255 247
0.06597279012203217 -0.01302570290863514 0.1550000011920929 254 255 247
0.06633725017309189 -0.01302570290863514 0.1550000011920929 254 255 249
0.06627138704061508 -0.012941665947437286 0.15399999916553497 254 255 249
0.06663350015878677 -0.012941665947437286 0.15399999916553497 254 255 249
0.06699561327695847 -0.012941665947437286 0.15399999916553497 254 255 249
0.06735772639513016 -0.012941665947437286 0.15399999916553497 254 255 249
0.0672801062464714 -0.012857628986239433 0.15299999713897705 254 255 249
0.06763986498117447 -0.012857628986239433 0.15299999713897705 254 255 249
0.06799963116645813 -0.012857628986239433 0.15299999713897705 254 255 249
0.06791260093450546 -0.01277359202504158 0.15199999511241913 255 249 246
0.0682700127363205 -0.01277359202504158 0.15199999511241913 238 222 219
0.06862742453813553 -0.01277359202504158 0.15199999511241913 234 196 200
0.06898483633995056 -0.01277359202504158 0.15199999511241913 230 192 196
0.0693422481417656 -0.01277359202504158 0.15199999511241913 228 187 197
0.06969965994358063 -0.01277359202504158 0.15199999511241913 246 205 215
0.06959617137908936 -0.012689555063843727 0.1509999930858612 245 212 227
0.06995122879743576 -0.012689555063843727 0.1509999930858612 238 205 220
0.07030629366636276 -0.012689555063843727 0.1509999930858612 252 216 237
0.07066135108470917 -0.012689555063843727 0.1509999930858612 243 207 228
0.07101641595363617 -0.012689555063843727 0.1509999930858612 223 182 202
0.07137147337198257 -0.012689555063843727 0.1509999930858612 195 154 174
0.07172653079032898 -0.012689555063843727 0.1509999930858612 205 143 155
0.07208159565925598 -0.012689555063843727 0.1509999930858612 145 83 95
0.07243665307760239 -0.012689555063843727 0.1509999930858612 164 89 97
0.07279171794652939 -0.012689555063843727 0.1509999930858612 214 139 147
0.0731467753648758 -0.012689555063843727 0.1509999930858612 251 196 202
0.07398860156536102 -0.01277359202504158 0.15199999511241913 254 199 205
0.07434601336717606 -0.01277359202504158 0.15199999511241913 235 197 210
0.07470342516899109 -0.01277359202504158 0.15199999511241913 206 168 181
0.07506083697080612 -0.01277359202504158 0.15199999511241913 204 164 169
0.07541824877262115 -0.01277359202504158 0.15199999511241913 201 161 166
0.07577566057443619 -0.01277359202504158 0.15199999511241913 194 152 149
0.07613307237625122 -0.01277359202504158 0.15199999511241913 201 159 156
0.07649048417806625 -0.01277359202504158 0.15199999511241913 194 159 154
0.07684789597988129 -0.01277359202504158 0.15199999511241913 193 158 153
0.07720530778169632 -0.01277359202504158 0.15199999511241913 182 150 146
0.07705244421958923 -0.012689555063843727 0.1509999930858612 197 165 161
0.07740750163793564 -0.012689555063843727 0.1509999930858612 186 155 155
0.07776255905628204 -0.012689555063843727 0.1509999930858612 180 149 149
0.07811762392520905 -0.012689555063843727 0.1509999930858612 178 154 156
0.07847268134355545 -0.012689555063843727 0.1509999930858612 154 130 132
0.07882774621248245 -0.012689555063843727 0.1509999930858612 152 129 139
0.07918280363082886 -0.012689555063843727 0.1509999930858612 153 130 140
0.07953786849975586 -0.012689555063843727 0.1509999930858612 159 134 144
0.07989292591810226 -0.012689555063843727 0.1509999930858612 159 134 144
0.08024798333644867 -0.012689555063843727 0.1509999930858612 170 136 144
0.08060304820537567 -0.012689555063843727 0.1509999930858612 153 119 127
0.08095810562372208 -0.012689555063843727 0.1509999930858612 147 107 110
0.08185166865587234 -0.01277359202504158 0.15199999511241913 156 116 119
0.08220908045768738 -0.01277359202504158 0.15199999511241913 159 114 119
0.08256649225950241 -0.01277359202504158 0.15199999511241913 167 122 127
0.08292390406131744 -0.01277359202504158 0.15199999511241913 164 126 130
0.08382921665906906 -0.012857628986239433 0.15299999713897705 155 117 121
0.08418898284435272 -0.012857628986239433 0.15299999713897705 155 119 123
0.08454874157905579 -0.012857628986239433 0.15299999713897705 167 131 135
0.08546346426010132 -0.012941665947437286 0.15399999916553497 167 135 140
0.08582557737827301 -0.012941665947437286 0.15399999916553497 161 129 134
0.0861876904964447 -0.012941665947437286 0.15399999916553497 152 124 135
0.08711182326078415 -0.01302570290863514 0.1550000011920929 144 116 127
0.08747628331184387 -0.01302570290863514 0.1550000011920929 148 123 133
0.08784075081348419 -0.01302570290863514 0.1550000011920929 146 121 131
0.08877428621053696 -0.013109739869832993 0.15600000321865082 136 104 111
0.08914110064506531 -0.013109739869832993 0.15600000321865082 144 112 119
0.08950791507959366 -0.013109739869832993 0.15600000321865082 146 102 111
0.0898747369647026 -0.013109739869832993 0.15600000321865082 175 131 140
0.09024155139923096 -0.013109739869832993 0.15600000321865082 174 134 139
0.0906083732843399 -0.013109739869832993 0.15600000321865082 173 133 138
0.09097518771886826 -0.013109739869832993 0.15600000321865082 168 132 136
0.0913420096039772 -0.013109739869832993 0.15600000321865082 169 133 137
0.09112094342708588 -0.01302570290863514 0.1550000011920929 169 133 137
0.0914854109287262 -0.01302570290863514 0.1550000011920929 168 132 136
0.09184987843036652 -0.01302570290863514 0.1550000011920929 171 133 137
0.09221434593200684 -0.01302570290863514 0.1550000011920929 160 122 126
0.09317609667778015 -0.013109739869832993 0.15600000321865082 154 109 112
0.0935429111123085 -0.013109739869832993 0.15600000321865082 156 111 114
0.09390972554683685 -0.013109739869832993 0.15600000321865082 165 109 111
0.0942765474319458 -0.013109739869832993 0.15600000321865082 148 92 94
0.09464336186647415 -0.013109739869832993 0.15600000321865082 159 84 92
0.055431801825761795 -0.013559776358306408 0.16599999368190765 255 234 234
0.05548585578799248 -0.013478090986609459 0.16500000655651093 255 241 241
0.05587383359670639 -0.013478090986609459 0.16500000655651093 255 255 247
0.0562618151307106 -0.013478090986609459 0.16500000655651093 255 255 247
0.05664979666471481 -0.013478090986609459 0.16500000655651093 254 255 249
0.05669208988547325 -0.01339640561491251 0.164000004529953 254 255 249
0.05707772076129913 -0.01339640561491251 0.164000004529953 254 255 249
0.05746334791183472 -0.01339640561491251 0.164000004529953 254 255 249
0.05749623849987984 -0.013314719311892986 0.16300000250339508 254 255 249
0.05787951871752739 -0.013314719311892986 0.16300000250339508 254 255 249
0.058262795209884644 -0.013314719311892986 0.16300000250339508 255 255 249
0.0586460717022419 -0.013314719311892986 0.16300000250339508 255 255 249
0.05866720527410507 -0.013233033940196037 0.16200000047683716 254 228 226
0.059048131108284 -0.013233033940196037 0.16200000047683716 245 219 217
0.05906221270561218 -0.013151348568499088 0.16099999845027924 246 202 200
0.05944078415632248 -0.013151348568499088 0.16099999845027924 225 181 179
0.059819359332323074 -0.013151348568499088 0.16099999845027924 227 205 197
0.059824034571647644 -0.01306966319680214 0.1599999964237213 255 249 241
0.06020025908946991 -0.01306966319680214 0.1599999964237213 254 255 245
0.06057647988200188 -0.01306966319680214 0.1599999964237213 254 255 245
0.06095270439982414 -0.01306966319680214 0.1599999964237213 254 255 249
0.06132892519235611 -0.01306966319680214 0.1599999964237213 254 255 249
0.061319492757320404 -0.01298797782510519 0.1589999943971634 254 255 249
0.06169336289167404 -0.01298797782510519 0.1589999943971634 254 255 249
0.06206723675131798 -0.01298797782510519 0.1589999943971634 254 255 249
0.062441106885671616 -0.01298797782510519 0.1589999943971634 254 255 249
0.062419917434453964 -0.012906292453408241 0.15800000727176666 254 255 249
0.06279143691062927 -0.012906292453408241 0.15800000727176666 254 255 249
0.06316296011209488 -0.012906292453408241 0.15800000727176666 254 255 249
0.06313236057758331 -0.012824607081711292 0.15700000524520874 254 255 249
0.06350152939558029 -0.012824607081711292 0.15700000524520874 255 253 251
0.06387069821357727 -0.012824607081711292 0.15700000524520874 255 253 251
0.06383069604635239 -0.012742921710014343 0.15600000321865082 252 229 228
0.06419751048088074 -0.012742921710014343 0.15600000321865082 213 190 189
0.06456433236598969 -0.012742921710014343 0.15600000321865082 199 173 158
0.06451492011547089 -0.012661236338317394 0.1550000011920929 244 218 203
0.0648793876171112 -0.012661236338317394 0.1550000011920929 255 255 235
0.06524385511875153 -0.012661236338317394 0.1550000011920929 255 255 235
0.06560832262039185 -0.012661236338317394 0.1550000011920929 254 255 245
0.06597279012203217 -0.012661236338317394 0.1550000011920929 254 255 245
0.06633725017309189 -0.012661236338317394 0.1550000011920929 254 255 249
0.06627138704061508 -0.012579550966620445 0.15399999916553497 254 255 249
0.06663350015878677 -0.012579550966620445 0.15399999916553497 253 254 248
0.06699561327695847 -0.012579550966620445 0.15399999916553497 253 254 248
0.06735772639513016 -0.012579550966620445 0.15399999916553497 254 255 249
0.0672801062464714 -0.012497865594923496 0.15299999713897705 254 255 249
0.06763986498117447 -0.012497865594923496 0.15299999713897705 254 255 249
0.06799963116645813 -0.012497865594923496 0.15299999713897705 254 255 249
0.06791260093450546 -0.012416180223226547 0.15199999511241913 255 248 246
0.0682700127363205 -0.012416180223226547 0.15199999511241913 250 231 229
0.06862742453813553 -0.012416180223226547 0.15199999511241913 237 204 207
0.06898483633995056 -0.012416180223226547 0.15199999511241913 231 198 201
0.0693422481417656 -0.012416180223226547 0.15199999511241913 228 196 201
0.06969965994358063 -0.012416180223226547 0.15199999511241913 231 199 204
0.06959617137908936 -0.012334494851529598 0.1509999930858612 237 207 221
0.06995122879743576 -0.012334494851529598 0.1509999930858612 228 198 212
0.07030629366636276 -0.012334494851529598 0.1509999930858612 239 203 224
0.07066135108470917 -0.012334494851529598 0.1509999930858612 218 182 203
0.07101641595363617 -0.012334494851529598 0.1509999930858612 208 166 182
0.07137147337198257 -0.012334494851529598 0.1509999930858612 188 146 162
0.07172653079032898 -0.012334494851529598 0.1509999930858612 195 128 138
0.07208159565925598 -0.012334494851529598 0.1509999930858612 134 67 77
0.0731467753648758 -0.012334494851529598 0.1509999930858612 233 173 171
0.07398860156536102 -0.012416180223226547 0.15199999511241913 251 191 189
0.07434601336717606 -0.012416180223226547 0.15199999511241913 228 188 193
0.07470342516899109 -0.012416180223226547 0.15199999511241913 200 160 165
0.07506083697080612 -0.012416180223226547 0.15199999511241913 193 155 157
0.07541824877262115 -0.012416180223226547 0.15199999511241913 188 150 152
0.07577566057443619 -0.012416180223226547 0.15199999511241913 186 149 144
0.07613307237625122 -0.012416180223226547 0.15199999511241913 189 152 147
0.07649048417806625 -0.012416180223226547 0.15199999511241913 187 152 147
0.07684789597988129 -0.012416180223226547 0.15199999511241913 186 151 146
0.07720530778169632 -0.012416180223226547 0.15199999511241913 177 141 141
0.07705244421958923 -0.012334494851529598 0.1509999930858612 177 141 141
0.07740750163793564 -0.012334494851529598 0.1509999930858612 177 144 145
0.07776255905628204 -0.012334494851529598 0.1509999930858612 168 135 136
0.07811762392520905 -0.012334494851529598 0.1509999930858612 160 136 140
0.07847268134355545 -0.012334494851529598 0.1509999930858612 160 136 140
0.07882774621248245 -0.012334494851529598 0.1509999930858612 155 132 142
0.07918280363082886 -0.012334494851529598 0.1509999930858612 146 123 133
0.07953786849975586 -0.012334494851529598 0.1509999930858612 149 121 132
0.07989292591810226 -0.012334494851529598 0.1509999930858612 150 122 133
0.08024798333644867 -0.012334494851529598 0.1509999930858612 166 125 133
