0.0834546908736229 -0.012453189119696617 0.12999999523162842 191 153 155
0.08376036584377289 -0.012453189119696617 0.12999999523162842 179 144 141
0.08406604826450348 -0.012453189119696617 0.12999999523162842 183 148 145
0.08437173068523407 -0.012453189119696617 0.12999999523162842 184 152 148
0.0840260460972786 -0.012357395142316818 0.1289999932050705 184 152 148
0.08432938158512115 -0.012357395142316818 0.1289999932050705 182 149 150
0.08463270962238312 -0.012357395142316818 0.1289999932050705 189 156 157
0.08493603765964508 -0.012357395142316818 0.1289999932050705 192 163 167
0.08523936569690704 -0.012357395142316818 0.1289999932050705 181 152 156
0.085542693734169 -0.012357395142316818 0.1289999932050705 181 152 156
0.08584602922201157 -0.012357395142316818 0.1289999932050705 175 146 150
0.08614935725927353 -0.012357395142316818 0.1289999932050705 170 136 142
0.08712286502122879 -0.012453189119696617 0.12999999523162842 173 139 145
0.08742854744195938 -0.012453189119696617 0.12999999523162842 165 131 137
0.08773422241210938 -0.012453189119696617 0.12999999523162842 170 136 142
0.08803990483283997 -0.012453189119696617 0.12999999523162842 171 143 144
0.08834558725357056 -0.012453189119696617 0.12999999523162842 165 137 138
0.08865126967430115 -0.012453189119696617 0.12999999523162842 169 138 136
0.08895695209503174 -0.012453189119696617 0.12999999523162842 162 131 129
0.08926263451576233 -0.012453189119696617 0.12999999523162842 156 123 122
0.08956830948591232 -0.012453189119696617 0.12999999523162842 155 122 121
0.08987399190664291 -0.012453189119696617 0.12999999523162842 158 125 124
0.0901796743273735 -0.012453189119696617 0.12999999523162842 166 133 132
0.0904853567481041 -0.012453189119696617 0.12999999523162842 161 128 129
0.09079103916883469 -0.012453189119696617 0.12999999523162842 162 129 130
0.09109672158956528 -0.012453189119696617 0.12999999523162842 159 127 132
0.09140239655971527 -0.012453189119696617 0.12999999523162842 164 132 137
0.09170807898044586 -0.012453189119696617 0.12999999523162842 158 131 134
0.09201376140117645 -0.012453189119696617 0.12999999523162842 161 134 137
0.09302959591150284 -0.012548983097076416 0.13099999725818634 160 137 136
0.09333762526512146 -0.012548983097076416 0.13099999725818634 157 134 133
0.09364565461874008 -0.012548983097076416 0.13099999725818634 151 125 121
0.09467089176177979 -0.01264477614313364 0.13199999928474426 150 124 120
0.09498127549886703 -0.01264477614313364 0.13199999928474426 154 123 123
0.09529165923595428 -0.01264477614313364 0.13199999928474426 153 122 122
0.0963263064622879 -0.01274057012051344 0.13300000131130219 153 120 123
0.09663903713226318 -0.01274057012051344 0.13300000131130219 160 127 130
0.09695177525281906 -0.01274057012051344 0.13300000131130219 158 129 133
0.097995825111866 -0.012836364097893238 0.1340000033378601 155 126 130
0.0983109101653099 -0.012836364097893238 0.1340000033378601 157 132 144
0.09862599521875381 -0.012836364097893238 0.1340000033378601 156 131 143
0.09894108027219772 -0.012836364097893238 0.1340000033378601 150 126 141
0.09925617277622223 -0.012836364097893238 0.1340000033378601 157 133 148
0.09957125782966614 -0.012836364097893238 0.1340000033378601 154 131 141
0.09988634288311005 -0.012836364097893238 0.1340000033378601 151 128 138
0.10020142793655396 -0.012836364097893238 0.1340000033378601 159 126 129
0.10051652044057846 -0.012836364097893238 0.1340000033378601 161 128 131
0.06366105377674103 -0.013455701060593128 0.14399999380111694 255 222 216
0.06355521082878113 -0.013362258672714233 0.14300000667572021 255 243 237
0.0638914629817009 -0.013362258672714233 0.14300000667572021 255 253 247
0.06377856433391571 -0.013268816284835339 0.1420000046491623 255 253 247
0.06411246210336685 -0.013268816284835339 0.1420000046491623 254 255 249
0.064446359872818 -0.013268816284835339 0.1420000046491623 254 255 249
0.06432405859231949 -0.013175373896956444 0.14100000262260437 254 255 249
0.0646556094288826 -0.013175373896956444 0.14100000262260437 254 255 249
0.06498715281486511 -0.013175373896956444 0.14100000262260437 254 255 249
0.06531869620084763 -0.013175373896956444 0.14100000262260437 253 254 248
0.06565024703741074 -0.013175373896956444 0.14100000262260437 254 255 251
0.06598179042339325 -0.013175373896956444 0.14100000262260437 254 255 251
0.06631334125995636 -0.013175373896956444 0.14100000262260437 255 244 248
0.06617222726345062 -0.013081931509077549 0.14000000059604645 222 200 204
0.06798747181892395 -0.012988489121198654 0.13899999856948853 255 251 235
0.0683143213391304 -0.012988489121198654 0.13899999856948853 255 251 235
0.06864116340875626 -0.012988489121198654 0.13899999856948853 254 255 245
0.06896800547838211 -0.012988489121198654 0.13899999856948853 254 255 245
0.06879632920026779 -0.01289504673331976 0.1379999965429306 254 255 249
0.06912081688642502 -0.01289504673331976 0.1379999965429306 254 255 249
0.06944531202316284 -0.01289504673331976 0.1379999965429306 254 255 249
0.06926422566175461 -0.012801604345440865 0.13699999451637268 254 255 249
0.0695863664150238 -0.012801604345440865 0.13699999451637268 254 255 249
0.06939822435379028 -0.01270816195756197 0.13600000739097595 254 255 249
0.06971801817417145 -0.01270816195756197 0.13600000739097595 254 255 249
0.07003780454397202 -0.01270816195756197 0.13600000739097595 254 255 249
0.06984025985002518 -0.012614719569683075 0.13500000536441803 254 255 249
0.07015769928693771 -0.012614719569683075 0.13500000536441803 254 255 249
0.07047513872385025 -0.012614719569683075 0.13500000536441803 254 255 249
0.0702681839466095 -0.01252127718180418 0.1340000033378601 254 255 249
0.0705832690000534 -0.01252127718180418 0.1340000033378601 254 255 249
0.07089836150407791 -0.01252127718180418 0.1340000033378601 254 255 249
0.07121344655752182 -0.01252127718180418 0.1340000033378601 255 240 241
0.07152853161096573 -0.01252127718180418 0.1340000033378601 243 223 224
0.07255841046571732 -0.012427834793925285 0.13300000131130219 255 253 232
0.0728711485862732 -0.012427834793925285 0.13300000131130219 255 254 233
0.07318388670682907 -0.012427834793925285 0.13300000131130219 254 255 245
0.07349661737680435 -0.012427834793925285 0.13300000131130219 254 255 245
0.07325439900159836 -0.01233439240604639 0.13199999928474426 255 255 251
0.07356478273868561 -0.01233439240604639 0.13199999928474426 254 254 250
0.07387516647577286 -0.01233439240604639 0.13199999928474426 237 220 222
0.07418555021286011 -0.01233439240604639 0.13199999928474426 223 206 208
0.07449593394994736 -0.01233439240604639 0.13199999928474426 228 206 210
0.07423960417509079 -0.012240950018167496 0.13099999725818634 230 208 212
0.07454763352870941 -0.012240950018167496 0.13099999725818634 240 224 231
0.07485567033290863 -0.012240950018167496 0.13099999725818634 255 244 251
0.07516369968652725 -0.012240950018167496 0.13099999725818634 255 252 255
0.07547173649072647 -0.012240950018167496 0.13099999725818634 255 252 255
0.07577976584434509 -0.012240950018167496 0.13099999725818634 255 249 255
0.07608779519796371 -0.012240950018167496 0.13099999725818634 234 221 229
0.07639583200216293 -0.012240950018167496 0.13099999725818634 207 184 192
0.07670386135578156 -0.012240950018167496 0.13099999725818634 208 185 193
0.0764240175485611 -0.012147507630288601 0.12999999523162842 207 179 178
0.07672969996929169 -0.012147507630288601 0.12999999523162842 203 175 174
0.07703538239002228 -0.012147507630288601 0.12999999523162842 200 172 169
0.07734106481075287 -0.012147507630288601 0.12999999523162842 200 172 169
0.07764674723148346 -0.012147507630288601 0.12999999523162842 202 171 173
0.07795242220163345 -0.012147507630288601 0.12999999523162842 204 173 175
0.07825810462236404 -0.012147507630288601 0.12999999523162842 215 185 199
0.07856378704309464 -0.012147507630288601 0.12999999523162842 208 178 192
0.07886946946382523 -0.012147507630288601 0.12999999523162842 210 184 201
0.07917515188455582 -0.012147507630288601 0.12999999523162842 209 183 200
0.07948083430528641 -0.012147507630288601 0.12999999523162842 193 165 176
0.079786516726017 -0.012147507630288601 0.12999999523162842 186 158 169
0.08009219169616699 -0.012147507630288601 0.12999999523162842 176 146 141
0.08039787411689758 -0.012147507630288601 0.12999999523162842 159 129 124
0.08192627876996994 -0.012147507630288601 0.12999999523162842 218 187 185
0.08223196119070053 -0.012147507630288601 0.12999999523162842 200 169 167
0.08253764361143112 -0.012147507630288601 0.12999999523162842 187 158 162
0.08284332603216171 -0.012147507630288601 0.12999999523162842 189 160 164
0.0831490084528923 -0.012147507630288601 0.12999999523162842 195 156 163
0.0834546908736229 -0.012147507630288601 0.12999999523162842 185 146 153
0.08376036584377289 -0.012147507630288601 0.12999999523162842 180 144 144
0.08406604826450348 -0.012147507630288601 0.12999999523162842 183 147 147
0.08437173068523407 -0.012147507630288601 0.12999999523162842 183 147 149
0.0840260460972786 -0.012054065242409706 0.1289999932050705 183 147 149
0.08432938158512115 -0.012054065242409706 0.1289999932050705 180 146 152
0.08463270962238312 -0.012054065242409706 0.1289999932050705 185 151 157
0.08493603765964508 -0.012054065242409706 0.1289999932050705 180 152 153
0.08523936569690704 -0.012054065242409706 0.1289999932050705 181 153 154
0.085542693734169 -0.012054065242409706 0.1289999932050705 173 141 146
0.08584602922201157 -0.012054065242409706 0.1289999932050705 172 140 145
0.08614935725927353 -0.012054065242409706 0.1289999932050705 165 134 136
0.08645268529653549 -0.012054065242409706 0.1289999932050705 166 135 137
0.08742854744195938 -0.012147507630288601 0.12999999523162842 162 130 135
0.08773422241210938 -0.012147507630288601 0.12999999523162842 167 135 140
0.08803990483283997 -0.012147507630288601 0.12999999523162842 170 143 146
0.08834558725357056 -0.012147507630288601 0.12999999523162842 165 138 141
0.08865126967430115 -0.012147507630288601 0.12999999523162842 163 135 134
0.08895695209503174 -0.012147507630288601 0.12999999523162842 158 130 129
0.08926263451576233 -0.012147507630288601 0.12999999523162842 153 120 119
0.08956830948591232 -0.012147507630288601 0.12999999523162842 158 125 124
0.08987399190664291 -0.012147507630288601 0.12999999523162842 160 124 124
0.0901796743273735 -0.012147507630288601 0.12999999523162842 160 124 124
0.0904853567481041 -0.012147507630288601 0.12999999523162842 158 125 126
0.09079103916883469 -0.012147507630288601 0.12999999523162842 161 128 129
0.09109672158956528 -0.012147507630288601 0.12999999523162842 162 130 137
0.09140239655971527 -0.012147507630288601 0.12999999523162842 166 134 141
0.09170807898044586 -0.012147507630288601 0.12999999523162842 162 135 140
0.09272155910730362 -0.012240950018167496 0.13099999725818634 164 137 142
0.09302959591150284 -0.012240950018167496 0.13099999725818634 146 126 127
0.09333762526512146 -0.012240950018167496 0.13099999725818634 143 123 124
0.09364565461874008 -0.012240950018167496 0.13099999725818634 141 120 115
0.09467089176177979 -0.01233439240604639 0.13199999928474426 144 123 118
0.09498127549886703 -0.01233439240604639 0.13199999928474426 151 123 120
0.09529165923595428 -0.01233439240604639 0.13199999928474426 146 118 115
0.0963263064622879 -0.012427834793925285 0.13300000131130219 152 120 125
0.09663903713226318 -0.012427834793925285 0.13300000131130219 154 122 127
0.09695177525281906 -0.012427834793925285 0.13300000131130219 153 121 126
0.097995825111866 -0.01252127718180418 0.1340000033378601 155 123 128
0.0983109101653099 -0.01252127718180418 0.1340000033378601 157 132 142
0.09862599521875381 -0.01252127718180418 0.1340000033378601 160 135 145
0.09894108027219772 -0.01252127718180418 0.1340000033378601 152 129 141
0.09925617277622223 -0.01252127718180418 0.1340000033378601 151 128 140
0.09957125782966614 -0.01252127718180418 0.1340000033378601 151 130 139
0.09988634288311005 -0.01252127718180418 0.1340000033378601 156 135 144
0.10020142793655396 -0.01252127718180418 0.1340000033378601 156 122 128
0.10051652044057846 -0.01252127718180418 0.1340000033378601 153 119 125
0.06366105377674103 -0.013117100112140179 0.14399999380111694 255 222 217
0.06355521082878113 -0.013026009313762188 0.14300000667572021 255 243 238
0.0638914629817009 -0.013026009313762188 0.14300000667572021 255 254 247
0.06377856433391571 -0.012934918515384197 0.1420000046491623 255 254 247
0.06411246210336685 -0.012934918515384197 0.1420000046491623 254 255 249
0.064446359872818 -0.012934918515384197 0.1420000046491623 254 255 249
0.06478025764226913 -0.012934918515384197 0.1420000046491623 254 255 249
0.06511415541172028 -0.012934918515384197 0.1420000046491623 254 255 249
0.06498715281486511 -0.012843827717006207 0.14100000262260437 254 255 249
0.06531869620084763 -0.012843827717006207 0.14100000262260437 254 255 249
0.06565024703741074 -0.012843827717006207 0.14100000262260437 254 255 249
0.06598179042339325 -0.012843827717006207 0.14100000262260437 254 255 249
0.06631334125995636 -0.012843827717006207 0.14100000262260437 255 250 250
0.06617222726345062 -0.012752735987305641 0.14000000059604645 240 228 228
0.0665014237165451 -0.012752735987305641 0.14000000059604645 224 186 188
0.06683062016963959 -0.012752735987305641 0.14000000059604645 222 184 186
0.06798747181892395 -0.01266164518892765 0.13899999856948853 255 253 237
0.0683143213391304 -0.01266164518892765 0.13899999856948853 255 253 237
0.06864116340875626 -0.01266164518892765 0.13899999856948853 254 255 247
0.06896800547838211 -0.01266164518892765 0.13899999856948853 254 255 247
0.06879632920026779 -0.01257055439054966 0.1379999965429306 254 255 249
0.06912081688642502 -0.01257055439054966 0.1379999965429306 254 255 249
0.06944531202316284 -0.01257055439054966 0.1379999965429306 254 255 249
0.06976979970932007 -0.01257055439054966 0.1379999965429306 254 255 249
0.0695863664150238 -0.012479463592171669 0.13699999451637268 254 255 249
0.069908507168293 -0.012479463592171669 0.13699999451637268 254 255 249
0.06971801817417145 -0.012388372793793678 0.13600000739097595 254 255 249
0.07003780454397202 -0.012388372793793678 0.13600000739097595 254 255 249
0.06984025985002518 -0.012297281064093113 0.13500000536441803 254 255 249
0.07015769928693771 -0.012297281064093113 0.13500000536441803 254 255 249
0.07047513872385025 -0.012297281064093113 0.13500000536441803 254 255 249
0.07079257071018219 -0.012297281064093113 0.13500000536441803 254 255 249
0.0705832690000534 -0.012206190265715122 0.1340000033378601 254 255 249
0.07089836150407791 -0.012206190265715122 0.1340000033378601 253 254 248
0.07121344655752182 -0.012206190265715122 0.1340000033378601 255 249 247
0.07152853161096573 -0.012206190265715122 0.1340000033378601 240 228 226
0.07184361666440964 -0.012206190265715122 0.1340000033378601 235 199 201
0.07215870171785355 -0.012206190265715122 0.1340000033378601 231 195 197
0.07255841046571732 -0.012115099467337132 0.13300000131130219 255 252 226
0.0728711485862732 -0.012115099467337132 0.13300000131130219 255 255 229
0.07318388670682907 -0.012115099467337132 0.13300000131130219 255 255 241
0.07349661737680435 -0.012115099467337132 0.13300000131130219 255 255 241
0.07325439900159836 -0.01202400866895914 0.13199999928474426 255 255 249
0.07356478273868561 -0.01202400866895914 0.13199999928474426 255 255 249
0.07387516647577286 -0.01202400866895914 0.13199999928474426 239 224 225
0.07418555021286011 -0.01202400866895914 0.13199999928474426 231 216 217
0.07449593394994736 -0.01202400866895914 0.13199999928474426 221 203 209
0.07423960417509079 -0.01193291787058115 0.13099999725818634 218 200 206
0.07454763352870941 -0.01193291787058115 0.13099999725818634 215 202 206
0.07485567033290863 -0.01193291787058115 0.13099999725818634 255 243 247
0.07516369968652725 -0.01193291787058115 0.13099999725818634 255 251 255
0.07547173649072647 -0.01193291787058115 0.13099999725818634 255 249 254
0.07577976584434509 -0.01193291787058115 0.13099999725818634 255 247 253
0.07608779519796371 -0.01193291787058115 0.13099999725818634 246 235 241
0.07639583200216293 -0.01193291787058115 0.13099999725818634 229 209 212
0.07670386135578156 -0.01193291787058115 0.13099999725818634 218 198 201
0.0764240175485611 -0.011841826140880585 0.12999999523162842 205 179 177
0.07672969996929169 -0.011841826140880585 0.12999999523162842 205 179 177
0.07703538239002228 -0.011841826140880585 0.12999999523162842 201 173 170
0.07734106481075287 -0.011841826140880585 0.12999999523162842 203 175 172
0.07764674723148346 -0.011841826140880585 0.12999999523162842 202 174 171
0.07795242220163345 -0.011841826140880585 0.12999999523162842 201 173 170
0.07825810462236404 -0.011841826140880585 0.12999999523162842 200 175 185
0.07856378704309464 -0.011841826140880585 0.12999999523162842 205 180 190
0.07886946946382523 -0.011841826140880585 0.12999999523162842 201 177 194
0.07917515188455582 -0.011841826140880585 0.12999999523162842 196 172 189
0.07948083430528641 -0.011841826140880585 0.12999999523162842 195 170 182
0.079786516726017 -0.011841826140880585 0.12999999523162842 199 174 186
0.08009219169616699 -0.011841826140880585 0.12999999523162842 182 149 148
0.08039787411689758 -0.011841826140880585 0.12999999523162842 158 125 124
0.08192627876996994 -0.011841826140880585 0.12999999523162842 212 184 181
0.08223196119070053 -0.011841826140880585 0.12999999523162842 208 180 177
0.08253764361143112 -0.011841826140880585 0.12999999523162842 196 172 176
0.08284332603216171 -0.011841826140880585 0.12999999523162842 196 172 176
0.0831490084528923 -0.011841826140880585 0.12999999523162842 195 157 161
0.0834546908736229 -0.011841826140880585 0.12999999523162842 185 147 151
0.08376036584377289 -0.011841826140880585 0.12999999523162842 186 148 150
0.08406604826450348 -0.011841826140880585 0.12999999523162842 187 149 151
0.08437173068523407 -0.011841826140880585 0.12999999523162842 181 148 151
0.0840260460972786 -0.011750735342502594 0.1289999932050705 181 148 151
0.08432938158512115 -0.011750735342502594 0.1289999932050705 180 148 153
0.08463270962238312 -0.011750735342502594 0.1289999932050705 186 154 159
0.08493603765964508 -0.011750735342502594 0.1289999932050705 188 159 163
0.08523936569690704 -0.011750735342502594 0.1289999932050705 178 149 153
0.085542693734169 -0.011750735342502594 0.1289999932050705 172 143 147
0.08584602922201157 -0.011750735342502594 0.1289999932050705 169 140 144
0.08614935725927353 -0.011750735342502594 0.1289999932050705 164 132 137
0.08645268529653549 -0.011750735342502594 0.1289999932050705 162 130 135
0.08742854744195938 -0.011841826140880585 0.12999999523162842 156 127 133
0.08773422241210938 -0.011841826140880585 0.12999999523162842 163 134 140
0.08803990483283997 -0.011841826140880585 0.12999999523162842 164 135 141
0.08834558725357056 -0.011841826140880585 0.12999999523162842 163 134 140
0.08865126967430115 -0.011841826140880585 0.12999999523162842 158 126 131
0.08895695209503174 -0.011841826140880585 0.12999999523162842 157 125 130
0.08926263451576233 -0.011841826140880585 0.12999999523162842 160 124 124
0.08956830948591232 -0.011841826140880585 0.12999999523162842 160 124 124
0.08987399190664291 -0.011841826140880585 0.12999999523162842 160 124 124
0.0901796743273735 -0.011841826140880585 0.12999999523162842 157 121 121
0.0904853567481041 -0.011841826140880585 0.12999999523162842 151 118 119
0.09079103916883469 -0.011841826140880585 0.12999999523162842 160 127 128
0.09109672158956528 -0.011841826140880585 0.12999999523162842 162 133 139
0.09210549294948578 -0.01193291787058115 0.13099999725818634 165 136 142
0.092413529753685 -0.01193291787058115 0.13099999725818634 160 137 147
0.09272155910730362 -0.01193291787058115 0.13099999725818634 155 132 142
0.09302959591150284 -0.01193291787058115 0.13099999725818634 145 125 128
0.09333762526512146 -0.01193291787058115 0.13099999725818634 146 126 129
0.09436050802469254 -0.01202400866895914 0.13199999928474426 141 120 119
0.09467089176177979 -0.01202400866895914 0.13199999928474426 143 122 121
0.09498127549886703 -0.01202400866895914 0.13199999928474426 145 119 117
0.09601356834173203 -0.012115099467337132 0.13300000131130219 143 117 115
0.0963263064622879 -0.012115099467337132 0.13300000131130219 152 121 123
0.09663903713226318 -0.012115099467337132 0.13300000131130219 157 126 128
0.09768073260784149 -0.012206190265715122 0.1340000033378601 158 126 131
0.097995825111866 -0.012206190265715122 0.1340000033378601 161 129 134
0.0983109101653099 -0.012206190265715122 0.1340000033378601 163 136 141
0.09862599521875381 -0.012206190265715122 0.1340000033378601 162 135 140
0.09894108027219772 -0.012206190265715122 0.1340000033378601 160 135 143
0.09925617277622223 -0.012206190265715122 0.1340000033378601 153 128 136
0.09957125782966614 -0.012206190265715122 0.1340000033378601 153 130 138
0.09988634288311005 -0.012206190265715122 0.1340000033378601 155 132 140
0.10020142793655396 -0.012206190265715122 0.1340000033378601 154 122 127
0.10051652044057846 -0.012206190265715122 0.1340000033378601 153 121 126
0.06355521082878113 -0.012689759954810143 0.14300000667572021 255 241 236
0.0638914629817009 -0.012689759954810143 0.14300000667572021 255 254 247
0.06377856433391571 -0.012601020745933056 0.1420000046491623 255 254 247
0.06411246210336685 -0.012601020745933056 0.1420000046491623 254 255 249
0.064446359872818 -0.012601020745933056 0.1420000046491623 254 255 249
0.06478025764226913 -0.012601020745933056 0.1420000046491623 254 255 249
0.06511415541172028 -0.012601020745933056 0.1420000046491623 254 255 249
0.06498715281486511 -0.012512280605733395 0.14100000262260437 254 255 251
0.06531869620084763 -0.012512280605733395 0.14100000262260437 254 255 251
0.06565024703741074 -0.012512280605733395 0.14100000262260437 254 255 251
0.06598179042339325 -0.012512280605733395 0.14100000262260437 254 255 251
0.06631334125995636 -0.012512280605733395 0.14100000262260437 255 253 251
0.06617222726345062 -0.012423541396856308 0.14000000059604645 250 245 243
0.0665014237165451 -0.012423541396856308 0.14000000059604645 238 206 211
0.06683062016963959 -0.012423541396856308 0.14000000059604645 219 187 192
0.06798747181892395 -0.012334801256656647 0.13899999856948853 255 252 233
0.0683143213391304 -0.012334801256656647 0.13899999856948853 255 253 234
0.06864116340875626 -0.012334801256656647 0.13899999856948853 254 255 247
0.06896800547838211 -0.012334801256656647 0.13899999856948853 254 255 247
0.06879632920026779 -0.01224606204777956 0.1379999965429306 254 255 249
0.06912081688642502 -0.01224606204777956 0.1379999965429306 254 255 249
0.06944531202316284 -0.01224606204777956 0.1379999965429306 254 255 249
0.06976979970932007 -0.01224606204777956 0.1379999965429306 254 255 249
0.0695863664150238 -0.012157322838902473 0.13699999451637268 254 255 249
0.069908507168293 -0.012157322838902473 0.13699999451637268 254 255 249
0.0702306479215622 -0.012157322838902473 0.13699999451637268 254 255 249
0.07003780454397202 -0.012068582698702812 0.13600000739097595 254 255 249
0.07035759091377258 -0.012068582698702812 0.13600000739097595 254 255 249
0.07015769928693771 -0.011979843489825726 0.13500000536441803 254 255 249
0.07047513872385025 -0.011979843489825726 0.13500000536441803 254 255 249
0.07079257071018219 -0.011979843489825726 0.13500000536441803 254 255 249
0.0705832690000534 -0.011891103349626064 0.1340000033378601 254 255 249
0.07089836150407791 -0.011891103349626064 0.1340000033378601 254 255 249
0.07121344655752182 -0.011891103349626064 0.1340000033378601 255 251 249
0.07152853161096573 -0.011891103349626064 0.1340000033378601 246 234 232
0.07184361666440964 -0.011891103349626064 0.1340000033378601 229 198 198
0.07215870171785355 -0.011891103349626064 0.1340000033378601 211 180 180
0.0728711485862732 -0.011802364140748978 0.13300000131130219 255 253 225
0.07318388670682907 -0.011802364140748978 0.13300000131130219 255 255 239
0.07349661737680435 -0.011802364140748978 0.13300000131130219 255 255 239
0.07380935549736023 -0.011802364140748978 0.13300000131130219 255 255 249
0.07356478273868561 -0.011713624931871891 0.13199999928474426 247 247 241
0.07387516647577286 -0.011713624931871891 0.13199999928474426 242 229 233
0.07418555021286011 -0.011713624931871891 0.13199999928474426 225 212 216
0.07449593394994736 -0.011713624931871891 0.13199999928474426 225 209 214
0.07423960417509079 -0.01162488479167223 0.13099999725818634 227 211 216
0.07454763352870941 -0.01162488479167223 0.13099999725818634 221 210 214
0.07485567033290863 -0.01162488479167223 0.13099999725818634 243 232 236
0.07516369968652725 -0.01162488479167223 0.13099999725818634 255 249 254
0.07547173649072647 -0.01162488479167223 0.13099999725818634 255 250 255
0.07577976584434509 -0.01162488479167223 0.13099999725818634 255 249 255
0.07608779519796371 -0.01162488479167223 0.13099999725818634 252 241 249
0.07639583200216293 -0.01162488479167223 0.13099999725818634 240 223 235
0.07670386135578156 -0.01162488479167223 0.13099999725818634 221 204 216
0.0764240175485611 -0.011536145582795143 0.12999999523162842 208 187 184
0.07672969996929169 -0.011536145582795143 0.12999999523162842 200 179 176
0.07703538239002228 -0.011536145582795143 0.12999999523162842 196 174 166
0.07734106481075287 -0.011536145582795143 0.12999999523162842 196 174 166
0.07764674723148346 -0.011536145582795143 0.12999999523162842 196 173 168
0.07795242220163345 -0.011536145582795143 0.12999999523162842 198 175 170
0.07825810462236404 -0.011536145582795143 0.12999999523162842 198 175 183
0.07856378704309464 -0.011536145582795143 0.12999999523162842 201 178 186
0.07886946946382523 -0.011536145582795143 0.12999999523162842 194 176 186
0.07917515188455582 -0.011536145582795143 0.12999999523162842 195 177 187
0.07948083430528641 -0.011536145582795143 0.12999999523162842 195 169 184
0.079786516726017 -0.011536145582795143 0.12999999523162842 177 151 166
0.08009219169616699 -0.011536145582795143 0.12999999523162842 187 151 153
0.08039787411689758 -0.011536145582795143 0.12999999523162842 155 119 121
0.08192627876996994 -0.011536145582795143 0.12999999523162842 207 179 176
0.08223196119070053 -0.011536145582795143 0.12999999523162842 205 177 174
0.08253764361143112 -0.011536145582795143 0.12999999523162842 195 168 171
0.08284332603216171 -0.011536145582795143 0.12999999523162842 201 174 177
0.0831490084528923 -0.011536145582795143 0.12999999523162842 196 157 164
0.0834546908736229 -0.011536145582795143 0.12999999523162842 191 152 159
0.08376036584377289 -0.011536145582795143 0.12999999523162842 189 151 155
0.08406604826450348 -0.011536145582795143 0.12999999523162842 185 147 151
0.08437173068523407 -0.011536145582795143 0.12999999523162842 178 145 148
0.0840260460972786 -0.011447405442595482 0.1289999932050705 177 144 147
0.08432938158512115 -0.011447405442595482 0.1289999932050705 179 150 156
0.08463270962238312 -0.011447405442595482 0.1289999932050705 179 150 156
0.08493603765964508 -0.011447405442595482 0.1289999932050705 173 144 148
0.08523936569690704 -0.011447405442595482 0.1289999932050705 173 144 148
0.085542693734169 -0.011447405442595482 0.1289999932050705 172 145 148
0.08584602922201157 -0.011447405442595482 0.1289999932050705 169 142 145
0.08614935725927353 -0.011447405442595482 0.1289999932050705 157 130 133
0.08712286502122879 -0.011536145582795143 0.12999999523162842 161 134 137
0.08742854744195938 -0.011536145582795143 0.12999999523162842 159 132 137
0.08773422241210938 -0.011536145582795143 0.12999999523162842 169 142 147
0.08803990483283997 -0.011536145582795143 0.12999999523162842 169 141 150
0.08834558725357056 -0.011536145582795143 0.12999999523162842 165 137 146
0.08865126967430115 -0.011536145582795143 0.12999999523162842 154 119 133
0.08895695209503174 -0.011536145582795143 0.12999999523162842 151 116 130
0.08987399190664291 -0.011536145582795143 0.12999999523162842 154 118 120
0.0901796743273735 -0.011536145582795143 0.12999999523162842 149 113 115
0.0904853567481041 -0.011536145582795143 0.12999999523162842 149 116 117
0.09148942679166794 -0.01162488479167223 0.13099999725818634 159 126 127
0.09179746359586716 -0.01162488479167223 0.13099999725818634 158 129 135
0.09210549294948578 -0.01162488479167223 0.13099999725818634 163 134 140
0.092413529753685 -0.01162488479167223 0.13099999725818634 158 135 145
0.09272155910730362 -0.01162488479167223 0.13099999725818634 153 130 140
0.09302959591150284 -0.01162488479167223 0.13099999725818634 143 122 129
0.09405012428760529 -0.011713624931871891 0.13199999928474426 145 124 131
0.09436050802469254 -0.011713624931871891 0.13199999928474426 147 123 125
0.09467089176177979 -0.011713624931871891 0.13199999928474426 146 122 124
0.09570083022117615 -0.011802364140748978 0.13300000131130219 146 118 119
0.09601356834173203 -0.011802364140748978 0.13300000131130219 143 115 116
0.0963263064622879 -0.011802364140748978 0.13300000131130219 145 114 116
0.09663903713226318 -0.011802364140748978 0.13300000131130219 152 121 123
0.09768073260784149 -0.011891103349626064 0.1340000033378601 155 124 126
0.097995825111866 -0.011891103349626064 0.1340000033378601 159 128 130
0.0983109101653099 -0.011891103349626064 0.1340000033378601 162 133 137
0.09862599521875381 -0.011891103349626064 0.1340000033378601 164 135 139
0.09894108027219772 -0.011891103349626064 0.1340000033378601 161 137 141
0.09925617277622223 -0.011891103349626064 0.1340000033378601 161 137 141
0.09957125782966614 -0.011891103349626064 0.1340000033378601 160 136 140
0.09988634288311005 -0.011891103349626064 0.1340000033378601 159 135 139
0.10020142793655396 -0.011891103349626064 0.1340000033378601 161 129 134
0.10051652044057846 -0.011891103349626064 0.1340000033378601 153 121 126
0.06366105377674103 -0.012439899146556854 0.14399999380111694 254 222 216
0.06355521082878113 -0.012353510595858097 0.14300000667572021 255 241 235
0.0638914629817009 -0.012353510595858097 0.14300000667572021 255 255 247
0.06377856433391571 -0.01226712204515934 0.1420000046491623 255 255 247
0.06411246210336685 -0.01226712204515934 0.1420000046491623 254 255 249
0.064446359872818 -0.01226712204515934 0.1420000046491623 254 255 249
0.06478025764226913 -0.01226712204515934 0.1420000046491623 254 255 249
0.06511415541172028 -0.01226712204515934 0.1420000046491623 254 255 249
0.06498715281486511 -0.012180734425783157 0.14100000262260437 254 255 249
0.06531869620084763 -0.012180734425783157 0.14100000262260437 254 255 249
0.06565024703741074 -0.012180734425783157 0.14100000262260437 254 255 249
0.06598179042339325 -0.012180734425783157 0.14100000262260437 254 255 249
0.06584303081035614 -0.0120943458750844 0.14000000059604645 255 255 251
0.06617222726345062 -0.0120943458750844 0.14000000059604645 254 254 250
0.0665014237165451 -0.0120943458750844 0.14000000059604645 232 209 217
0.06683062016963959 -0.0120943458750844 0.14000000059604645 217 194 202
0.06668009608983994 -0.012007957324385643 0.13899999856948853 214 176 178
0.06700694561004639 -0.012007957324385643 0.13899999856948853 210 172 174
0.06798747181892395 -0.012007957324385643 0.13899999856948853 255 248 224
0.0683143213391304 -0.012007957324385643 0.13899999856948853 255 253 229
0.06864116340875626 -0.012007957324385643 0.13899999856948853 255 255 243
0.06896800547838211 -0.012007957324385643 0.13899999856948853 255 255 243
0.06879632920026779 -0.01192156970500946 0.1379999965429306 254 255 249
0.06912081688642502 -0.01192156970500946 0.1379999965429306 254 255 249
0.06944531202316284 -0.01192156970500946 0.1379999965429306 254 255 249
0.06976979970932007 -0.01192156970500946 0.1379999965429306 254 255 249
0.07009429484605789 -0.01192156970500946 0.1379999965429306 254 255 249
0.069908507168293 -0.011835181154310703 0.13699999451637268 254 255 249
0.0702306479215622 -0.011835181154310703 0.13699999451637268 254 255 249
0.07003780454397202 -0.01174879353493452 0.13600000739097595 254 255 249
0.07035759091377258 -0.01174879353493452 0.13600000739097595 254 255 249
0.07067738473415375 -0.01174879353493452 0.13600000739097595 254 255 249
0.07047513872385025 -0.011662404984235764 0.13500000536441803 254 255 249
0.07079257071018219 -0.011662404984235764 0.13500000536441803 254 255 249
0.0705832690000534 -0.011576016433537006 0.1340000033378601 255 255 249
0.07089836150407791 -0.011576016433537006 0.1340000033378601 255 255 249
0.07121344655752182 -0.011576016433537006 0.1340000033378601 255 247 255
0.07152853161096573 -0.011576016433537006 0.1340000033378601 248 230 240
0.07184361666440964 -0.011576016433537006 0.1340000033378601 230 196 202
0.07215870171785355 -0.011576016433537006 0.1340000033378601 211 177 183
0.0728711485862732 -0.011489628814160824 0.13300000131130219 255 251 221
0.07318388670682907 -0.011489628814160824 0.13300000131130219 255 255 233
0.07349661737680435 -0.011489628814160824 0.13300000131130219 255 255 233
0.07380935549736023 -0.011489628814160824 0.13300000131130219 254 255 244
0.07356478273868561 -0.011403240263462067 0.13199999928474426 245 246 235
0.07387516647577286 -0.011403240263462067 0.13199999928474426 251 240 244
0.07418555021286011 -0.011403240263462067 0.13199999928474426 224 213 217
0.07449593394994736 -0.011403240263462067 0.13199999928474426 232 216 223
0.0748063176870346 -0.011403240263462067 0.13199999928474426 226 210 217
0.07454763352870941 -0.011316852644085884 0.13099999725818634 217 206 212
0.07485567033290863 -0.011316852644085884 0.13099999725818634 235 224 230
0.07516369968652725 -0.011316852644085884 0.13099999725818634 253 242 248
0.07547173649072647 -0.011316852644085884 0.13099999725818634 255 247 253
0.07577976584434509 -0.011316852644085884 0.13099999725818634 253 241 252
0.07608779519796371 -0.011316852644085884 0.13099999725818634 242 230 241
0.07639583200216293 -0.011316852644085884 0.13099999725818634 217 203 218
0.07670386135578156 -0.011316852644085884 0.13099999725818634 211 197 212
0.0764240175485611 -0.011230464093387127 0.12999999523162842 203 182 189
0.07672969996929169 -0.011230464093387127 0.12999999523162842 195 174 181
0.07703538239002228 -0.011230464093387127 0.12999999523162842 194 173 168
0.07734106481075287 -0.011230464093387127 0.12999999523162842 191 170 165
0.07764674723148346 -0.011230464093387127 0.12999999523162842 194 173 168
0.07795242220163345 -0.011230464093387127 0.12999999523162842 194 173 168
0.07825810462236404 -0.011230464093387127 0.12999999523162842 193 171 173
0.07856378704309464 -0.011230464093387127 0.12999999523162842 193 171 173
0.07886946946382523 -0.011230464093387127 0.12999999523162842 193 172 179
0.07917515188455582 -0.011230464093387127 0.12999999523162842 202 181 188
0.07948083430528641 -0.011230464093387127 0.12999999523162842 198 173 185
0.079786516726017 -0.011230464093387127 0.12999999523162842 160 135 147
0.08192627876996994 -0.011230464093387127 0.12999999523162842 203 176 170
0.08223196119070053 -0.011230464093387127 0.12999999523162842 189 162 156
0.08253764361143112 -0.011230464093387127 0.12999999523162842 187 160 163
0.08284332603216171 -0.011230464093387127 0.12999999523162842 192 165 168
0.0831490084528923 -0.011230464093387127 0.12999999523162842 184 147 156
0.0834546908736229 -0.011230464093387127 0.12999999523162842 179 142 151
0.08437173068523407 -0.011230464093387127 0.12999999523162842 178 142 146
0.0840260460972786 -0.01114407554268837 0.1289999932050705 175 139 143
0.08432938158512115 -0.01114407554268837 0.1289999932050705 177 143 149
0.08463270962238312 -0.01114407554268837 0.1289999932050705 181 147 153
0.08493603765964508 -0.01114407554268837 0.1289999932050705 173 144 150
0.08523936569690704 -0.01114407554268837 0.1289999932050705 169 140 146
0.085542693734169 -0.01114407554268837 0.1289999932050705 166 139 142
0.08584602922201157 -0.01114407554268837 0.1289999932050705 163 136 139
0.08614935725927353 -0.01114407554268837 0.1289999932050705 162 135 138
0.08712286502122879 -0.011230464093387127 0.12999999523162842 158 131 134
0.08742854744195938 -0.011230464093387127 0.12999999523162842 161 134 137
0.08773422241210938 -0.011230464093387127 0.12999999523162842 158 131 134
0.08803990483283997 -0.011230464093387127 0.12999999523162842 163 136 141
0.08834558725357056 -0.011230464093387127 0.12999999523162842 156 129 134
0.09118139743804932 -0.011316852644085884 0.13099999725818634 148 110 114
0.09148942679166794 -0.011316852644085884 0.13099999725818634 143 105 109
0.09179746359586716 -0.011316852644085884 0.13099999725818634 155 122 125
0.09210549294948578 -0.011316852644085884 0.13099999725818634 152 119 122
0.092413529753685 -0.011316852644085884 0.13099999725818634 146 114 119
0.09272155910730362 -0.011316852644085884 0.13099999725818634 152 120 125
0.09302959591150284 -0.011316852644085884 0.13099999725818634 146 112 120
0.09405012428760529 -0.011403240263462067 0.13199999928474426 146 112 120
0.09768073260784149 -0.011576016433537006 0.1340000033378601 160 129 127
0.097995825111866 -0.011576016433537006 0.1340000033378601 162 131 129
0.0983109101653099 -0.011576016433537006 0.1340000033378601 163 135 134
0.09862599521875381 -0.011576016433537006 0.1340000033378601 164 136 135
0.09894108027219772 -0.011576016433537006 0.1340000033378601 159 137 139
0.09925617277622223 -0.011576016433537006 0.1340000033378601 167 145 147
0.09957125782966614 -0.011576016433537006 0.1340000033378601 156 139 141
0.09988634288311005 -0.011576016433537006 0.1340000033378601 156 139 141
0.10020142793655396 -0.011576016433537006 0.1340000033378601 161 134 137
0.10051652044057846 -0.011576016433537006 0.1340000033378601 156 129 132
0.06366105377674103 -0.012101298198103905 0.14399999380111694 251 224 216
0.06355521082878113 -0.012017261236906052 0.14300000667572021 255 244 236
0.0638914629817009 -0.012017261236906052 0.14300000667572021 255 255 247
0.06377856433391571 -0.011933224275708199 0.1420000046491623 255 255 247
0.06411246210336685 -0.011933224275708199 0.1420000046491623 254 255 249
0.064446359872818 -0.011933224275708199 0.1420000046491623 254 255 249
0.06432405859231949 -0.011849187314510345 0.14100000262260437 254 255 249
0.0646556094288826 -0.011849187314510345 0.14100000262260437 254 255 249
0.06498715281486511 -0.011849187314510345 0.14100000262260437 254 255 249
0.06531869620084763 -0.011849187314510345 0.14100000262260437 254 255 249
0.06565024703741074 -0.011849187314510345 0.14100000262260437 254 255 249
0.06598179042339325 -0.011849187314510345 0.14100000262260437 254 255 249
0.06584303081035614 -0.011765150353312492 0.14000000059604645 255 255 251
0.06617222726345062 -0.011765150353312492 0.14000000059604645 255 255 251
0.0665014237165451 -0.011765150353312492 0.14000000059604645 239 216 226
0.06683062016963959 -0.011765150353312492 0.14000000059604645 196 173 183
0.06798747181892395 -0.011681114323437214 0.13899999856948853 255 239 218
0.0683143213391304 -0.011681114323437214 0.13899999856948853 255 250 229
0.06864116340875626 -0.011681114323437214 0.13899999856948853 255 255 243
0.06896800547838211 -0.011681114323437214 0.13899999856948853 255 255 243
0.06879632920026779 -0.01159707736223936 0.1379999965429306 254 255 249
0.06912081688642502 -0.01159707736223936 0.1379999965429306 254 255 249
0.06944531202316284 -0.01159707736223936 0.1379999965429306 254 255 249
0.06976979970932007 -0.01159707736223936 0.1379999965429306 254 255 249
0.07009429484605789 -0.01159707736223936 0.1379999965429306 254 255 249
0.069908507168293 -0.011513040401041508 0.13699999451637268 254 255 249
0.0702306479215622 -0.011513040401041508 0.13699999451637268 254 255 249
0.07055278867483139 -0.011513040401041508 0.13699999451637268 254 255 249
0.07047513872385025 -0.011344966478645802 0.13500000536441803 254 255 249
0.07079257071018219 -0.011344966478645802 0.13500000536441803 254 255 249
0.0705832690000534 -0.011260930448770523 0.1340000033378601 255 251 255
0.07089836150407791 -0.011260930448770523 0.1340000033378601 249 240 245
0.07121344655752182 -0.011260930448770523 0.1340000033378601 237 213 228
0.07152853161096573 -0.011260930448770523 0.1340000033378601 219 195 210
0.07184361666440964 -0.011260930448770523 0.1340000033378601 213 176 185
0.07215870171785355 -0.011260930448770523 0.1340000033378601 200 163 172
0.07318388670682907 -0.01117689348757267 0.13300000131130219 255 253 229
0.07349661737680435 -0.01117689348757267 0.13300000131130219 255 253 229
0.07380935549736023 -0.01117689348757267 0.13300000131130219 255 255 245
0.07412209361791611 -0.01117689348757267 0.13300000131130219 255 255 245
0.07443482428789139 -0.01117689348757267 0.13300000131130219 250 239 245
0.07418555021286011 -0.011092856526374817 0.13199999928474426 229 218 224
0.07449593394994736 -0.011092856526374817 0.13199999928474426 232 214 224
0.0748063176870346 -0.011092856526374817 0.13199999928474426 229 211 221
0.07454763352870941 -0.011008819565176964 0.13099999725818634 230 217 225
0.07485567033290863 -0.011008819565176964 0.13099999725818634 246 233 241
0.07516369968652725 -0.011008819565176964 0.13099999725818634 253 236 250
0.07547173649072647 -0.011008819565176964 0.13099999725818634 235 218 232
0.07577976584434509 -0.011008819565176964 0.13099999725818634 246 231 249
0.07608779519796371 -0.011008819565176964 0.13099999725818634 240 225 243
0.07639583200216293 -0.011008819565176964 0.13099999725818634 200 182 203
0.07670386135578156 -0.011008819565176964 0.13099999725818634 190 172 193
0.0764240175485611 -0.01092478260397911 0.12999999523162842 191 173 183
0.07672969996929169 -0.01092478260397911 0.12999999523162842 185 167 177
0.07703538239002228 -0.01092478260397911 0.12999999523162842 190 174 169
0.07734106481075287 -0.01092478260397911 0.12999999523162842 194 178 173
0.07764674723148346 -0.01092478260397911 0.12999999523162842 187 168 164
0.07795242220163345 -0.01092478260397911 0.12999999523162842 186 167 163
0.07825810462236404 -0.01092478260397911 0.12999999523162842 182 163 161
0.07856378704309464 -0.01092478260397911 0.12999999523162842 183 164 162
0.07886946946382523 -0.01092478260397911 0.12999999523162842 191 169 173
0.07917515188455582 -0.01092478260397911 0.12999999523162842 189 167 171
0.07948083430528641 -0.01092478260397911 0.12999999523162842 171 138 149
0.079786516726017 -0.01092478260397911 0.12999999523162842 166 133 144
0.08253764361143112 -0.01092478260397911 0.12999999523162842 183 150 151
0.08284332603216171 -0.01092478260397911 0.12999999523162842 183 150 151
0.08432938158512115 -0.010840745642781258 0.1289999932050705 174 138 140
0.08463270962238312 -0.010840745642781258 0.1289999932050705 170 134 136
0.08493603765964508 -0.010840745642781258 0.1289999932050705 177 143 149
0.08523936569690704 -0.010840745642781258 0.1289999932050705 163 129 135
0.085542693734169 -0.010840745642781258 0.1289999932050705 161 130 132
0.08584602922201157 -0.010840745642781258 0.1289999932050705 164 133 135
0.08614935725927353 -0.010840745642781258 0.1289999932050705 162 134 133
0.08712286502122879 -0.01092478260397911 0.12999999523162842 165 137 136
0.08742854744195938 -0.01092478260397911 0.12999999523162842 153 125 126
0.08773422241210938 -0.01092478260397911 0.12999999523162842 149 121 122
0.08803990483283997 -0.01092478260397911 0.12999999523162842 167 133 139
0.08834558725357056 -0.01092478260397911 0.12999999523162842 147 113 119
0.08987399190664291 -0.01092478260397911 0.12999999523162842 155 116 125
0.0908733680844307 -0.011008819565176964 0.13099999725818634 149 110 119
0.09118139743804932 -0.011008819565176964 0.13099999725818634 151 112 119
0.09148942679166794 -0.011008819565176964 0.13099999725818634 149 110 117
0.09179746359586716 -0.011008819565176964 0.13099999725818634 135 97 101
0.09210549294948578 -0.011008819565176964 0.13099999725818634 148 110 114
0.0983109101653099 -0.011260930448770523 0.1340000033378601 158 132 128
0.09862599521875381 -0.011260930448770523 0.1340000033378601 159 133 129
0.09894108027219772 -0.011260930448770523 0.1340000033378601 161 140 139
0.09925617277622223 -0.011260930448770523 0.1340000033378601 167 146 145
0.09957125782966614 -0.011260930448770523 0.1340000033378601 155 140 141
0.09988634288311005 -0.011260930448770523 0.1340000033378601 155 140 141
0.10020142793655396 -0.011260930448770523 0.1340000033378601 161 134 139
0.10051652044057846 -0.011260930448770523 0.1340000033378601 154 127 132
0.06366105377674103 -0.011762697249650955 0.14399999380111694 255 238 232
0.06355521082878113 -0.011681011877954006 0.14300000667572021 255 245 239
0.0638914629817009 -0.011681011877954006 0.14300000667572021 254 254 248
0.06377856433391571 -0.011599326506257057 0.1420000046491623 255 255 249
0.06411246210336685 -0.011599326506257057 0.1420000046491623 254 255 249
0.064446359872818 -0.011599326506257057 0.1420000046491623 254 255 249
0.06432405859231949 -0.011517641134560108 0.14100000262260437 254 255 249
0.0646556094288826 -0.011517641134560108 0.14100000262260437 254 255 249
0.06498715281486511 -0.011517641134560108 0.14100000262260437 254 255 251
0.06531869620084763 -0.011517641134560108 0.14100000262260437 254 255 251
0.06565024703741074 -0.011517641134560108 0.14100000262260437 254 255 251
0.06598179042339325 -0.011517641134560108 0.14100000262260437 254 255 251
0.06584303081035614 -0.01143595576286316 0.14000000059604645 255 253 254
0.06617222726345062 -0.01143595576286316 0.14000000059604645 249 245 246
0.0665014237165451 -0.01143595576286316 0.14000000059604645 242 214 225
0.06635325402021408 -0.01135427039116621 0.13899999856948853 211 183 194
0.0683143213391304 -0.01135427039116621 0.13899999856948853 255 243 223
0.06864116340875626 -0.01135427039116621 0.13899999856948853 255 255 239
0.06847183406352997 -0.011272585019469261 0.1379999965429306 255 255 239
0.06879632920026779 -0.011272585019469261 0.1379999965429306 254 255 247
0.06912081688642502 -0.011272585019469261 0.1379999965429306 254 255 247
0.06944531202316284 -0.011272585019469261 0.1379999965429306 254 255 249
0.06976979970932007 -0.011272585019469261 0.1379999965429306 254 255 249
0.07009429484605789 -0.011272585019469261 0.1379999965429306 254 255 249
0.069908507168293 -0.011190899647772312 0.13699999451637268 254 255 249
0.0702306479215622 -0.011190899647772312 0.13699999451637268 254 255 249
0.07003780454397202 -0.011109214276075363 0.13600000739097595 254 255 249
0.07035759091377258 -0.011109214276075363 0.13600000739097595 253 254 248
0.07067738473415375 -0.011109214276075363 0.13600000739097595 254 255 249
0.07047513872385025 -0.011027528904378414 0.13500000536441803 255 252 250
0.07079257071018219 -0.011027528904378414 0.13500000536441803 255 253 251
0.07111001014709473 -0.011027528904378414 0.13500000536441803 255 241 251
0.07089836150407791 -0.010945843532681465 0.1340000033378601 241 218 228
0.07121344655752182 -0.010945843532681465 0.1340000033378601 223 188 204
0.07152853161096573 -0.010945843532681465 0.1340000033378601 213 178 194
0.07349661737680435 -0.010864158160984516 0.13300000131130219 255 234 218
0.07380935549736023 -0.010864158160984516 0.13300000131130219 255 246 240
0.07412209361791611 -0.010864158160984516 0.13300000131130219 255 246 240
0.07443482428789139 -0.010864158160984516 0.13300000131130219 255 235 242
0.07418555021286011 -0.010782472789287567 0.13199999928474426 250 229 236
0.07449593394994736 -0.010782472789287567 0.13199999928474426 237 214 222
0.0748063176870346 -0.010782472789287567 0.13199999928474426 219 196 204
0.07454763352870941 -0.010700787417590618 0.13099999725818634 224 199 209
0.07485567033290863 -0.010700787417590618 0.13099999725818634 226 201 211
0.07516369968652725 -0.010700787417590618 0.13099999725818634 221 193 206
0.07547173649072647 -0.010700787417590618 0.13099999725818634 227 199 212
0.07577976584434509 -0.010700787417590618 0.13099999725818634 234 205 223
0.07608779519796371 -0.010700787417590618 0.13099999725818634 211 182 200
0.07639583200216293 -0.010700787417590618 0.13099999725818634 197 168 188
0.07670386135578156 -0.010700787417590618 0.13099999725818634 190 161 181
0.0764240175485611 -0.010619102045893669 0.12999999523162842 192 164 173
