0.08705934882164001 -0.013874044641852379 0.1289999932050705 174 136 136
0.08736267685890198 -0.013874044641852379 0.1289999932050705 174 138 138
0.08834558725357056 -0.013981594704091549 0.12999999523162842 172 136 136
0.08865126967430115 -0.013981594704091549 0.12999999523162842 164 133 131
0.08895695209503174 -0.013981594704091549 0.12999999523162842 155 124 122
0.08926263451576233 -0.013981594704091549 0.12999999523162842 154 123 121
0.08956830948591232 -0.013981594704091549 0.12999999523162842 155 124 122
0.08987399190664291 -0.013981594704091549 0.12999999523162842 157 127 120
0.0908733680844307 -0.014089145697653294 0.13099999725818634 164 134 127
0.09118139743804932 -0.014089145697653294 0.13099999725818634 167 137 132
0.09148942679166794 -0.014089145697653294 0.13099999725818634 158 128 123
0.09179746359586716 -0.014089145697653294 0.13099999725818634 162 126 128
0.09210549294948578 -0.014089145697653294 0.13099999725818634 162 126 128
0.092413529753685 -0.014089145697653294 0.13099999725818634 165 127 127
0.09272155910730362 -0.014089145697653294 0.13099999725818634 160 122 122
0.09302959591150284 -0.014089145697653294 0.13099999725818634 154 122 118
0.09405012428760529 -0.014196696691215038 0.13199999928474426 154 122 118
0.09436050802469254 -0.014196696691215038 0.13199999928474426 156 124 120
0.09467089176177979 -0.014196696691215038 0.13199999928474426 156 124 120
0.09570083022117615 -0.014304247684776783 0.13300000131130219 157 122 119
0.09601356834173203 -0.014304247684776783 0.13300000131130219 158 123 120
0.09695177525281906 -0.014304247684776783 0.13300000131130219 165 129 129
0.09726451337337494 -0.014304247684776783 0.13300000131130219 167 131 131
0.09757724404335022 -0.014304247684776783 0.13300000131130219 165 132 135
0.09862599521875381 -0.014411797747015953 0.1340000033378601 161 128 131
0.09894108027219772 -0.014411797747015953 0.1340000033378601 157 133 137
0.09925617277622223 -0.014411797747015953 0.1340000033378601 152 128 132
0.09957125782966614 -0.014411797747015953 0.1340000033378601 148 125 133
0.09988634288311005 -0.014411797747015953 0.1340000033378601 148 125 133
0.06798747181892395 -0.014622707851231098 0.13899999856948853 255 248 235
0.0683143213391304 -0.014622707851231098 0.13899999856948853 255 248 235
0.06864116340875626 -0.014622707851231098 0.13899999856948853 255 255 245
0.06896800547838211 -0.014622707851231098 0.13899999856948853 255 255 245
0.06929484754800797 -0.014622707851231098 0.13899999856948853 254 255 249
0.06912081688642502 -0.014517508447170258 0.1379999965429306 254 255 249
0.06944531202316284 -0.014517508447170258 0.1379999965429306 254 255 249
0.06976979970932007 -0.014517508447170258 0.1379999965429306 254 255 249
0.07009429484605789 -0.014517508447170258 0.1379999965429306 254 255 249
0.069908507168293 -0.014412309043109417 0.13699999451637268 254 255 249
0.0702306479215622 -0.014412309043109417 0.13699999451637268 254 255 249
0.07003780454397202 -0.014307109639048576 0.13600000739097595 254 255 249
0.07035759091377258 -0.014307109639048576 0.13600000739097595 254 255 249
0.07067738473415375 -0.014307109639048576 0.13600000739097595 254 255 249
0.07047513872385025 -0.014201910234987736 0.13500000536441803 254 255 249
0.07079257071018219 -0.014201910234987736 0.13500000536441803 253 254 248
0.07111001014709473 -0.014201910234987736 0.13500000536441803 255 244 248
0.07142744958400726 -0.014201910234987736 0.13500000536441803 231 209 213
0.07278887927532196 -0.014096710830926895 0.1340000033378601 255 247 225
0.07255841046571732 -0.01399151235818863 0.13300000131130219 255 255 237
0.0728711485862732 -0.01399151235818863 0.13300000131130219 255 255 237
0.07318388670682907 -0.01399151235818863 0.13300000131130219 255 254 247
0.07349661737680435 -0.01399151235818863 0.13300000131130219 255 253 246
0.07380935549736023 -0.01399151235818863 0.13300000131130219 238 209 213
0.07356478273868561 -0.013886312954127789 0.13199999928474426 240 211 215
0.0831490084528923 -0.013675914146006107 0.12999999523162842 180 142 144
0.08281272649765015 -0.013570714741945267 0.1289999932050705 180 142 144
0.0831160619854927 -0.013570714741945267 0.1289999932050705 181 143 143
0.08341939002275467 -0.013570714741945267 0.1289999932050705 181 143 143
0.08372271806001663 -0.013570714741945267 0.1289999932050705 185 147 149
0.0840260460972786 -0.013570714741945267 0.1289999932050705 185 147 149
0.08432938158512115 -0.013570714741945267 0.1289999932050705 181 143 145
0.08463270962238312 -0.013570714741945267 0.1289999932050705 185 147 149
0.08493603765964508 -0.013570714741945267 0.1289999932050705 187 149 149
0.08523936569690704 -0.013570714741945267 0.1289999932050705 188 150 150
0.085542693734169 -0.013570714741945267 0.1289999932050705 184 146 146
0.08584602922201157 -0.013570714741945267 0.1289999932050705 181 143 143
0.08614935725927353 -0.013570714741945267 0.1289999932050705 178 140 140
0.08645268529653549 -0.013570714741945267 0.1289999932050705 179 141 141
0.08675601333379745 -0.013570714741945267 0.1289999932050705 174 136 136
0.08705934882164001 -0.013570714741945267 0.1289999932050705 180 142 142
0.08736267685890198 -0.013570714741945267 0.1289999932050705 172 139 138
0.08834558725357056 -0.013675914146006107 0.12999999523162842 169 136 135
0.08865126967430115 -0.013675914146006107 0.12999999523162842 165 134 132
0.08895695209503174 -0.013675914146006107 0.12999999523162842 160 129 127
0.08926263451576233 -0.013675914146006107 0.12999999523162842 152 121 119
0.08956830948591232 -0.013675914146006107 0.12999999523162842 154 123 121
0.08987399190664291 -0.013675914146006107 0.12999999523162842 158 131 123
0.0908733680844307 -0.013781113550066948 0.13099999725818634 163 136 128
0.09118139743804932 -0.013781113550066948 0.13099999725818634 167 140 132
0.09148942679166794 -0.013781113550066948 0.13099999725818634 160 133 125
0.09179746359586716 -0.013781113550066948 0.13099999725818634 162 129 128
0.09210549294948578 -0.013781113550066948 0.13099999725818634 159 126 125
0.092413529753685 -0.013781113550066948 0.13099999725818634 160 124 124
0.09272155910730362 -0.013781113550066948 0.13099999725818634 158 122 122
0.09302959591150284 -0.013781113550066948 0.13099999725818634 155 122 121
0.09405012428760529 -0.013886312954127789 0.13199999928474426 158 125 124
0.09436050802469254 -0.013886312954127789 0.13199999928474426 160 128 124
0.09467089176177979 -0.013886312954127789 0.13199999928474426 158 126 122
0.09570083022117615 -0.01399151235818863 0.13300000131130219 161 126 123
0.09601356834173203 -0.01399151235818863 0.13300000131130219 160 125 122
0.09695177525281906 -0.01399151235818863 0.13300000131130219 169 133 133
0.097995825111866 -0.014096710830926895 0.1340000033378601 165 129 129
0.0983109101653099 -0.014096710830926895 0.1340000033378601 159 131 132
0.09862599521875381 -0.014096710830926895 0.1340000033378601 159 131 132
0.09894108027219772 -0.014096710830926895 0.1340000033378601 148 126 128
0.09925617277622223 -0.014096710830926895 0.1340000033378601 147 125 127
0.09957125782966614 -0.014096710830926895 0.1340000033378601 151 129 133
0.09988634288311005 -0.014096710830926895 0.1340000033378601 145 123 127
0.064446359872818 -0.014604408293962479 0.1420000046491623 255 217 221
0.06432405859231949 -0.014501560479402542 0.14100000262260437 255 219 228
0.0646556094288826 -0.014501560479402542 0.14100000262260437 255 223 232
0.06498715281486511 -0.014501560479402542 0.14100000262260437 255 237 252
0.06485544890165329 -0.014398711733520031 0.14000000059604645 255 224 239
0.06798747181892395 -0.014295863918960094 0.13899999856948853 255 250 235
0.0683143213391304 -0.014295863918960094 0.13899999856948853 255 250 235
0.06864116340875626 -0.014295863918960094 0.13899999856948853 254 255 247
0.06896800547838211 -0.014295863918960094 0.13899999856948853 254 255 247
0.06929484754800797 -0.014295863918960094 0.13899999856948853 254 255 249
0.06912081688642502 -0.014193016104400158 0.1379999965429306 254 255 249
0.06944531202316284 -0.014193016104400158 0.1379999965429306 254 255 249
0.06976979970932007 -0.014193016104400158 0.1379999965429306 254 255 249
0.0695863664150238 -0.014090168289840221 0.13699999451637268 254 255 249
0.069908507168293 -0.014090168289840221 0.13699999451637268 254 255 249
0.0702306479215622 -0.014090168289840221 0.13699999451637268 254 255 249
0.07003780454397202 -0.013987320475280285 0.13600000739097595 254 255 249
0.07035759091377258 -0.013987320475280285 0.13600000739097595 254 255 249
0.07067738473415375 -0.013987320475280285 0.13600000739097595 254 255 249
0.07047513872385025 -0.013884472660720348 0.13500000536441803 254 255 249
0.07079257071018219 -0.013884472660720348 0.13500000536441803 253 254 248
0.07111001014709473 -0.013884472660720348 0.13500000536441803 255 249 249
0.07142744958400726 -0.013884472660720348 0.13500000536441803 234 222 222
0.07278887927532196 -0.013781624846160412 0.1340000033378601 255 243 216
0.07255841046571732 -0.0136787761002779 0.13300000131130219 255 255 232
0.0728711485862732 -0.0136787761002779 0.13300000131130219 255 255 233
0.07318388670682907 -0.0136787761002779 0.13300000131130219 255 255 247
0.07349661737680435 -0.0136787761002779 0.13300000131130219 255 254 246
0.07380935549736023 -0.0136787761002779 0.13300000131130219 243 221 223
0.07356478273868561 -0.013575928285717964 0.13199999928474426 233 211 213
0.07454763352870941 -0.013473080471158028 0.13099999725818634 255 218 224
0.07485567033290863 -0.013473080471158028 0.13099999725818634 255 219 225
0.08253764361143112 -0.013370232656598091 0.12999999523162842 194 156 173
0.08284332603216171 -0.013370232656598091 0.12999999523162842 191 153 170
0.0831490084528923 -0.013370232656598091 0.12999999523162842 186 150 154
0.08281272649765015 -0.013267384842038155 0.1289999932050705 183 147 151
0.0831160619854927 -0.013267384842038155 0.1289999932050705 179 141 143
0.08341939002275467 -0.013267384842038155 0.1289999932050705 180 142 144
0.08372271806001663 -0.013267384842038155 0.1289999932050705 180 144 148
0.0840260460972786 -0.013267384842038155 0.1289999932050705 179 143 147
0.08432938158512115 -0.013267384842038155 0.1289999932050705 183 147 151
0.08463270962238312 -0.013267384842038155 0.1289999932050705 184 148 152
0.08493603765964508 -0.013267384842038155 0.1289999932050705 185 149 151
0.08523936569690704 -0.013267384842038155 0.1289999932050705 185 149 151
0.085542693734169 -0.013267384842038155 0.1289999932050705 185 147 149
0.08584602922201157 -0.013267384842038155 0.1289999932050705 186 148 150
0.08614935725927353 -0.013267384842038155 0.1289999932050705 185 147 149
0.08645268529653549 -0.013267384842038155 0.1289999932050705 178 140 142
0.08675601333379745 -0.013267384842038155 0.1289999932050705 176 140 142
0.08705934882164001 -0.013267384842038155 0.1289999932050705 176 140 142
0.08736267685890198 -0.013267384842038155 0.1289999932050705 175 144 144
0.08834558725357056 -0.013370232656598091 0.12999999523162842 171 140 140
0.08865126967430115 -0.013370232656598091 0.12999999523162842 164 133 133
0.08895695209503174 -0.013370232656598091 0.12999999523162842 157 126 126
0.08926263451576233 -0.013370232656598091 0.12999999523162842 152 124 121
0.08956830948591232 -0.013370232656598091 0.12999999523162842 164 136 133
0.08987399190664291 -0.013370232656598091 0.12999999523162842 172 145 139
0.0908733680844307 -0.013473080471158028 0.13099999725818634 171 144 138
0.09118139743804932 -0.013473080471158028 0.13099999725818634 169 144 137
0.09148942679166794 -0.013473080471158028 0.13099999725818634 162 137 130
0.09179746359586716 -0.013473080471158028 0.13099999725818634 159 129 124
0.09210549294948578 -0.013473080471158028 0.13099999725818634 158 128 123
0.092413529753685 -0.013473080471158028 0.13099999725818634 160 129 129
0.09272155910730362 -0.013473080471158028 0.13099999725818634 160 129 129
0.09302959591150284 -0.013473080471158028 0.13099999725818634 159 128 128
0.09405012428760529 -0.013575928285717964 0.13199999928474426 160 129 129
0.09436050802469254 -0.013575928285717964 0.13199999928474426 162 129 130
0.09467089176177979 -0.013575928285717964 0.13199999928474426 158 125 126
0.09768073260784149 -0.013781624846160412 0.1340000033378601 171 140 138
0.097995825111866 -0.013781624846160412 0.1340000033378601 165 134 132
0.0983109101653099 -0.013781624846160412 0.1340000033378601 159 136 133
0.09862599521875381 -0.013781624846160412 0.1340000033378601 154 131 128
0.09894108027219772 -0.013781624846160412 0.1340000033378601 145 124 123
0.09925617277622223 -0.013781624846160412 0.1340000033378601 148 127 126
0.09957125782966614 -0.013781624846160412 0.1340000033378601 154 132 136
0.09988634288311005 -0.013781624846160412 0.1340000033378601 150 128 132
0.0638914629817009 -0.01437100674957037 0.14300000667572021 255 226 223
0.06377856433391571 -0.014270510524511337 0.1420000046491623 255 221 218
0.06411246210336685 -0.014270510524511337 0.1420000046491623 249 226 225
0.064446359872818 -0.014270510524511337 0.1420000046491623 255 233 232
0.06432405859231949 -0.01417001336812973 0.14100000262260437 253 233 236
0.0646556094288826 -0.01417001336812973 0.14100000262260437 250 230 233
0.06498715281486511 -0.01417001336812973 0.14100000262260437 255 237 245
0.06485544890165329 -0.014069517143070698 0.14000000059604645 252 229 237
0.06518463790416718 -0.014069517143070698 0.14000000059604645 255 219 224
0.06798747181892395 -0.01396901998668909 0.13899999856948853 255 250 235
0.0683143213391304 -0.01396901998668909 0.13899999856948853 255 250 235
0.06864116340875626 -0.01396901998668909 0.13899999856948853 254 255 247
0.06896800547838211 -0.01396901998668909 0.13899999856948853 254 255 247
0.06929484754800797 -0.01396901998668909 0.13899999856948853 254 255 249
0.06912081688642502 -0.013868523761630058 0.1379999965429306 254 255 249
0.06944531202316284 -0.013868523761630058 0.1379999965429306 254 255 249
0.06976979970932007 -0.013868523761630058 0.1379999965429306 254 255 249
0.0695863664150238 -0.013768027536571026 0.13699999451637268 254 255 249
0.069908507168293 -0.013768027536571026 0.13699999451637268 254 255 249
0.0702306479215622 -0.013768027536571026 0.13699999451637268 254 255 249
0.07003780454397202 -0.013667530380189419 0.13600000739097595 254 255 249
0.07035759091377258 -0.013667530380189419 0.13600000739097595 254 255 249
0.07067738473415375 -0.013667530380189419 0.13600000739097595 254 255 249
0.07047513872385025 -0.013567034155130386 0.13500000536441803 254 255 249
0.07079257071018219 -0.013567034155130386 0.13500000536441803 254 255 249
0.07111001014709473 -0.013567034155130386 0.13500000536441803 255 252 248
0.07142744958400726 -0.013567034155130386 0.13500000536441803 248 243 239
0.07255841046571732 -0.013366040773689747 0.13300000131130219 255 255 230
0.0728711485862732 -0.013366040773689747 0.13300000131130219 255 255 231
0.07318388670682907 -0.013366040773689747 0.13300000131130219 255 255 245
0.07349661737680435 -0.013366040773689747 0.13300000131130219 255 255 245
0.07325439900159836 -0.013265544548630714 0.13199999928474426 255 237 240
0.07356478273868561 -0.013265544548630714 0.13199999928474426 234 214 217
0.07387516647577286 -0.013265544548630714 0.13199999928474426 241 202 209
0.07418555021286011 -0.013265544548630714 0.13199999928474426 240 201 208
0.07454763352870941 -0.013165048323571682 0.13099999725818634 248 209 216
0.07485567033290863 -0.013165048323571682 0.13099999725818634 255 227 234
0.07516369968652725 -0.013165048323571682 0.13099999725818634 255 227 245
0.07547173649072647 -0.013165048323571682 0.13099999725818634 255 223 241
0.07948083430528641 -0.013064551167190075 0.12999999523162842 199 162 169
0.079786516726017 -0.013064551167190075 0.12999999523162842 197 160 167
0.08253764361143112 -0.013064551167190075 0.12999999523162842 197 163 181
0.08284332603216171 -0.013064551167190075 0.12999999523162842 187 153 171
0.0831490084528923 -0.013064551167190075 0.12999999523162842 183 151 158
0.08281272649765015 -0.012964054942131042 0.1289999932050705 182 150 157
0.0831160619854927 -0.012964054942131042 0.1289999932050705 178 145 148
0.08341939002275467 -0.012964054942131042 0.1289999932050705 176 143 146
0.08372271806001663 -0.012964054942131042 0.1289999932050705 177 143 149
0.0840260460972786 -0.012964054942131042 0.1289999932050705 180 146 152
0.08432938158512115 -0.012964054942131042 0.1289999932050705 184 150 156
0.08463270962238312 -0.012964054942131042 0.1289999932050705 187 153 159
0.08493603765964508 -0.012964054942131042 0.1289999932050705 184 151 154
0.08523936569690704 -0.012964054942131042 0.1289999932050705 183 150 153
0.085542693734169 -0.012964054942131042 0.1289999932050705 185 147 151
0.08584602922201157 -0.012964054942131042 0.1289999932050705 180 142 146
0.08614935725927353 -0.012964054942131042 0.1289999932050705 180 142 146
0.08645268529653549 -0.012964054942131042 0.1289999932050705 172 134 138
0.08675601333379745 -0.012964054942131042 0.1289999932050705 166 138 137
0.08705934882164001 -0.012964054942131042 0.1289999932050705 164 136 135
0.08736267685890198 -0.012964054942131042 0.1289999932050705 165 139 137
0.08834558725357056 -0.013064551167190075 0.12999999523162842 164 138 136
0.08865126967430115 -0.013064551167190075 0.12999999523162842 161 135 133
0.08895695209503174 -0.013064551167190075 0.12999999523162842 155 129 127
0.08926263451576233 -0.013064551167190075 0.12999999523162842 152 129 128
0.08956830948591232 -0.013064551167190075 0.12999999523162842 161 138 137
0.09056533128023148 -0.013165048323571682 0.13099999725818634 171 143 142
0.0908733680844307 -0.013165048323571682 0.13099999725818634 167 139 138
0.09118139743804932 -0.013165048323571682 0.13099999725818634 170 142 139
0.09148942679166794 -0.013165048323571682 0.13099999725818634 163 135 132
0.09179746359586716 -0.013165048323571682 0.13099999725818634 159 131 130
0.09210549294948578 -0.013165048323571682 0.13099999725818634 156 128 127
0.092413529753685 -0.013165048323571682 0.13099999725818634 153 125 126
0.09272155910730362 -0.013165048323571682 0.13099999725818634 156 128 129
0.09302959591150284 -0.013165048323571682 0.13099999725818634 158 127 129
0.09405012428760529 -0.013265544548630714 0.13199999928474426 157 126 128
0.09436050802469254 -0.013265544548630714 0.13199999928474426 158 125 128
0.09467089176177979 -0.013265544548630714 0.13199999928474426 158 125 128
0.09570083022117615 -0.013366040773689747 0.13300000131130219 169 131 133
0.09601356834173203 -0.013366040773689747 0.13300000131130219 171 133 135
0.09768073260784149 -0.013466537930071354 0.1340000033378601 172 142 137
0.097995825111866 -0.013466537930071354 0.1340000033378601 167 137 132
0.0983109101653099 -0.013466537930071354 0.1340000033378601 157 136 131
0.09862599521875381 -0.013466537930071354 0.1340000033378601 152 131 126
0.09894108027219772 -0.013466537930071354 0.1340000033378601 151 130 129
0.09925617277622223 -0.013466537930071354 0.1340000033378601 148 127 126
0.09957125782966614 -0.013466537930071354 0.1340000033378601 153 131 133
0.10063176602125168 -0.013567034155130386 0.13500000536441803 148 126 128
0.10094920545816422 -0.013567034155130386 0.13500000536441803 160 122 126
0.06355521082878113 -0.014034757390618324 0.14300000667572021 255 231 220
0.0638914629817009 -0.014034757390618324 0.14300000667572021 255 248 240
0.06377856433391571 -0.013936611823737621 0.1420000046491623 255 247 239
0.06411246210336685 -0.013936611823737621 0.1420000046491623 255 252 246
0.064446359872818 -0.013936611823737621 0.1420000046491623 255 252 246
0.06432405859231949 -0.013838467188179493 0.14100000262260437 255 250 247
0.0646556094288826 -0.013838467188179493 0.14100000262260437 244 236 233
0.06498715281486511 -0.013838467188179493 0.14100000262260437 237 227 227
0.06531869620084763 -0.013838467188179493 0.14100000262260437 239 229 229
0.06518463790416718 -0.01374032162129879 0.14000000059604645 253 230 229
0.06551383435726166 -0.01374032162129879 0.14000000059604645 246 223 222
0.06798747181892395 -0.013642176985740662 0.13899999856948853 255 251 235
0.0683143213391304 -0.013642176985740662 0.13899999856948853 255 251 235
0.06864116340875626 -0.013642176985740662 0.13899999856948853 254 255 247
0.06896800547838211 -0.013642176985740662 0.13899999856948853 254 255 247
0.06929484754800797 -0.013642176985740662 0.13899999856948853 254 255 249
0.06912081688642502 -0.013544031418859959 0.1379999965429306 254 255 249
0.06944531202316284 -0.013544031418859959 0.1379999965429306 254 255 249
0.06976979970932007 -0.013544031418859959 0.1379999965429306 254 255 249
0.0695863664150238 -0.01344588678330183 0.13699999451637268 254 255 249
0.069908507168293 -0.01344588678330183 0.13699999451637268 254 255 249
0.0702306479215622 -0.01344588678330183 0.13699999451637268 254 255 249
0.07003780454397202 -0.013347741216421127 0.13600000739097595 254 255 249
0.07035759091377258 -0.013347741216421127 0.13600000739097595 254 255 249
0.07067738473415375 -0.013347741216421127 0.13600000739097595 254 255 249
0.07047513872385025 -0.013249595649540424 0.13500000536441803 254 255 249
0.07079257071018219 -0.013249595649540424 0.13500000536441803 254 255 249
0.07111001014709473 -0.013249595649540424 0.13500000536441803 255 255 249
0.07142744958400726 -0.013249595649540424 0.13500000536441803 255 255 249
0.07121344655752182 -0.013151451013982296 0.1340000033378601 248 216 212
0.07152853161096573 -0.013151451013982296 0.1340000033378601 226 194 190
0.07255841046571732 -0.013053305447101593 0.13300000131130219 255 253 229
0.0728711485862732 -0.013053305447101593 0.13300000131130219 255 255 231
0.07318388670682907 -0.013053305447101593 0.13300000131130219 254 255 245
0.07349661737680435 -0.013053305447101593 0.13300000131130219 254 255 245
0.07325439900159836 -0.012955160811543465 0.13199999928474426 255 249 250
0.07356478273868561 -0.012955160811543465 0.13199999928474426 251 236 237
0.07387516647577286 -0.012955160811543465 0.13199999928474426 249 210 217
0.07418555021286011 -0.012955160811543465 0.13199999928474426 240 201 208
0.07454763352870941 -0.012857015244662762 0.13099999725818634 255 225 232
0.07485567033290863 -0.012857015244662762 0.13099999725818634 255 233 240
0.07516369968652725 -0.012857015244662762 0.13099999725818634 255 239 251
0.07547173649072647 -0.012857015244662762 0.13099999725818634 252 229 241
0.07948083430528641 -0.012758870609104633 0.12999999523162842 201 166 180
0.079786516726017 -0.012758870609104633 0.12999999523162842 195 160 174
0.08009219169616699 -0.012758870609104633 0.12999999523162842 185 147 149
0.08039787411689758 -0.012758870609104633 0.12999999523162842 160 122 124
0.08192627876996994 -0.012758870609104633 0.12999999523162842 214 185 189
0.08223196119070053 -0.012758870609104633 0.12999999523162842 208 179 183
0.08253764361143112 -0.012758870609104633 0.12999999523162842 191 163 174
0.08284332603216171 -0.012758870609104633 0.12999999523162842 186 158 169
0.0831490084528923 -0.012758870609104633 0.12999999523162842 185 158 163
0.08281272649765015 -0.01266072504222393 0.1289999932050705 180 153 158
0.0831160619854927 -0.01266072504222393 0.1289999932050705 177 148 152
0.08341939002275467 -0.01266072504222393 0.1289999932050705 173 144 148
0.08372271806001663 -0.01266072504222393 0.1289999932050705 176 144 151
0.0840260460972786 -0.01266072504222393 0.1289999932050705 177 145 152
0.08432938158512115 -0.01266072504222393 0.1289999932050705 179 147 154
0.08463270962238312 -0.01266072504222393 0.1289999932050705 181 149 156
0.08493603765964508 -0.01266072504222393 0.1289999932050705 188 156 163
0.08523936569690704 -0.01266072504222393 0.1289999932050705 183 151 158
0.085542693734169 -0.01266072504222393 0.1289999932050705 188 149 156
0.08584602922201157 -0.01266072504222393 0.1289999932050705 187 148 155
0.08614935725927353 -0.01266072504222393 0.1289999932050705 182 144 148
0.08645268529653549 -0.01266072504222393 0.1289999932050705 172 134 138
0.08675601333379745 -0.01266072504222393 0.1289999932050705 163 137 135
0.08705934882164001 -0.01266072504222393 0.1289999932050705 162 136 134
0.08736267685890198 -0.01266072504222393 0.1289999932050705 157 134 131
0.08834558725357056 -0.012758870609104633 0.12999999523162842 157 134 131
0.08865126967430115 -0.012758870609104633 0.12999999523162842 156 133 132
0.08895695209503174 -0.012758870609104633 0.12999999523162842 159 136 135
0.08926263451576233 -0.012758870609104633 0.12999999523162842 143 122 121
0.08956830948591232 -0.012758870609104633 0.12999999523162842 154 133 132
0.09056533128023148 -0.012857015244662762 0.13099999725818634 170 144 144
0.0908733680844307 -0.012857015244662762 0.13099999725818634 159 133 133
0.09118139743804932 -0.012857015244662762 0.13099999725818634 162 136 136
0.09148942679166794 -0.012857015244662762 0.13099999725818634 164 138 138
0.09179746359586716 -0.012857015244662762 0.13099999725818634 157 131 131
0.09210549294948578 -0.012857015244662762 0.13099999725818634 155 129 129
0.092413529753685 -0.012857015244662762 0.13099999725818634 155 128 131
0.09272155910730362 -0.012857015244662762 0.13099999725818634 155 128 131
0.09302959591150284 -0.012857015244662762 0.13099999725818634 158 129 133
0.09333762526512146 -0.012857015244662762 0.13099999725818634 158 129 133
0.09436050802469254 -0.012955160811543465 0.13199999928474426 160 127 130
0.09467089176177979 -0.012955160811543465 0.13199999928474426 159 126 129
0.09570083022117615 -0.013053305447101593 0.13300000131130219 163 127 131
0.09601356834173203 -0.013053305447101593 0.13300000131130219 171 135 139
0.0963263064622879 -0.013053305447101593 0.13300000131130219 169 131 131
0.09736564755439758 -0.013151451013982296 0.1340000033378601 171 133 133
0.09768073260784149 -0.013151451013982296 0.1340000033378601 167 134 133
0.097995825111866 -0.013151451013982296 0.1340000033378601 170 137 136
0.0983109101653099 -0.013151451013982296 0.1340000033378601 159 136 133
0.09862599521875381 -0.013151451013982296 0.1340000033378601 155 132 129
0.09967944771051407 -0.013249595649540424 0.13500000536441803 156 133 132
0.0999968871474266 -0.013249595649540424 0.13500000536441803 159 136 135
0.10031432658433914 -0.013249595649540424 0.13500000536441803 159 132 135
0.10063176602125168 -0.013249595649540424 0.13500000536441803 156 129 132
0.06366105377674103 -0.013794302009046078 0.14399999380111694 255 224 218
0.06355521082878113 -0.013698508031666279 0.14300000667572021 255 233 227
0.0638914629817009 -0.013698508031666279 0.14300000667572021 255 251 240
0.06377856433391571 -0.01360271405428648 0.1420000046491623 255 252 241
0.06411246210336685 -0.01360271405428648 0.1420000046491623 255 255 247
0.064446359872818 -0.01360271405428648 0.1420000046491623 255 254 246
0.06432405859231949 -0.013506920076906681 0.14100000262260437 255 255 249
0.0646556094288826 -0.013506920076906681 0.14100000262260437 254 254 248
0.06498715281486511 -0.013506920076906681 0.14100000262260437 254 254 248
0.06531869620084763 -0.013506920076906681 0.14100000262260437 254 254 248
0.06518463790416718 -0.013411127030849457 0.14000000059604645 255 250 247
0.06551383435726166 -0.013411127030849457 0.14000000059604645 251 243 240
0.06584303081035614 -0.013411127030849457 0.14000000059604645 255 233 233
0.06617222726345062 -0.013411127030849457 0.14000000059604645 220 182 182
0.06798747181892395 -0.013315333053469658 0.13899999856948853 255 252 233
0.0683143213391304 -0.013315333053469658 0.13899999856948853 255 252 233
0.06864116340875626 -0.013315333053469658 0.13899999856948853 254 255 245
0.06896800547838211 -0.013315333053469658 0.13899999856948853 254 255 245
0.06879632920026779 -0.013219539076089859 0.1379999965429306 254 255 249
0.06912081688642502 -0.013219539076089859 0.1379999965429306 254 255 249
0.06944531202316284 -0.013219539076089859 0.1379999965429306 254 255 249
0.06976979970932007 -0.013219539076089859 0.1379999965429306 254 255 249
0.07009429484605789 -0.013219539076089859 0.1379999965429306 254 255 249
0.069908507168293 -0.01312374509871006 0.13699999451637268 254 255 249
0.0702306479215622 -0.01312374509871006 0.13699999451637268 254 255 249
0.07055278867483139 -0.01312374509871006 0.13699999451637268 254 255 249
0.07035759091377258 -0.013027951121330261 0.13600000739097595 254 255 249
0.07067738473415375 -0.013027951121330261 0.13600000739097595 254 255 249
0.07099717110395432 -0.013027951121330261 0.13600000739097595 254 255 249
0.07079257071018219 -0.012932158075273037 0.13500000536441803 254 255 249
0.07111001014709473 -0.012932158075273037 0.13500000536441803 255 255 249
0.07142744958400726 -0.012932158075273037 0.13500000536441803 255 255 249
0.07121344655752182 -0.012836364097893238 0.1340000033378601 255 233 232
0.07152853161096573 -0.012836364097893238 0.1340000033378601 239 216 215
0.07255841046571732 -0.01274057012051344 0.13300000131130219 255 254 230
0.0728711485862732 -0.01274057012051344 0.13300000131130219 255 255 231
0.07318388670682907 -0.01274057012051344 0.13300000131130219 254 255 245
0.07349661737680435 -0.01274057012051344 0.13300000131130219 253 255 244
0.07380935549736023 -0.01274057012051344 0.13300000131130219 255 248 248
0.07356478273868561 -0.01264477614313364 0.13199999928474426 233 221 221
0.07387516647577286 -0.01264477614313364 0.13199999928474426 248 209 218
0.07418555021286011 -0.01264477614313364 0.13199999928474426 243 204 213
0.07454763352870941 -0.012548983097076416 0.13099999725818634 255 232 243
0.07485567033290863 -0.012548983097076416 0.13099999725818634 255 241 252
0.07516369968652725 -0.012548983097076416 0.13099999725818634 255 247 254
0.07547173649072647 -0.012548983097076416 0.13099999725818634 255 247 254
0.07577976584434509 -0.012548983097076416 0.13099999725818634 255 229 248
0.07608779519796371 -0.012548983097076416 0.13099999725818634 242 216 235
0.07762796431779861 -0.012548983097076416 0.13099999725818634 205 173 178
0.07793599367141724 -0.012548983097076416 0.13099999725818634 208 176 181
0.07764674723148346 -0.012453189119696617 0.12999999523162842 203 171 176
0.07795242220163345 -0.012453189119696617 0.12999999523162842 211 179 184
0.07825810462236404 -0.012453189119696617 0.12999999523162842 212 175 182
0.07856378704309464 -0.012453189119696617 0.12999999523162842 215 178 185
0.07948083430528641 -0.012453189119696617 0.12999999523162842 204 170 188
0.079786516726017 -0.012453189119696617 0.12999999523162842 202 168 186
0.08009219169616699 -0.012453189119696617 0.12999999523162842 182 145 152
0.08039787411689758 -0.012453189119696617 0.12999999523162842 165 128 135
0.08192627876996994 -0.012453189119696617 0.12999999523162842 206 182 184
0.08223196119070053 -0.012453189119696617 0.12999999523162842 209 185 187
0.08253764361143112 -0.012453189119696617 0.12999999523162842 186 163 171
0.08284332603216171 -0.012453189119696617 0.12999999523162842 181 158 166
0.0831490084528923 -0.012453189119696617 0.12999999523162842 175 155 156
0.08281272649765015 -0.012357395142316818 0.1289999932050705 174 154 155
0.0831160619854927 -0.012357395142316818 0.1289999932050705 172 148 150
0.08341939002275467 -0.012357395142316818 0.1289999932050705 171 147 149
0.08372271806001663 -0.012357395142316818 0.1289999932050705 179 152 157
0.0840260460972786 -0.012357395142316818 0.1289999932050705 181 154 159
0.08432938158512115 -0.012357395142316818 0.1289999932050705 184 154 164
0.08463270962238312 -0.012357395142316818 0.1289999932050705 182 152 162
0.08493603765964508 -0.012357395142316818 0.1289999932050705 183 151 158
0.08523936569690704 -0.012357395142316818 0.1289999932050705 182 150 157
0.085542693734169 -0.012357395142316818 0.1289999932050705 180 146 154
0.08584602922201157 -0.012357395142316818 0.1289999932050705 177 143 151
0.08614935725927353 -0.012357395142316818 0.1289999932050705 178 144 152
0.08645268529653549 -0.012357395142316818 0.1289999932050705 166 132 140
0.08675601333379745 -0.012357395142316818 0.1289999932050705 160 137 136
0.08705934882164001 -0.012357395142316818 0.1289999932050705 161 138 137
0.08736267685890198 -0.012357395142316818 0.1289999932050705 163 140 139
0.08834558725357056 -0.012453189119696617 0.12999999523162842 162 139 138
0.08865126967430115 -0.012453189119696617 0.12999999523162842 162 136 136
0.08895695209503174 -0.012453189119696617 0.12999999523162842 158 132 132
0.08926263451576233 -0.012453189119696617 0.12999999523162842 132 110 112
0.08956830948591232 -0.012453189119696617 0.12999999523162842 151 129 131
0.09056533128023148 -0.012548983097076416 0.13099999725818634 163 137 137
0.0908733680844307 -0.012548983097076416 0.13099999725818634 156 130 130
0.09118139743804932 -0.012548983097076416 0.13099999725818634 156 130 130
0.09148942679166794 -0.012548983097076416 0.13099999725818634 162 136 136
0.09179746359586716 -0.012548983097076416 0.13099999725818634 158 131 134
0.09210549294948578 -0.012548983097076416 0.13099999725818634 158 131 134
0.092413529753685 -0.012548983097076416 0.13099999725818634 156 129 134
0.09272155910730362 -0.012548983097076416 0.13099999725818634 156 129 134
0.09302959591150284 -0.012548983097076416 0.13099999725818634 153 124 130
0.09333762526512146 -0.012548983097076416 0.13099999725818634 155 126 132
0.09436050802469254 -0.01264477614313364 0.13199999928474426 154 122 127
0.09467089176177979 -0.01264477614313364 0.13199999928474426 155 123 128
0.09570083022117615 -0.01274057012051344 0.13300000131130219 160 126 132
0.09601356834173203 -0.01274057012051344 0.13300000131130219 159 125 131
0.0963263064622879 -0.01274057012051344 0.13300000131130219 155 122 125
0.09736564755439758 -0.012836364097893238 0.1340000033378601 154 121 124
0.09768073260784149 -0.012836364097893238 0.1340000033378601 162 134 135
0.097995825111866 -0.012836364097893238 0.1340000033378601 166 138 139
0.09904457628726959 -0.012932158075273037 0.13500000536441803 157 134 133
0.09936200827360153 -0.012932158075273037 0.13500000536441803 156 133 132
0.09967944771051407 -0.012932158075273037 0.13500000536441803 154 130 132
0.0999968871474266 -0.012932158075273037 0.13500000536441803 160 136 138
0.10031432658433914 -0.012932158075273037 0.13500000536441803 161 135 135
0.10063176602125168 -0.012932158075273037 0.13500000536441803 158 132 132
0.06355521082878113 -0.013362258672714233 0.14300000667572021 255 241 235
0.0638914629817009 -0.013362258672714233 0.14300000667572021 255 252 245
0.06377856433391571 -0.013268816284835339 0.1420000046491623 255 252 245
0.06411246210336685 -0.013268816284835339 0.1420000046491623 254 255 249
0.064446359872818 -0.013268816284835339 0.1420000046491623 254 255 249
0.06432405859231949 -0.013175373896956444 0.14100000262260437 254 255 249
0.0646556094288826 -0.013175373896956444 0.14100000262260437 254 255 249
0.06498715281486511 -0.013175373896956444 0.14100000262260437 254 255 249
0.06531869620084763 -0.013175373896956444 0.14100000262260437 254 255 249
0.06518463790416718 -0.013081931509077549 0.14000000059604645 254 255 249
0.06551383435726166 -0.013081931509077549 0.14000000059604645 253 254 248
0.06584303081035614 -0.013081931509077549 0.14000000059604645 255 245 249
0.06617222726345062 -0.013081931509077549 0.14000000059604645 230 208 212
0.06798747181892395 -0.012988489121198654 0.13899999856948853 255 252 233
0.0683143213391304 -0.012988489121198654 0.13899999856948853 255 252 233
0.06864116340875626 -0.012988489121198654 0.13899999856948853 254 255 245
0.06896800547838211 -0.012988489121198654 0.13899999856948853 254 255 245
0.06879632920026779 -0.01289504673331976 0.1379999965429306 254 255 249
0.06912081688642502 -0.01289504673331976 0.1379999965429306 254 255 249
0.06944531202316284 -0.01289504673331976 0.1379999965429306 254 255 249
0.06976979970932007 -0.01289504673331976 0.1379999965429306 254 255 249
0.07009429484605789 -0.01289504673331976 0.1379999965429306 254 255 249
0.07041878998279572 -0.01289504673331976 0.1379999965429306 254 255 249
0.0702306479215622 -0.012801604345440865 0.13699999451637268 254 255 249
0.07055278867483139 -0.012801604345440865 0.13699999451637268 254 255 249
0.07087492942810059 -0.012801604345440865 0.13699999451637268 254 255 249
0.07067738473415375 -0.01270816195756197 0.13600000739097595 254 255 249
0.07099717110395432 -0.01270816195756197 0.13600000739097595 254 255 249
0.07131696492433548 -0.01270816195756197 0.13600000739097595 254 255 249
0.07111001014709473 -0.012614719569683075 0.13500000536441803 254 255 249
0.07142744958400726 -0.012614719569683075 0.13500000536441803 254 255 249
0.0717448890209198 -0.012614719569683075 0.13500000536441803 255 244 244
0.07152853161096573 -0.01252127718180418 0.1340000033378601 236 219 219
0.07255841046571732 -0.012427834793925285 0.13300000131130219 255 255 231
0.0728711485862732 -0.012427834793925285 0.13300000131130219 255 255 231
0.07318388670682907 -0.012427834793925285 0.13300000131130219 254 255 243
0.07349661737680435 -0.012427834793925285 0.13300000131130219 254 255 243
0.07380935549736023 -0.012427834793925285 0.13300000131130219 252 249 246
0.07356478273868561 -0.01233439240604639 0.13199999928474426 228 225 222
0.07387516647577286 -0.01233439240604639 0.13199999928474426 242 210 215
0.07418555021286011 -0.01233439240604639 0.13199999928474426 239 207 212
0.07454763352870941 -0.012240950018167496 0.13099999725818634 255 228 240
0.07485567033290863 -0.012240950018167496 0.13099999725818634 255 242 254
0.07516369968652725 -0.012240950018167496 0.13099999725818634 255 250 255
0.07547173649072647 -0.012240950018167496 0.13099999725818634 255 250 255
0.07577976584434509 -0.012240950018167496 0.13099999725818634 255 236 249
0.07608779519796371 -0.012240950018167496 0.13099999725818634 228 209 222
0.07639583200216293 -0.012240950018167496 0.13099999725818634 230 194 217
0.07670386135578156 -0.012240950018167496 0.13099999725818634 220 184 207
0.07701189815998077 -0.012240950018167496 0.13099999725818634 214 181 194
0.0773199275135994 -0.012240950018167496 0.13099999725818634 208 175 188
0.07762796431779861 -0.012240950018167496 0.13099999725818634 196 176 177
0.07734106481075287 -0.012147507630288601 0.12999999523162842 197 177 178
0.07764674723148346 -0.012147507630288601 0.12999999523162842 196 174 176
0.07795242220163345 -0.012147507630288601 0.12999999523162842 200 178 180
0.07825810462236404 -0.012147507630288601 0.12999999523162842 211 179 184
0.07856378704309464 -0.012147507630288601 0.12999999523162842 221 189 194
0.07948083430528641 -0.012147507630288601 0.12999999523162842 202 166 189
0.079786516726017 -0.012147507630288601 0.12999999523162842 190 154 177
0.08009219169616699 -0.012147507630288601 0.12999999523162842 180 146 154
0.08039787411689758 -0.012147507630288601 0.12999999523162842 165 131 139
0.08131492137908936 -0.012147507630288601 0.12999999523162842 189 157 151
0.08162060379981995 -0.012147507630288601 0.12999999523162842 203 171 165
0.08192627876996994 -0.012147507630288601 0.12999999523162842 203 184 182
0.08223196119070053 -0.012147507630288601 0.12999999523162842 196 177 175
0.08253764361143112 -0.012147507630288601 0.12999999523162842 189 169 172
0.08284332603216171 -0.012147507630288601 0.12999999523162842 180 160 163
0.0831490084528923 -0.012147507630288601 0.12999999523162842 187 170 170
0.08281272649765015 -0.012054065242409706 0.1289999932050705 183 166 166
0.0831160619854927 -0.012054065242409706 0.1289999932050705 173 151 153
0.08341939002275467 -0.012054065242409706 0.1289999932050705 174 152 154
0.08372271806001663 -0.012054065242409706 0.1289999932050705 177 154 162
0.0840260460972786 -0.012054065242409706 0.1289999932050705 174 151 159
0.08432938158512115 -0.012054065242409706 0.1289999932050705 177 149 158
0.08463270962238312 -0.012054065242409706 0.1289999932050705 179 151 160
0.08493603765964508 -0.012054065242409706 0.1289999932050705 178 148 158
0.08523936569690704 -0.012054065242409706 0.1289999932050705 179 149 159
0.085542693734169 -0.012054065242409706 0.1289999932050705 179 146 159
0.08584602922201157 -0.012054065242409706 0.1289999932050705 175 142 155
0.08614935725927353 -0.012054065242409706 0.1289999932050705 170 140 154
0.08645268529653549 -0.012054065242409706 0.1289999932050705 165 135 149
0.08675601333379745 -0.012054065242409706 0.1289999932050705 160 137 145
0.08705934882164001 -0.012054065242409706 0.1289999932050705 164 141 149
0.08803990483283997 -0.012147507630288601 0.12999999523162842 168 145 144
0.08834558725357056 -0.012147507630288601 0.12999999523162842 164 141 140
0.08865126967430115 -0.012147507630288601 0.12999999523162842 162 133 137
0.08895695209503174 -0.012147507630288601 0.12999999523162842 145 116 120
0.08926263451576233 -0.012147507630288601 0.12999999523162842 141 113 114
0.08956830948591232 -0.012147507630288601 0.12999999523162842 150 122 123
0.09056533128023148 -0.012240950018167496 0.13099999725818634 155 127 128
0.0908733680844307 -0.012240950018167496 0.13099999725818634 153 125 126
0.09118139743804932 -0.012240950018167496 0.13099999725818634 156 128 129
0.09148942679166794 -0.012240950018167496 0.13099999725818634 158 130 131
0.09179746359586716 -0.012240950018167496 0.13099999725818634 159 130 134
0.09210549294948578 -0.012240950018167496 0.13099999725818634 158 129 133
0.092413529753685 -0.012240950018167496 0.13099999725818634 160 130 144
0.09272155910730362 -0.012240950018167496 0.13099999725818634 156 126 140
0.09302959591150284 -0.012240950018167496 0.13099999725818634 158 125 138
0.09405012428760529 -0.01233439240604639 0.13199999928474426 154 121 134
0.09436050802469254 -0.01233439240604639 0.13199999928474426 154 121 132
0.09467089176177979 -0.01233439240604639 0.13199999928474426 153 120 131
0.09570083022117615 -0.012427834793925285 0.13300000131130219 155 123 130
0.09601356834173203 -0.012427834793925285 0.13300000131130219 155 123 130
0.09705056250095367 -0.01252127718180418 0.1340000033378601 153 121 126
0.09736564755439758 -0.01252127718180418 0.1340000033378601 150 118 123
0.09768073260784149 -0.01252127718180418 0.1340000033378601 147 120 123
0.09872713685035706 -0.012614719569683075 0.13500000536441803 151 124 127
0.09904457628726959 -0.012614719569683075 0.13500000536441803 163 139 141
0.09936200827360153 -0.012614719569683075 0.13500000536441803 157 133 135
0.09967944771051407 -0.012614719569683075 0.13500000536441803 157 135 137
0.0999968871474266 -0.012614719569683075 0.13500000536441803 160 138 140
0.10031432658433914 -0.012614719569683075 0.13500000536441803 162 139 136
0.10137718170881271 -0.01270816195756197 0.13600000739097595 159 136 133
0.06366105377674103 -0.013117100112140179 0.14399999380111694 255 219 222
0.06355521082878113 -0.013026009313762188 0.14300000667572021 255 239 242
0.0638914629817009 -0.013026009313762188 0.14300000667572021 255 252 251
0.06377856433391571 -0.012934918515384197 0.1420000046491623 255 252 251
0.06411246210336685 -0.012934918515384197 0.1420000046491623 254 255 251
0.064446359872818 -0.012934918515384197 0.1420000046491623 254 255 251
0.06432405859231949 -0.012843827717006207 0.14100000262260437 254 255 251
0.0646556094288826 -0.012843827717006207 0.14100000262260437 254 255 251
0.06498715281486511 -0.012843827717006207 0.14100000262260437 254 255 251
0.06531869620084763 -0.012843827717006207 0.14100000262260437 254 255 251
0.06565024703741074 -0.012843827717006207 0.14100000262260437 254 255 251
0.06551383435726166 -0.012752735987305641 0.14000000059604645 253 254 250
0.06584303081035614 -0.012752735987305641 0.14000000059604645 255 250 250
0.06617222726345062 -0.012752735987305641 0.14000000059604645 244 232 232
0.0665014237165451 -0.012752735987305641 0.14000000059604645 239 204 218
0.06635325402021408 -0.01266164518892765 0.13899999856948853 230 195 209
0.06798747181892395 -0.01266164518892765 0.13899999856948853 255 253 235
0.0683143213391304 -0.01266164518892765 0.13899999856948853 255 253 235
0.06864116340875626 -0.01266164518892765 0.13899999856948853 254 255 245
0.06896800547838211 -0.01266164518892765 0.13899999856948853 254 255 245
0.06879632920026779 -0.01257055439054966 0.1379999965429306 254 255 249
0.06912081688642502 -0.01257055439054966 0.1379999965429306 254 255 249
0.06944531202316284 -0.01257055439054966 0.1379999965429306 254 255 249
0.06976979970932007 -0.01257055439054966 0.1379999965429306 254 255 249
0.07009429484605789 -0.01257055439054966 0.1379999965429306 254 255 249
0.07041878998279572 -0.01257055439054966 0.1379999965429306 254 255 249
0.07074327766895294 -0.01257055439054966 0.1379999965429306 254 255 249
0.07055278867483139 -0.012479463592171669 0.13699999451637268 254 255 249
0.07087492942810059 -0.012479463592171669 0.13699999451637268 254 255 249
0.07119707018136978 -0.012479463592171669 0.13699999451637268 254 255 249
0.07099717110395432 -0.012388372793793678 0.13600000739097595 254 255 249
0.07131696492433548 -0.012388372793793678 0.13600000739097595 254 255 249
0.07111001014709473 -0.012297281064093113 0.13500000536441803 254 255 249
0.07142744958400726 -0.012297281064093113 0.13500000536441803 253 254 248
0.07121344655752182 -0.012206190265715122 0.1340000033378601 255 247 249
0.07152853161096573 -0.012206190265715122 0.1340000033378601 235 218 220
0.07255841046571732 -0.012115099467337132 0.13300000131130219 255 251 225
0.0728711485862732 -0.012115099467337132 0.13300000131130219 255 253 227
0.07318388670682907 -0.012115099467337132 0.13300000131130219 255 255 239
0.07349661737680435 -0.012115099467337132 0.13300000131130219 255 255 239
0.07380935549736023 -0.012115099467337132 0.13300000131130219 252 249 246
0.07356478273868561 -0.01202400866895914 0.13199999928474426 246 243 240
0.07387516647577286 -0.01202400866895914 0.13199999928474426 245 221 225
0.07418555021286011 -0.01202400866895914 0.13199999928474426 235 211 215
0.07449593394994736 -0.01202400866895914 0.13199999928474426 241 203 216
0.07423960417509079 -0.01193291787058115 0.13099999725818634 235 197 210
0.07454763352870941 -0.01193291787058115 0.13099999725818634 251 223 234
0.07485567033290863 -0.01193291787058115 0.13099999725818634 255 245 255
0.07516369968652725 -0.01193291787058115 0.13099999725818634 255 250 255
0.07547173649072647 -0.01193291787058115 0.13099999725818634 255 250 255
0.07577976584434509 -0.01193291787058115 0.13099999725818634 255 249 255
0.07608779519796371 -0.01193291787058115 0.13099999725818634 236 225 233
0.07639583200216293 -0.01193291787058115 0.13099999725818634 237 211 226
0.07670386135578156 -0.01193291787058115 0.13099999725818634 231 205 220
0.07701189815998077 -0.01193291787058115 0.13099999725818634 211 183 194
0.0773199275135994 -0.01193291787058115 0.13099999725818634 204 176 187
0.07762796431779861 -0.01193291787058115 0.13099999725818634 191 174 174
0.07734106481075287 -0.011841826140880585 0.12999999523162842 188 171 171
0.07764674723148346 -0.011841826140880585 0.12999999523162842 188 171 171
0.07795242220163345 -0.011841826140880585 0.12999999523162842 191 174 174
0.07825810462236404 -0.011841826140880585 0.12999999523162842 209 179 189
0.07856378704309464 -0.011841826140880585 0.12999999523162842 213 183 193
0.07886946946382523 -0.011841826140880585 0.12999999523162842 217 178 198
0.07917515188455582 -0.011841826140880585 0.12999999523162842 225 186 206
0.07948083430528641 -0.011841826140880585 0.12999999523162842 198 159 181
0.079786516726017 -0.011841826140880585 0.12999999523162842 189 150 172
0.08009219169616699 -0.011841826140880585 0.12999999523162842 182 148 156
0.08039787411689758 -0.011841826140880585 0.12999999523162842 156 122 130
0.08192627876996994 -0.011841826140880585 0.12999999523162842 201 182 178
0.08223196119070053 -0.011841826140880585 0.12999999523162842 199 180 176
0.08253764361143112 -0.011841826140880585 0.12999999523162842 187 170 170
0.08284332603216171 -0.011841826140880585 0.12999999523162842 181 164 164
0.0831490084528923 -0.011841826140880585 0.12999999523162842 185 165 166
0.0834546908736229 -0.011841826140880585 0.12999999523162842 180 160 161
