0.07067738473415375 -0.016865426674485207 0.13600000739097595 127 158 152
0.07099717110395432 -0.016865426674485207 0.13600000739097595 127 159 151
0.07131696492433548 -0.016865426674485207 0.13600000739097595 127 159 151
0.07163675129413605 -0.016865426674485207 0.13600000739097595 127 150 146
0.07195654511451721 -0.016865426674485207 0.13600000739097595 127 140 136
0.07227633148431778 -0.016865426674485207 0.13600000739097595 127 117 114
0.07206232845783234 -0.016741415485739708 0.13500000536441803 127 76 72
0.07237976789474487 -0.016741415485739708 0.13500000536441803 127 63 68
0.07269719988107681 -0.016741415485739708 0.13500000536441803 127 63 68
0.07301463931798935 -0.016741415485739708 0.13500000536441803 127 85 94
0.07333207875490189 -0.016741415485739708 0.13500000536441803 127 154 163
0.07364951819181442 -0.016741415485739708 0.13500000536441803 127 175 177
0.07341904938220978 -0.01661740615963936 0.1340000033378601 127 168 170
0.07373414188623428 -0.01661740615963936 0.1340000033378601 127 176 175
0.07404922693967819 -0.01661740615963936 0.1340000033378601 127 172 171
0.07380935549736023 -0.01649339497089386 0.13300000131130219 127 170 167
0.07412209361791611 -0.01649339497089386 0.13300000131130219 127 166 163
0.07443482428789139 -0.01649339497089386 0.13300000131130219 127 166 158
0.07474756240844727 -0.01649339497089386 0.13300000131130219 127 168 160
0.07506029307842255 -0.01649339497089386 0.13300000131130219 127 169 159
0.0748063176870346 -0.01636938564479351 0.13199999928474426 127 171 161
0.07511670142412186 -0.01636938564479351 0.13199999928474426 127 167 159
0.0754270851612091 -0.01636938564479351 0.13199999928474426 127 168 160
0.07573746889829636 -0.01636938564479351 0.13199999928474426 127 171 163
0.0760478526353836 -0.01636938564479351 0.13199999928474426 127 166 158
0.07577976584434509 -0.016245374456048012 0.13099999725818634 127 164 154
0.07608779519796371 -0.016245374456048012 0.13099999725818634 127 164 154
0.07639583200216293 -0.016245374456048012 0.13099999725818634 127 163 151
0.07670386135578156 -0.016245374456048012 0.13099999725818634 127 163 151
0.07701189815998077 -0.016245374456048012 0.13099999725818634 127 158 146
0.0773199275135994 -0.016245374456048012 0.13099999725818634 127 161 149
0.07762796431779861 -0.016245374456048012 0.13099999725818634 127 165 153
0.07793599367141724 -0.016245374456048012 0.13099999725818634 127 165 153
0.07824403047561646 -0.016245374456048012 0.13099999725818634 127 168 156
0.07855205982923508 -0.016245374456048012 0.13099999725818634 127 166 154
0.0788600891828537 -0.016245374456048012 0.13099999725818634 127 169 157
0.07916812598705292 -0.016245374456048012 0.13099999725818634 127 164 152
0.07947615534067154 -0.016245374456048012 0.13099999725818634 127 155 140
0.07978419214487076 -0.016245374456048012 0.13099999725818634 127 157 142
0.08009222149848938 -0.016245374456048012 0.13099999725818634 127 142 129
0.0804002583026886 -0.016245374456048012 0.13099999725818634 127 111 98
0.08070828765630722 -0.016245374456048012 0.13099999725818634 127 113 107
0.08101632446050644 -0.016245374456048012 0.13099999725818634 127 124 118
0.08132435381412506 -0.016245374456048012 0.13099999725818634 127 142 137
0.08163238316774368 -0.016245374456048012 0.13099999725818634 127 149 144
0.0819404199719429 -0.016245374456048012 0.13099999725818634 127 144 139
0.08224844932556152 -0.016245374456048012 0.13099999725818634 127 155 150
0.08255648612976074 -0.016245374456048012 0.13099999725818634 127 161 151
0.08286451548337936 -0.016245374456048012 0.13099999725818634 127 156 146
0.08317255228757858 -0.016245374456048012 0.13099999725818634 127 156 145
0.0834805816411972 -0.016245374456048012 0.13099999725818634 127 149 138
0.08378861099481583 -0.016245374456048012 0.13099999725818634 127 148 132
0.08409664779901505 -0.016245374456048012 0.13099999725818634 127 153 137
0.08440467715263367 -0.016245374456048012 0.13099999725818634 127 155 137
0.08471271395683289 -0.016245374456048012 0.13099999725818634 127 156 138
0.08502074331045151 -0.016245374456048012 0.13099999725818634 127 155 137
0.08532878011465073 -0.016245374456048012 0.13099999725818634 127 157 139
0.08563680946826935 -0.016245374456048012 0.13099999725818634 127 159 142
0.08594484627246857 -0.016245374456048012 0.13099999725818634 127 153 136
0.08625287562608719 -0.016245374456048012 0.13099999725818634 127 152 135
0.08656090497970581 -0.016245374456048012 0.13099999725818634 127 149 132
0.08686894178390503 -0.016245374456048012 0.13099999725818634 127 150 130
0.08717697113752365 -0.016245374456048012 0.13099999725818634 127 150 130
0.08748500794172287 -0.016245374456048012 0.13099999725818634 127 152 127
0.08779303729534149 -0.016245374456048012 0.13099999725818634 127 153 128
0.08810107409954071 -0.016245374456048012 0.13099999725818634 127 153 128
0.08840910345315933 -0.016245374456048012 0.13099999725818634 127 151 126
0.08871713280677795 -0.016245374456048012 0.13099999725818634 127 155 138
0.08902516961097717 -0.016245374456048012 0.13099999725818634 127 139 122
0.0893331989645958 -0.016245374456048012 0.13099999725818634 127 122 109
0.08964123576879501 -0.016245374456048012 0.13099999725818634 127 132 119
0.08994926512241364 -0.016245374456048012 0.13099999725818634 127 136 125
0.09025730192661285 -0.016245374456048012 0.13099999725818634 127 142 131
0.09056533128023148 -0.016245374456048012 0.13099999725818634 127 145 135
0.0908733680844307 -0.016245374456048012 0.13099999725818634 127 143 133
0.09118139743804932 -0.016245374456048012 0.13099999725818634 127 143 131
0.09148942679166794 -0.016245374456048012 0.13099999725818634 127 143 131
0.09179746359586716 -0.016245374456048012 0.13099999725818634 127 147 134
0.09210549294948578 -0.016245374456048012 0.13099999725818634 127 146 133
0.092413529753685 -0.016245374456048012 0.13099999725818634 127 140 124
0.09342935681343079 -0.01636938564479351 0.13199999928474426 127 135 119
0.09373974055051804 -0.01636938564479351 0.13199999928474426 127 135 119
0.09405012428760529 -0.01636938564479351 0.13199999928474426 127 138 123
0.09436050802469254 -0.01636938564479351 0.13199999928474426 127 136 117
0.09538809955120087 -0.01649339497089386 0.13300000131130219 127 124 104
0.09570083022117615 -0.01649339497089386 0.13300000131130219 127 129 109
0.09601356834173203 -0.01649339497089386 0.13300000131130219 127 137 118
0.0963263064622879 -0.01649339497089386 0.13300000131130219 127 138 121
0.09736564755439758 -0.01661740615963936 0.1340000033378601 127 142 125
0.09768073260784149 -0.01661740615963936 0.1340000033378601 127 143 127
0.097995825111866 -0.01661740615963936 0.1340000033378601 127 143 127
0.0983109101653099 -0.01661740615963936 0.1340000033378601 127 149 132
0.09862599521875381 -0.01661740615963936 0.1340000033378601 127 151 134
0.09894108027219772 -0.01661740615963936 0.1340000033378601 127 149 131
0.09925617277622223 -0.01661740615963936 0.1340000033378601 127 146 128
0.09957125782966614 -0.01661740615963936 0.1340000033378601 127 140 126
0.09988634288311005 -0.01661740615963936 0.1340000033378601 127 138 124
0.10020142793655396 -0.01661740615963936 0.1340000033378601 127 133 117
0.10051652044057846 -0.01661740615963936 0.1340000033378601 127 88 71
0.054989226162433624 -0.018005546182394028 0.14800000190734863 127 100 98
0.05533723160624504 -0.018005546182394028 0.14800000190734863 127 102 100
0.05603324621915817 -0.018005546182394028 0.14800000190734863 127 101 96
0.05638125166296959 -0.018005546182394028 0.14800000190734863 127 106 97
0.056729257106781006 -0.018005546182394028 0.14800000190734863 127 107 98
0.05660219490528107 -0.01764056831598282 0.14499999582767487 127 95 85
0.056943148374557495 -0.01764056831598282 0.14499999582767487 127 94 84
0.056889038532972336 -0.0175189096480608 0.14399999380111694 127 93 83
0.057227637618780136 -0.0175189096480608 0.14399999380111694 127 89 79
0.057566240429878235 -0.0175189096480608 0.14399999380111694 127 71 59
0.05750272423028946 -0.01739725098013878 0.14300000667572021 127 76 64
0.05783897265791893 -0.01739725098013878 0.14300000667572021 127 79 73
0.0581752210855484 -0.01739725098013878 0.14300000667572021 127 75 69
0.05851146951317787 -0.01739725098013878 0.14300000667572021 127 68 64
0.05884772166609764 -0.01739725098013878 0.14300000667572021 127 59 55
0.05918397009372711 -0.01739725098013878 0.14300000667572021 127 52 48
0.05952021852135658 -0.01739725098013878 0.14300000667572021 127 42 38
0.05985646694898605 -0.01739725098013878 0.14300000667572021 127 49 48
0.06019271910190582 -0.01739725098013878 0.14300000667572021 127 30 29
0.060528967529535294 -0.01739725098013878 0.14300000667572021 127 30 33
0.060865215957164764 -0.01739725098013878 0.14300000667572021 127 32 35
0.061201464384794235 -0.01739725098013878 0.14300000667572021 127 35 35
0.061537716537714005 -0.01739725098013878 0.14300000667572021 127 45 45
0.061873964965343475 -0.01739725098013878 0.14300000667572021 127 26 28
0.062210213392972946 -0.01739725098013878 0.14300000667572021 127 82 84
0.06254646182060242 -0.01739725098013878 0.14300000667572021 127 86 93
0.06288271397352219 -0.01739725098013878 0.14300000667572021 127 103 110
0.06321895867586136 -0.01739725098013878 0.14300000667572021 127 101 109
0.06311076879501343 -0.01727559231221676 0.1420000046491623 127 101 109
0.06344466656446457 -0.01727559231221676 0.1420000046491623 127 108 116
0.06377856433391571 -0.01727559231221676 0.1420000046491623 127 110 118
0.06411246210336685 -0.01727559231221676 0.1420000046491623 127 115 120
0.064446359872818 -0.01727559231221676 0.1420000046491623 127 109 114
0.06432405859231949 -0.01715393178164959 0.14100000262260437 127 115 113
0.0646556094288826 -0.01715393178164959 0.14100000262260437 127 112 110
0.06498715281486511 -0.01715393178164959 0.14100000262260437 127 114 112
0.06531869620084763 -0.01715393178164959 0.14100000262260437 127 115 113
0.06518463790416718 -0.01703227311372757 0.14000000059604645 127 110 102
0.06551383435726166 -0.01703227311372757 0.14000000059604645 127 95 87
0.0649024173617363 -0.01678895577788353 0.1379999965429306 127 92 80
0.06522691249847412 -0.01678895577788353 0.1379999965429306 127 92 80
0.06555140018463135 -0.01678895577788353 0.1379999965429306 127 87 80
0.06539852917194366 -0.01666729710996151 0.13699999451637268 127 86 79
0.06572067737579346 -0.01666729710996151 0.13699999451637268 127 86 82
0.06604281812906265 -0.01666729710996151 0.13699999451637268 127 84 80
0.06636495888233185 -0.01666729710996151 0.13699999451637268 127 81 81
0.06668709963560104 -0.01666729710996151 0.13699999451637268 127 79 79
0.0674983561038971 -0.01678895577788353 0.1379999965429306 127 90 93
0.06782285124063492 -0.01678895577788353 0.1379999965429306 127 139 142
0.06814733892679214 -0.01678895577788353 0.1379999965429306 127 140 141
0.06847183406352997 -0.01678895577788353 0.1379999965429306 127 147 148
0.06879632920026779 -0.01678895577788353 0.1379999965429306 127 158 156
0.06912081688642502 -0.01678895577788353 0.1379999965429306 127 163 161
0.06944531202316284 -0.01678895577788353 0.1379999965429306 127 156 155
0.06926422566175461 -0.01666729710996151 0.13699999451637268 127 160 159
0.0695863664150238 -0.01666729710996151 0.13699999451637268 127 165 165
0.069908507168293 -0.01666729710996151 0.13699999451637268 127 163 163
0.0702306479215622 -0.01666729710996151 0.13699999451637268 127 172 168
0.07003780454397202 -0.01654563657939434 0.13600000739097595 127 173 169
0.07035759091377258 -0.01654563657939434 0.13600000739097595 127 162 157
0.07067738473415375 -0.01654563657939434 0.13600000739097595 127 166 161
0.07099717110395432 -0.01654563657939434 0.13600000739097595 127 167 155
0.07131696492433548 -0.01654563657939434 0.13600000739097595 127 159 147
0.07163675129413605 -0.01654563657939434 0.13600000739097595 127 157 144
0.07195654511451721 -0.01654563657939434 0.13600000739097595 127 161 148
0.07227633148431778 -0.01654563657939434 0.13600000739097595 127 148 140
0.07206232845783234 -0.01642397791147232 0.13500000536441803 127 102 94
0.07237976789474487 -0.01642397791147232 0.13500000536441803 127 62 64
0.07269719988107681 -0.01642397791147232 0.13500000536441803 127 56 57
0.07301463931798935 -0.01642397791147232 0.13500000536441803 127 105 115
0.07333207875490189 -0.01642397791147232 0.13500000536441803 127 163 173
0.07310396432876587 -0.0163023192435503 0.1340000033378601 127 180 182
0.07341904938220978 -0.0163023192435503 0.1340000033378601 127 175 177
0.07373414188623428 -0.0163023192435503 0.1340000033378601 127 187 183
0.07404922693967819 -0.0163023192435503 0.1340000033378601 127 180 176
0.07380935549736023 -0.01618066057562828 0.13300000131130219 127 178 170
0.07412209361791611 -0.01618066057562828 0.13300000131130219 127 171 163
0.07443482428789139 -0.01618066057562828 0.13300000131130219 127 172 160
0.07474756240844727 -0.01618066057562828 0.13300000131130219 127 175 163
0.07506029307842255 -0.01618066057562828 0.13300000131130219 127 177 165
0.07537303119897842 -0.01618066057562828 0.13300000131130219 127 179 167
0.07511670142412186 -0.01605900004506111 0.13199999928474426 127 174 166
0.0754270851612091 -0.01605900004506111 0.13199999928474426 127 172 164
0.07573746889829636 -0.01605900004506111 0.13199999928474426 127 169 161
0.0760478526353836 -0.01605900004506111 0.13199999928474426 127 167 159
0.07577976584434509 -0.01593734137713909 0.13099999725818634 127 169 160
0.07608779519796371 -0.01593734137713909 0.13099999725818634 127 166 157
0.07639583200216293 -0.01593734137713909 0.13099999725818634 127 163 154
0.07670386135578156 -0.01593734137713909 0.13099999725818634 127 161 152
0.07701189815998077 -0.01593734137713909 0.13099999725818634 127 160 151
0.0773199275135994 -0.01593734137713909 0.13099999725818634 127 163 154
0.07762796431779861 -0.01593734137713909 0.13099999725818634 127 163 154
0.07793599367141724 -0.01593734137713909 0.13099999725818634 127 164 155
0.07824403047561646 -0.01593734137713909 0.13099999725818634 127 168 159
0.07855205982923508 -0.01593734137713909 0.13099999725818634 127 166 157
0.0788600891828537 -0.01593734137713909 0.13099999725818634 127 168 157
0.07916812598705292 -0.01593734137713909 0.13099999725818634 127 168 157
0.07947615534067154 -0.01593734137713909 0.13099999725818634 127 165 151
0.07978419214487076 -0.01593734137713909 0.13099999725818634 127 165 151
0.08009222149848938 -0.01593734137713909 0.13099999725818634 127 149 139
0.0804002583026886 -0.01593734137713909 0.13099999725818634 127 124 114
0.08070828765630722 -0.01593734137713909 0.13099999725818634 127 116 110
0.08101632446050644 -0.01593734137713909 0.13099999725818634 127 126 120
0.08132435381412506 -0.01593734137713909 0.13099999725818634 127 136 135
0.08163238316774368 -0.01593734137713909 0.13099999725818634 127 145 144
0.0819404199719429 -0.01593734137713909 0.13099999725818634 127 147 144
0.08224844932556152 -0.01593734137713909 0.13099999725818634 127 150 147
0.08255648612976074 -0.01593734137713909 0.13099999725818634 127 155 145
0.08286451548337936 -0.01593734137713909 0.13099999725818634 127 154 144
0.08317255228757858 -0.01593734137713909 0.13099999725818634 127 162 144
0.0834805816411972 -0.01593734137713909 0.13099999725818634 127 161 143
0.08378861099481583 -0.01593734137713909 0.13099999725818634 127 153 136
0.08409664779901505 -0.01593734137713909 0.13099999725818634 127 154 137
0.08440467715263367 -0.01593734137713909 0.13099999725818634 127 155 139
0.08471271395683289 -0.01593734137713909 0.13099999725818634 127 156 140
0.08502074331045151 -0.01593734137713909 0.13099999725818634 127 157 141
0.08532878011465073 -0.01593734137713909 0.13099999725818634 127 156 140
0.08563680946826935 -0.01593734137713909 0.13099999725818634 127 156 140
0.08594484627246857 -0.01593734137713909 0.13099999725818634 127 155 139
0.08559445291757584 -0.01581568270921707 0.12999999523162842 127 157 138
0.08590013533830643 -0.01581568270921707 0.12999999523162842 127 156 137
0.08620581775903702 -0.01581568270921707 0.12999999523162842 127 158 134
0.08651150017976761 -0.01581568270921707 0.12999999523162842 127 159 135
0.0868171826004982 -0.01581568270921707 0.12999999523162842 127 160 136
0.08712286502122879 -0.01581568270921707 0.12999999523162842 127 158 134
0.08810107409954071 -0.01593734137713909 0.13099999725818634 127 158 134
0.08840910345315933 -0.01593734137713909 0.13099999725818634 127 160 136
0.08871713280677795 -0.01593734137713909 0.13099999725818634 127 158 137
0.08902516961097717 -0.01593734137713909 0.13099999725818634 127 151 130
0.0893331989645958 -0.01593734137713909 0.13099999725818634 127 136 122
0.08964123576879501 -0.01593734137713909 0.13099999725818634 127 141 127
0.08994926512241364 -0.01593734137713909 0.13099999725818634 127 137 129
0.09025730192661285 -0.01593734137713909 0.13099999725818634 127 142 134
0.09056533128023148 -0.01593734137713909 0.13099999725818634 127 145 133
0.0908733680844307 -0.01593734137713909 0.13099999725818634 127 145 133
0.09118139743804932 -0.01593734137713909 0.13099999725818634 127 145 131
0.09148942679166794 -0.01593734137713909 0.13099999725818634 127 148 134
0.09179746359586716 -0.01593734137713909 0.13099999725818634 127 147 135
0.09210549294948578 -0.01593734137713909 0.13099999725818634 127 141 129
0.092413529753685 -0.01593734137713909 0.13099999725818634 127 136 124
0.09272155910730362 -0.01593734137713909 0.13099999725818634 127 138 126
0.09373974055051804 -0.01605900004506111 0.13199999928474426 127 138 126
0.09405012428760529 -0.01605900004506111 0.13199999928474426 127 136 124
0.09436050802469254 -0.01605900004506111 0.13199999928474426 127 136 124
0.09467089176177979 -0.01605900004506111 0.13199999928474426 127 126 113
0.09570083022117615 -0.01618066057562828 0.13300000131130219 127 131 114
0.09601356834173203 -0.01618066057562828 0.13300000131130219 127 140 124
0.0963263064622879 -0.01618066057562828 0.13300000131130219 127 145 132
0.09663903713226318 -0.01618066057562828 0.13300000131130219 127 139 126
0.09768073260784149 -0.0163023192435503 0.1340000033378601 127 145 130
0.097995825111866 -0.0163023192435503 0.1340000033378601 127 147 132
0.0983109101653099 -0.0163023192435503 0.1340000033378601 127 151 132
0.09862599521875381 -0.0163023192435503 0.1340000033378601 127 153 134
0.09894108027219772 -0.0163023192435503 0.1340000033378601 127 148 128
0.09925617277622223 -0.0163023192435503 0.1340000033378601 127 149 129
0.09957125782966614 -0.0163023192435503 0.1340000033378601 127 144 127
0.09988634288311005 -0.0163023192435503 0.1340000033378601 127 143 126
0.10020142793655396 -0.0163023192435503 0.1340000033378601 127 134 120
0.10051652044057846 -0.0163023192435503 0.1340000033378601 127 94 79
0.05464122071862221 -0.01765754073858261 0.14800000190734863 127 99 97
0.054989226162433624 -0.01765754073858261 0.14800000190734863 127 101 98
0.05533723160624504 -0.01765754073858261 0.14800000190734863 127 102 99
0.05603324621915817 -0.01765754073858261 0.14800000190734863 127 97 91
0.05600029602646828 -0.01753823272883892 0.1469999998807907 127 103 93
0.056345950812101364 -0.01753823272883892 0.1469999998807907 127 107 97
0.05669160559773445 -0.01753823272883892 0.1469999998807907 127 102 90
0.05660219490528107 -0.01729961670935154 0.14499999582767487 127 90 79
0.056943148374557495 -0.01729961670935154 0.14499999582767487 127 87 76
0.05728410184383392 -0.01729961670935154 0.14499999582767487 127 85 76
0.057227637618780136 -0.01718030869960785 0.14399999380111694 127 77 68
0.057566240429878235 -0.01718030869960785 0.14399999380111694 127 70 63
0.05750272423028946 -0.01706100068986416 0.14300000667572021 127 87 80
0.05783897265791893 -0.01706100068986416 0.14300000667572021 127 79 75
0.0581752210855484 -0.01706100068986416 0.14300000667572021 127 66 62
0.05851146951317787 -0.01706100068986416 0.14300000667572021 127 56 54
0.05884772166609764 -0.01706100068986416 0.14300000667572021 127 43 41
0.05918397009372711 -0.01706100068986416 0.14300000667572021 127 36 35
0.05952021852135658 -0.01706100068986416 0.14300000667572021 127 41 40
0.05985646694898605 -0.01706100068986416 0.14300000667572021 127 50 50
0.06019271910190582 -0.01706100068986416 0.14300000667572021 127 39 39
0.06095224618911743 -0.01718030869960785 0.14399999380111694 127 46 48
0.06129084900021553 -0.01718030869960785 0.14399999380111694 127 40 42
0.06162944808602333 -0.01718030869960785 0.14399999380111694 127 42 45
0.06196804717183113 -0.01718030869960785 0.14399999380111694 127 47 50
0.06230664998292923 -0.01718030869960785 0.14399999380111694 127 31 39
0.062210213392972946 -0.01706100068986416 0.14300000667572021 127 86 94
0.06254646182060242 -0.01706100068986416 0.14300000667572021 127 103 111
0.06288271397352219 -0.01706100068986416 0.14300000667572021 127 99 107
0.06321895867586136 -0.01706100068986416 0.14300000667572021 127 107 111
0.06355521082878113 -0.01706100068986416 0.14300000667572021 127 110 114
0.0638914629817009 -0.01706100068986416 0.14300000667572021 127 116 118
0.06377856433391571 -0.016941694542765617 0.1420000046491623 127 115 117
0.06411246210336685 -0.016941694542765617 0.1420000046491623 127 115 113
0.064446359872818 -0.016941694542765617 0.1420000046491623 127 124 122
0.06478025764226913 -0.016941694542765617 0.1420000046491623 127 137 130
0.06511415541172028 -0.016941694542765617 0.1420000046491623 127 127 120
0.06544805318117142 -0.016941694542765617 0.1420000046491623 127 131 122
0.06531869620084763 -0.016822386533021927 0.14100000262260437 127 133 124
0.06518463790416718 -0.016703078523278236 0.14000000059604645 127 128 118
0.06551383435726166 -0.016703078523278236 0.14000000059604645 127 117 107
0.06537272781133652 -0.016583770513534546 0.13899999856948853 127 110 95
0.06522691249847412 -0.016464462503790855 0.1379999965429306 127 103 88
0.06555140018463135 -0.016464462503790855 0.1379999965429306 127 85 78
0.06587589532136917 -0.016464462503790855 0.1379999965429306 127 92 85
0.066200390458107 -0.016464462503790855 0.1379999965429306 127 87 84
0.06652487814426422 -0.016464462503790855 0.1379999965429306 127 85 82
0.06684937328100204 -0.016464462503790855 0.1379999965429306 127 83 82
0.06717386096715927 -0.016464462503790855 0.1379999965429306 127 79 78
0.0674983561038971 -0.016464462503790855 0.1379999965429306 127 127 130
0.06782285124063492 -0.016464462503790855 0.1379999965429306 127 155 158
0.06814733892679214 -0.016464462503790855 0.1379999965429306 127 152 157
0.06847183406352997 -0.016464462503790855 0.1379999965429306 127 164 169
0.06879632920026779 -0.016464462503790855 0.1379999965429306 127 166 171
0.06912081688642502 -0.016464462503790855 0.1379999965429306 127 169 174
0.06944531202316284 -0.016464462503790855 0.1379999965429306 127 164 169
0.06926422566175461 -0.016345154494047165 0.13699999451637268 127 163 168
0.0695863664150238 -0.016345154494047165 0.13699999451637268 127 166 166
0.069908507168293 -0.016345154494047165 0.13699999451637268 127 167 167
0.0702306479215622 -0.016345154494047165 0.13699999451637268 127 183 179
0.07003780454397202 -0.016225848346948624 0.13600000739097595 127 180 176
0.07035759091377258 -0.016225848346948624 0.13600000739097595 127 182 177
0.07067738473415375 -0.016225848346948624 0.13600000739097595 127 181 176
0.07099717110395432 -0.016225848346948624 0.13600000739097595 127 180 172
0.07131696492433548 -0.016225848346948624 0.13600000739097595 127 166 158
0.07163675129413605 -0.016225848346948624 0.13600000739097595 127 170 153
0.07195654511451721 -0.016225848346948624 0.13600000739097595 127 161 144
0.0717448890209198 -0.016106540337204933 0.13500000536441803 127 157 145
0.07206232845783234 -0.016106540337204933 0.13500000536441803 127 136 124
0.07237976789474487 -0.016106540337204933 0.13500000536441803 127 63 62
0.07269719988107681 -0.016106540337204933 0.13500000536441803 127 58 57
0.07301463931798935 -0.016106540337204933 0.13500000536441803 127 112 122
0.07333207875490189 -0.016106540337204933 0.13500000536441803 127 168 178
0.07310396432876587 -0.015987232327461243 0.1340000033378601 127 185 190
0.07341904938220978 -0.015987232327461243 0.1340000033378601 127 175 180
0.07373414188623428 -0.015987232327461243 0.1340000033378601 127 191 186
0.07404922693967819 -0.015987232327461243 0.1340000033378601 127 185 180
0.07380935549736023 -0.015867924317717552 0.13300000131130219 127 181 171
0.07412209361791611 -0.015867924317717552 0.13300000131130219 127 178 168
0.07443482428789139 -0.015867924317717552 0.13300000131130219 127 174 164
0.07474756240844727 -0.015867924317717552 0.13300000131130219 127 169 159
0.07506029307842255 -0.015867924317717552 0.13300000131130219 127 173 163
0.07537303119897842 -0.015867924317717552 0.13300000131130219 127 176 166
0.07511670142412186 -0.01574861630797386 0.13199999928474426 127 181 171
0.0754270851612091 -0.01574861630797386 0.13199999928474426 127 177 167
0.07573746889829636 -0.01574861630797386 0.13199999928474426 127 170 160
0.0760478526353836 -0.01574861630797386 0.13199999928474426 127 173 163
0.07577976584434509 -0.01562930829823017 0.13099999725818634 127 169 161
0.07608779519796371 -0.01562930829823017 0.13099999725818634 127 164 156
0.07639583200216293 -0.01562930829823017 0.13099999725818634 127 165 156
0.07670386135578156 -0.01562930829823017 0.13099999725818634 127 165 156
0.07701189815998077 -0.01562930829823017 0.13099999725818634 127 164 155
0.0773199275135994 -0.01562930829823017 0.13099999725818634 127 165 156
0.07762796431779861 -0.01562930829823017 0.13099999725818634 127 165 155
0.07793599367141724 -0.01562930829823017 0.13099999725818634 127 170 160
0.07824403047561646 -0.01562930829823017 0.13099999725818634 127 169 159
0.07855205982923508 -0.01562930829823017 0.13099999725818634 127 169 159
0.0788600891828537 -0.01562930829823017 0.13099999725818634 127 173 159
0.07916812598705292 -0.01562930829823017 0.13099999725818634 127 168 154
0.07947615534067154 -0.01562930829823017 0.13099999725818634 127 168 153
0.07978419214487076 -0.01562930829823017 0.13099999725818634 127 168 153
0.08009222149848938 -0.01562930829823017 0.13099999725818634 127 155 144
0.0804002583026886 -0.01562930829823017 0.13099999725818634 127 139 128
0.08070828765630722 -0.01562930829823017 0.13099999725818634 127 119 113
0.08101632446050644 -0.01562930829823017 0.13099999725818634 127 130 124
0.08132435381412506 -0.01562930829823017 0.13099999725818634 127 130 129
0.08163238316774368 -0.01562930829823017 0.13099999725818634 127 144 143
0.0819404199719429 -0.01562930829823017 0.13099999725818634 127 154 150
0.08224844932556152 -0.01562930829823017 0.13099999725818634 127 157 153
0.08255648612976074 -0.01562930829823017 0.13099999725818634 127 163 152
0.08286451548337936 -0.01562930829823017 0.13099999725818634 127 158 147
0.08317255228757858 -0.01562930829823017 0.13099999725818634 127 163 146
0.0834805816411972 -0.01562930829823017 0.13099999725818634 127 160 143
0.08378861099481583 -0.01562930829823017 0.13099999725818634 127 163 145
0.08409664779901505 -0.01562930829823017 0.13099999725818634 127 157 139
0.08440467715263367 -0.01562930829823017 0.13099999725818634 127 154 137
0.08406604826450348 -0.015510001219809055 0.12999999523162842 127 157 140
0.08437173068523407 -0.015510001219809055 0.12999999523162842 127 157 143
0.08467741310596466 -0.015510001219809055 0.12999999523162842 127 160 146
0.08498309552669525 -0.015510001219809055 0.12999999523162842 127 162 144
0.08528877794742584 -0.015510001219809055 0.12999999523162842 127 152 134
0.08559445291757584 -0.015510001219809055 0.12999999523162842 127 150 130
0.08590013533830643 -0.015510001219809055 0.12999999523162842 127 160 140
0.08620581775903702 -0.015510001219809055 0.12999999523162842 127 159 135
0.08651150017976761 -0.015510001219809055 0.12999999523162842 127 159 135
0.0868171826004982 -0.015510001219809055 0.12999999523162842 127 158 135
0.08712286502122879 -0.015510001219809055 0.12999999523162842 127 159 136
0.08742854744195938 -0.015510001219809055 0.12999999523162842 127 158 136
0.08773422241210938 -0.015510001219809055 0.12999999523162842 127 155 133
0.08803990483283997 -0.015510001219809055 0.12999999523162842 127 154 132
0.08834558725357056 -0.015510001219809055 0.12999999523162842 127 154 132
0.0893331989645958 -0.01562930829823017 0.13099999725818634 127 136 120
0.08964123576879501 -0.01562930829823017 0.13099999725818634 127 143 127
0.08994926512241364 -0.01562930829823017 0.13099999725818634 127 140 132
0.09025730192661285 -0.01562930829823017 0.13099999725818634 127 142 134
0.09056533128023148 -0.01562930829823017 0.13099999725818634 127 146 136
0.0908733680844307 -0.01562930829823017 0.13099999725818634 127 146 136
0.09118139743804932 -0.01562930829823017 0.13099999725818634 127 146 133
0.09148942679166794 -0.01562930829823017 0.13099999725818634 127 145 132
0.09179746359586716 -0.01562930829823017 0.13099999725818634 127 142 130
0.09210549294948578 -0.01562930829823017 0.13099999725818634 127 141 129
0.092413529753685 -0.01562930829823017 0.13099999725818634 127 138 126
0.09272155910730362 -0.01562930829823017 0.13099999725818634 127 140 128
0.09373974055051804 -0.01574861630797386 0.13199999928474426 127 142 130
0.09405012428760529 -0.01574861630797386 0.13199999928474426 127 140 128
0.09436050802469254 -0.01574861630797386 0.13199999928474426 127 136 124
0.09467089176177979 -0.01574861630797386 0.13199999928474426 127 133 120
0.09570083022117615 -0.015867924317717552 0.13300000131130219 127 131 116
0.09601356834173203 -0.015867924317717552 0.13300000131130219 127 142 128
0.0963263064622879 -0.015867924317717552 0.13300000131130219 127 143 130
0.09663903713226318 -0.015867924317717552 0.13300000131130219 127 140 127
0.09695177525281906 -0.015867924317717552 0.13300000131130219 127 149 134
0.097995825111866 -0.015987232327461243 0.1340000033378601 127 149 134
0.0983109101653099 -0.015987232327461243 0.1340000033378601 127 150 133
0.09862599521875381 -0.015987232327461243 0.1340000033378601 127 150 133
0.09894108027219772 -0.015987232327461243 0.1340000033378601 127 153 133
0.09925617277622223 -0.015987232327461243 0.1340000033378601 127 155 135
0.09957125782966614 -0.015987232327461243 0.1340000033378601 127 147 130
0.09988634288311005 -0.015987232327461243 0.1340000033378601 127 147 130
0.10020142793655396 -0.015987232327461243 0.1340000033378601 127 137 122
0.10051652044057846 -0.015987232327461243 0.1340000033378601 127 111 95
0.05429321154952049 -0.017309533432126045 0.14800000190734863 127 97 94
0.05464122071862221 -0.017309533432126045 0.14800000190734863 127 95 92
0.054989226162433624 -0.017309533432126045 0.14800000190734863 127 94 91
0.05533723160624504 -0.017309533432126045 0.14800000190734863 127 103 100
0.0553089864552021 -0.017192577943205833 0.1469999998807907 127 101 95
0.05565464124083519 -0.017192577943205833 0.1469999998807907 127 90 84
0.05600029602646828 -0.017192577943205833 0.1469999998807907 127 105 96
0.056345950812101364 -0.017192577943205833 0.1469999998807907 127 81 72
0.05630594864487648 -0.017075620591640472 0.1459999978542328 127 77 65
0.05664925277233124 -0.017075620591640472 0.1459999978542328 127 83 71
0.05660219490528107 -0.01695866510272026 0.14499999582767487 127 87 77
0.056943148374557495 -0.01695866510272026 0.14499999582767487 127 79 69
0.05728410184383392 -0.01695866510272026 0.14499999582767487 127 73 70
0.057227637618780136 -0.0168417077511549 0.14399999380111694 127 61 58
0.057566240429878235 -0.0168417077511549 0.14399999380111694 127 54 51
0.057904839515686035 -0.0168417077511549 0.14399999380111694 127 57 54
0.058243442326784134 -0.0168417077511549 0.14399999380111694 127 36 38
0.058582041412591934 -0.0168417077511549 0.14399999380111694 127 28 30
0.058920640498399734 -0.0168417077511549 0.14399999380111694 127 22 30
0.05925924330949783 -0.0168417077511549 0.14399999380111694 127 33 41
0.059597842395305634 -0.0168417077511549 0.14399999380111694 127 37 40
0.05993644520640373 -0.0168417077511549 0.14399999380111694 127 41 44
0.06027504429221153 -0.0168417077511549 0.14399999380111694 127 40 44
0.06061364710330963 -0.0168417077511549 0.14399999380111694 127 38 42
0.06095224618911743 -0.0168417077511549 0.14399999380111694 127 43 45
0.06129084900021553 -0.0168417077511549 0.14399999380111694 127 41 43
0.06162944808602333 -0.0168417077511549 0.14399999380111694 127 41 44
0.06196804717183113 -0.0168417077511549 0.14399999380111694 127 38 41
0.06230664998292923 -0.0168417077511549 0.14399999380111694 127 39 49
0.06264524906873703 -0.0168417077511549 0.14399999380111694 127 101 111
0.06298384815454483 -0.0168417077511549 0.14399999380111694 127 102 113
0.06288271397352219 -0.016724752262234688 0.14300000667572021 127 105 116
0.06321895867586136 -0.016724752262234688 0.14300000667572021 127 113 118
0.06355521082878113 -0.016724752262234688 0.14300000667572021 127 114 119
0.0638914629817009 -0.016724752262234688 0.14300000667572021 127 126 125
0.06377856433391571 -0.016607794910669327 0.1420000046491623 127 122 121
0.06411246210336685 -0.016607794910669327 0.1420000046491623 127 126 123
0.064446359872818 -0.016607794910669327 0.1420000046491623 127 131 128
0.06478025764226913 -0.016607794910669327 0.1420000046491623 127 131 124
0.06511415541172028 -0.016607794910669327 0.1420000046491623 127 131 124
0.06544805318117142 -0.016607794910669327 0.1420000046491623 127 133 124
0.06531869620084763 -0.016490839421749115 0.14100000262260437 127 133 124
0.06565024703741074 -0.016490839421749115 0.14100000262260437 127 141 127
0.06551383435726166 -0.016373883932828903 0.14000000059604645 127 135 121
0.06537272781133652 -0.016256926581263542 0.13899999856948853 127 130 117
0.06569956988096237 -0.016256926581263542 0.13899999856948853 127 134 121
0.06555140018463135 -0.01613997109234333 0.1379999965429306 127 93 86
0.06587589532136917 -0.01613997109234333 0.1379999965429306 127 91 84
0.066200390458107 -0.01613997109234333 0.1379999965429306 127 92 87
0.06652487814426422 -0.01613997109234333 0.1379999965429306 127 90 85
0.06684937328100204 -0.01613997109234333 0.1379999965429306 127 83 83
0.06717386096715927 -0.01613997109234333 0.1379999965429306 127 85 85
0.0674983561038971 -0.01613997109234333 0.1379999965429306 127 146 150
0.06782285124063492 -0.01613997109234333 0.1379999965429306 127 161 165
0.06814733892679214 -0.01613997109234333 0.1379999965429306 127 158 165
0.06847183406352997 -0.01613997109234333 0.1379999965429306 127 172 179
0.06879632920026779 -0.01613997109234333 0.1379999965429306 127 173 176
0.06912081688642502 -0.01613997109234333 0.1379999965429306 127 175 178
0.06944531202316284 -0.01613997109234333 0.1379999965429306 127 177 179
0.06926422566175461 -0.01602301374077797 0.13699999451637268 127 178 180
0.0695863664150238 -0.01602301374077797 0.13699999451637268 127 176 173
0.069908507168293 -0.01602301374077797 0.13699999451637268 127 183 180
0.0702306479215622 -0.01602301374077797 0.13699999451637268 127 184 179
0.07003780454397202 -0.015906058251857758 0.13600000739097595 127 183 178
0.07035759091377258 -0.015906058251857758 0.13600000739097595 127 186 180
0.07067738473415375 -0.015906058251857758 0.13600000739097595 127 189 183
0.07099717110395432 -0.015906058251857758 0.13600000739097595 127 194 186
0.07131696492433548 -0.015906058251857758 0.13600000739097595 127 172 164
0.07163675129413605 -0.015906058251857758 0.13600000739097595 127 185 165
0.07195654511451721 -0.015906058251857758 0.13600000739097595 127 166 146
0.0717448890209198 -0.015789100900292397 0.13500000536441803 127 164 147
0.07206232845783234 -0.015789100900292397 0.13500000536441803 127 168 151
0.07237976789474487 -0.015789100900292397 0.13500000536441803 127 86 78
0.07269719988107681 -0.015789100900292397 0.13500000536441803 127 66 57
0.07301463931798935 -0.015789100900292397 0.13500000536441803 127 113 118
0.07278887927532196 -0.015672145411372185 0.1340000033378601 127 180 185
0.07310396432876587 -0.015672145411372185 0.1340000033378601 127 194 198
0.07341904938220978 -0.015672145411372185 0.1340000033378601 127 184 188
0.07373414188623428 -0.015672145411372185 0.1340000033378601 127 191 186
0.07404922693967819 -0.015672145411372185 0.1340000033378601 127 186 181
0.07380935549736023 -0.015555188991129398 0.13300000131130219 127 184 175
0.07412209361791611 -0.015555188991129398 0.13300000131130219 127 180 171
0.07443482428789139 -0.015555188991129398 0.13300000131130219 127 176 167
0.07474756240844727 -0.015555188991129398 0.13300000131130219 127 174 165
0.07506029307842255 -0.015555188991129398 0.13300000131130219 127 175 166
0.07537303119897842 -0.015555188991129398 0.13300000131130219 127 180 171
0.07511670142412186 -0.015438232570886612 0.13199999928474426 127 181 171
0.0754270851612091 -0.015438232570886612 0.13199999928474426 127 174 164
0.07573746889829636 -0.015438232570886612 0.13199999928474426 127 170 161
0.0760478526353836 -0.015438232570886612 0.13199999928474426 127 173 164
0.07635823637247086 -0.015438232570886612 0.13199999928474426 127 171 157
0.07608779519796371 -0.015321276150643826 0.13099999725818634 127 170 156
0.07639583200216293 -0.015321276150643826 0.13099999725818634 127 168 154
0.07670386135578156 -0.015321276150643826 0.13099999725818634 127 169 155
0.07701189815998077 -0.015321276150643826 0.13099999725818634 127 172 158
0.0773199275135994 -0.015321276150643826 0.13099999725818634 127 172 158
0.07762796431779861 -0.015321276150643826 0.13099999725818634 127 172 158
0.07793599367141724 -0.015321276150643826 0.13099999725818634 127 173 159
0.07824403047561646 -0.015321276150643826 0.13099999725818634 127 177 163
0.07855205982923508 -0.015321276150643826 0.13099999725818634 127 176 162
0.0788600891828537 -0.015321276150643826 0.13099999725818634 127 176 161
0.07916812598705292 -0.015321276150643826 0.13099999725818634 127 173 158
0.07947615534067154 -0.015321276150643826 0.13099999725818634 127 170 154
0.07978419214487076 -0.015321276150643826 0.13099999725818634 127 170 154
0.08009222149848938 -0.015321276150643826 0.13099999725818634 127 152 137
0.0804002583026886 -0.015321276150643826 0.13099999725818634 127 146 131
0.08070828765630722 -0.015321276150643826 0.13099999725818634 127 123 115
0.08101632446050644 -0.015321276150643826 0.13099999725818634 127 133 125
0.08132435381412506 -0.015321276150643826 0.13099999725818634 127 134 131
0.08163238316774368 -0.015321276150643826 0.13099999725818634 127 142 139
0.0819404199719429 -0.015321276150643826 0.13099999725818634 127 161 154
0.08224844932556152 -0.015321276150643826 0.13099999725818634 127 158 151
0.08255648612976074 -0.015321276150643826 0.13099999725818634 127 164 150
0.08286451548337936 -0.015321276150643826 0.13099999725818634 127 163 149
0.08317255228757858 -0.015321276150643826 0.13099999725818634 127 165 147
0.0834805816411972 -0.015321276150643826 0.13099999725818634 127 157 139
0.0831490084528923 -0.015204319730401039 0.12999999523162842 127 160 141
0.0834546908736229 -0.015204319730401039 0.12999999523162842 127 156 137
0.08376036584377289 -0.015204319730401039 0.12999999523162842 127 158 141
0.08406604826450348 -0.015204319730401039 0.12999999523162842 127 158 141
0.08437173068523407 -0.015204319730401039 0.12999999523162842 127 159 142
0.08467741310596466 -0.015204319730401039 0.12999999523162842 127 159 142
0.08498309552669525 -0.015204319730401039 0.12999999523162842 127 155 138
0.08528877794742584 -0.015204319730401039 0.12999999523162842 127 155 138
0.08559445291757584 -0.015204319730401039 0.12999999523162842 127 158 139
0.08590013533830643 -0.015204319730401039 0.12999999523162842 127 163 144
0.08620581775903702 -0.015204319730401039 0.12999999523162842 127 157 138
0.08651150017976761 -0.015204319730401039 0.12999999523162842 127 158 139
0.0868171826004982 -0.015204319730401039 0.12999999523162842 127 158 139
0.08712286502122879 -0.015204319730401039 0.12999999523162842 127 160 141
0.08742854744195938 -0.015204319730401039 0.12999999523162842 127 160 141
0.08773422241210938 -0.015204319730401039 0.12999999523162842 127 159 140
0.08803990483283997 -0.015204319730401039 0.12999999523162842 127 157 139
0.08834558725357056 -0.015204319730401039 0.12999999523162842 127 159 141
0.08865126967430115 -0.015204319730401039 0.12999999523162842 127 131 119
0.08895695209503174 -0.015204319730401039 0.12999999523162842 127 139 127
0.08994926512241364 -0.015321276150643826 0.13099999725818634 127 141 133
0.09025730192661285 -0.015321276150643826 0.13099999725818634 127 144 136
0.09056533128023148 -0.015321276150643826 0.13099999725818634 127 149 139
0.0908733680844307 -0.015321276150643826 0.13099999725818634 127 144 134
0.09118139743804932 -0.015321276150643826 0.13099999725818634 127 146 136
0.09148942679166794 -0.015321276150643826 0.13099999725818634 127 144 134
0.09179746359586716 -0.015321276150643826 0.13099999725818634 127 146 135
0.09210549294948578 -0.015321276150643826 0.13099999725818634 127 143 132
0.092413529753685 -0.015321276150643826 0.13099999725818634 127 140 129
0.09272155910730362 -0.015321276150643826 0.13099999725818634 127 141 130
0.09373974055051804 -0.015438232570886612 0.13199999928474426 127 140 129
0.09405012428760529 -0.015438232570886612 0.13199999928474426 127 139 128
0.09436050802469254 -0.015438232570886612 0.13199999928474426 127 134 125
0.09467089176177979 -0.015438232570886612 0.13199999928474426 127 132 122
0.09570083022117615 -0.015555188991129398 0.13300000131130219 127 133 121
0.09601356834173203 -0.015555188991129398 0.13300000131130219 127 139 127
0.0963263064622879 -0.015555188991129398 0.13300000131130219 127 143 131
0.09663903713226318 -0.015555188991129398 0.13300000131130219 127 145 133
0.09695177525281906 -0.015555188991129398 0.13300000131130219 127 153 137
0.097995825111866 -0.015672145411372185 0.1340000033378601 127 154 138
0.0983109101653099 -0.015672145411372185 0.1340000033378601 127 156 140
0.09862599521875381 -0.015672145411372185 0.1340000033378601 127 154 138
0.09894108027219772 -0.015672145411372185 0.1340000033378601 127 156 137
0.09925617277622223 -0.015672145411372185 0.1340000033378601 127 159 140
0.09957125782966614 -0.015672145411372185 0.1340000033378601 127 151 132
0.09988634288311005 -0.015672145411372185 0.1340000033378601 127 149 130
0.10020142793655396 -0.015672145411372185 0.1340000033378601 127 148 132
0.10051652044057846 -0.015672145411372185 0.1340000033378601 127 127 111
0.05429321154952049 -0.01696152798831463 0.14800000190734863 127 95 92
0.05464122071862221 -0.01696152798831463 0.14800000190734863 127 94 91
0.054989226162433624 -0.01696152798831463 0.14800000190734863 127 94 91
0.05533723160624504 -0.01696152798831463 0.14800000190734863 127 93 90
0.0553089864552021 -0.016846923157572746 0.1469999998807907 127 83 78
0.05565464124083519 -0.016846923157572746 0.1469999998807907 127 83 78
0.05600029602646828 -0.016846923157572746 0.1469999998807907 127 92 85
0.056345950812101364 -0.016846923157572746 0.1469999998807907 127 86 79
0.05630594864487648 -0.016732318326830864 0.1459999978542328 127 75 66
0.05664925277233124 -0.016732318326830864 0.1459999978542328 127 73 64
0.05660219490528107 -0.016617711633443832 0.14499999582767487 127 75 67
0.056943148374557495 -0.016617711633443832 0.14499999582767487 127 65 57
0.05728410184383392 -0.016617711633443832 0.14499999582767487 127 49 47
0.05796600505709648 -0.016617711633443832 0.14499999582767487 127 30 35
0.057904839515686035 -0.01650310680270195 0.14399999380111694 127 46 51
0.058243442326784134 -0.01650310680270195 0.14399999380111694 127 33 42
0.058582041412591934 -0.01650310680270195 0.14399999380111694 127 33 42
0.058920640498399734 -0.01650310680270195 0.14399999380111694 127 28 41
0.05925924330949783 -0.01650310680270195 0.14399999380111694 127 24 37
0.060011718422174454 -0.016617711633443832 0.14499999582767487 127 26 35
0.060352668166160583 -0.016617711633443832 0.14499999582767487 127 28 37
0.06069362163543701 -0.016617711633443832 0.14499999582767487 127 42 44
0.06103457510471344 -0.016617711633443832 0.14499999582767487 127 46 48
0.06137552484869957 -0.016617711633443832 0.14499999582767487 127 48 49
0.061716478317976 -0.016617711633443832 0.14499999582767487 127 48 49
0.062057431787252426 -0.016617711633443832 0.14499999582767487 127 47 54
0.062398381531238556 -0.016617711633443832 0.14499999582767487 127 40 47
0.06230664998292923 -0.01650310680270195 0.14399999380111694 127 62 75
0.06264524906873703 -0.01650310680270195 0.14399999380111694 127 103 116
0.06298384815454483 -0.01650310680270195 0.14399999380111694 127 103 115
0.06332245469093323 -0.01650310680270195 0.14399999380111694 127 105 117
0.06321895867586136 -0.016388501971960068 0.14300000667572021 127 116 123
0.06355521082878113 -0.016388501971960068 0.14300000667572021 127 121 128
0.0638914629817009 -0.016388501971960068 0.14300000667572021 127 135 135
0.06422770768404007 -0.016388501971960068 0.14300000667572021 127 139 139
0.06411246210336685 -0.016273897141218185 0.1420000046491623 127 143 141
0.064446359872818 -0.016273897141218185 0.1420000046491623 127 142 140
0.06478025764226913 -0.016273897141218185 0.1420000046491623 127 151 145
0.0646556094288826 -0.016159292310476303 0.14100000262260437 127 151 145
0.06498715281486511 -0.016159292310476303 0.14100000262260437 127 155 145
0.06531869620084763 -0.016159292310476303 0.14100000262260437 127 149 139
0.06565024703741074 -0.016159292310476303 0.14100000262260437 127 150 138
0.06551383435726166 -0.01604468747973442 0.14000000059604645 127 146 134
0.06584303081035614 -0.01604468747973442 0.14000000059604645 127 137 127
0.06569956988096237 -0.01593008264899254 0.13899999856948853 127 146 136
0.06602641195058823 -0.01593008264899254 0.13899999856948853 127 123 118
0.06635325402021408 -0.01593008264899254 0.13899999856948853 127 115 110
0.06668009608983994 -0.01593008264899254 0.13899999856948853 127 95 93
0.06700694561004639 -0.01593008264899254 0.13899999856948853 127 94 92
0.06684937328100204 -0.015815477818250656 0.1379999965429306 127 75 78
0.06717386096715927 -0.015815477818250656 0.1379999965429306 127 89 92
0.06798747181892395 -0.01593008264899254 0.13899999856948853 127 155 160
0.0683143213391304 -0.01593008264899254 0.13899999856948853 127 170 175
0.06864116340875626 -0.01593008264899254 0.13899999856948853 127 173 179
0.06847183406352997 -0.015815477818250656 0.1379999965429306 127 177 183
0.06879632920026779 -0.015815477818250656 0.1379999965429306 127 181 182
0.06912081688642502 -0.015815477818250656 0.1379999965429306 127 184 185
0.06894208490848541 -0.015700872987508774 0.13699999451637268 127 188 186
0.06926422566175461 -0.015700872987508774 0.13699999451637268 127 189 187
0.0695863664150238 -0.015700872987508774 0.13699999451637268 127 187 183
0.069908507168293 -0.015700872987508774 0.13699999451637268 127 187 183
0.06971801817417145 -0.015586268156766891 0.13600000739097595 127 189 183
0.07003780454397202 -0.015586268156766891 0.13600000739097595 127 192 186
0.07035759091377258 -0.015586268156766891 0.13600000739097595 127 190 185
0.07067738473415375 -0.015586268156766891 0.13600000739097595 127 193 188
0.07099717110395432 -0.015586268156766891 0.13600000739097595 127 201 188
0.07131696492433548 -0.015586268156766891 0.13600000739097595 127 192 179
0.07111001014709473 -0.01547166332602501 0.13500000536441803 127 197 171
0.07142744958400726 -0.01547166332602501 0.13500000536441803 127 177 151
0.0717448890209198 -0.01547166332602501 0.13500000536441803 127 174 151
0.07206232845783234 -0.01547166332602501 0.13500000536441803 127 184 161
0.07237976789474487 -0.01547166332602501 0.13500000536441803 127 130 119
0.07269719988107681 -0.01547166332602501 0.13500000536441803 127 72 60
0.07247379422187805 -0.015357058495283127 0.1340000033378601 127 109 109
0.07278887927532196 -0.015357058495283127 0.1340000033378601 127 187 187
0.07310396432876587 -0.015357058495283127 0.1340000033378601 127 205 204
0.07341904938220978 -0.015357058495283127 0.1340000033378601 127 204 203
