0.08465475589036942 -0.012693440541625023 0.1599999964237213 158 98 106
0.08503098040819168 -0.012693440541625023 0.1599999964237213 169 110 113
0.08594099432229996 -0.012772774323821068 0.16099999845027924 172 113 116
0.08631957322359085 -0.012772774323821068 0.16099999845027924 176 117 120
0.08669814467430115 -0.012772774323821068 0.16099999845027924 174 115 118
0.08707672357559204 -0.012772774323821068 0.16099999845027924 174 113 118
0.08799849450588226 -0.012852108106017113 0.16200000047683716 175 114 119
0.08837942034006119 -0.012852108106017113 0.16200000047683716 173 98 115
0.08876034617424011 -0.012852108106017113 0.16200000047683716 166 91 108
0.08969152718782425 -0.012931442819535732 0.16300000250339508 166 87 94
0.0900748074054718 -0.012931442819535732 0.16300000250339508 170 91 98
0.0472470261156559 -0.013933852314949036 0.1809999942779541 255 190 183
0.04740924388170242 -0.01385686919093132 0.18000000715255737 250 214 206
0.04783249646425247 -0.01385686919093132 0.18000000715255737 255 231 223
0.04798765853047371 -0.01377988699823618 0.17900000512599945 255 251 247
0.04813811928033829 -0.013702904805541039 0.17800000309944153 255 253 249
0.04828387871384621 -0.013625921681523323 0.1770000010728836 254 255 251
0.04842493310570717 -0.013548939488828182 0.17599999904632568 254 255 251
0.04856128618121147 -0.013471956364810467 0.17499999701976776 254 255 251
0.048972778022289276 -0.013471956364810467 0.17499999701976776 254 255 251
0.04910207912325859 -0.013394974172115326 0.17399999499320984 254 255 251
0.04922667145729065 -0.01331799104809761 0.17299999296665192 254 255 251
0.049633461982011795 -0.01331799104809761 0.17299999296665192 254 255 251
0.049751006066799164 -0.01324100885540247 0.1720000058412552 254 255 251
0.049863845109939575 -0.013164025731384754 0.17100000381469727 254 255 251
0.05026593059301376 -0.013164025731384754 0.17100000381469727 254 255 251
0.050371717661619186 -0.013087043538689613 0.17000000178813934 254 255 251
0.050771452486515045 -0.013087043538689613 0.17000000178813934 254 255 251
0.05087018385529518 -0.013010061345994473 0.16899999976158142 254 255 251
0.05126756802201271 -0.013010061345994473 0.16899999976158142 254 255 251
0.05135924369096756 -0.012933078221976757 0.1679999977350235 254 255 251
0.05175427719950676 -0.012933078221976757 0.1679999977350235 254 255 251
0.05183890089392662 -0.012856096029281616 0.16699999570846558 254 255 251
0.05223158374428749 -0.012856096029281616 0.16699999570846558 254 255 251
0.05262426659464836 -0.012856096029281616 0.16699999570846558 254 255 251
0.05269948020577431 -0.0127791129052639 0.16599999368190765 254 255 251
0.05308981239795685 -0.0127791129052639 0.16599999368190765 254 255 249
0.05348014459013939 -0.0127791129052639 0.16599999368190765 254 255 249
0.05354595556855202 -0.01270213071256876 0.16500000655651093 254 254 248
0.05393393337726593 -0.01270213071256876 0.16500000655651093 254 254 248
0.05432191491127014 -0.01270213071256876 0.16500000655651093 254 255 249
0.05437831953167915 -0.012625147588551044 0.164000004529953 254 255 249
0.054763950407505035 -0.012625147588551044 0.164000004529953 254 255 251
0.05514957755804062 -0.012625147588551044 0.164000004529953 254 255 251
0.0555352047085762 -0.012625147588551044 0.164000004529953 254 255 251
0.05557985231280327 -0.012548165395855904 0.16300000250339508 254 255 251
0.05596313253045082 -0.012548165395855904 0.16300000250339508 254 255 251
0.0560007244348526 -0.012471182271838188 0.16200000047683716 254 255 251
0.056381650269031525 -0.012471182271838188 0.16200000047683716 254 255 251
0.05676257610321045 -0.012471182271838188 0.16200000047683716 254 255 251
0.05679076537489891 -0.012394200079143047 0.16099999845027924 254 255 251
0.057169340550899506 -0.012394200079143047 0.16099999845027924 254 255 251
0.0575479120016098 -0.012394200079143047 0.16099999845027924 254 255 251
0.0579264871776104 -0.012394200079143047 0.16099999845027924 254 255 251
0.05794291943311691 -0.012317217886447906 0.1599999964237213 254 255 251
0.05831914395093918 -0.012317217886447906 0.1599999964237213 254 255 251
0.058695364743471146 -0.012317217886447906 0.1599999964237213 254 255 249
0.05907158926129341 -0.012317217886447906 0.1599999964237213 254 255 249
0.05944781005382538 -0.012317217886447906 0.1599999964237213 255 249 249
0.059824034571647644 -0.012317217886447906 0.1599999964237213 250 233 233
0.06020025908946991 -0.012317217886447906 0.1599999964237213 234 177 184
0.06019787862896919 -0.012240234762430191 0.1589999943971634 211 154 161
0.06057174876332283 -0.012240234762430191 0.1589999943971634 216 139 145
0.060945622622966766 -0.012240234762430191 0.1589999943971634 176 99 105
0.061319492757320404 -0.012240234762430191 0.1589999943971634 219 166 164
0.06169336289167404 -0.012240234762430191 0.1589999943971634 255 239 237
0.06206723675131798 -0.012240234762430191 0.1589999943971634 255 252 241
0.062441106885671616 -0.012240234762430191 0.1589999943971634 255 248 237
0.062419917434453964 -0.01216325256973505 0.15800000727176666 251 221 233
0.06279143691062927 -0.01216325256973505 0.15800000727176666 244 214 226
0.06316296011209488 -0.01216325256973505 0.15800000727176666 221 179 197
0.06353447586297989 -0.01216325256973505 0.15800000727176666 228 186 204
0.06350152939558029 -0.012086269445717335 0.15700000524520874 246 204 218
0.06387069821357727 -0.012086269445717335 0.15700000524520874 253 211 225
0.06423986703157425 -0.012086269445717335 0.15700000524520874 255 224 244
0.06460903584957123 -0.012086269445717335 0.15700000524520874 245 204 224
0.0649782046675682 -0.012086269445717335 0.15700000524520874 215 179 198
0.06534737348556519 -0.012086269445717335 0.15700000524520874 196 160 179
0.06571654230356216 -0.012086269445717335 0.15700000524520874 189 154 168
0.06608571112155914 -0.012086269445717335 0.15700000524520874 183 148 162
0.06645487993955612 -0.012086269445717335 0.15700000524520874 177 147 157
0.0668240487575531 -0.012086269445717335 0.15700000524520874 175 145 155
0.06719321757555008 -0.012086269445717335 0.15700000524520874 184 154 166
0.06756238639354706 -0.012086269445717335 0.15700000524520874 175 145 157
0.06793155521154404 -0.012086269445717335 0.15700000524520874 175 143 148
0.06830072402954102 -0.012086269445717335 0.15700000524520874 173 141 146
0.068669892847538 -0.012086269445717335 0.15700000524520874 182 132 136
0.06903906166553497 -0.012086269445717335 0.15700000524520874 156 106 110
0.06940823048353195 -0.012086269445717335 0.15700000524520874 154 80 83
0.06977739930152893 -0.012086269445717335 0.15700000524520874 146 72 75
0.07088490575551987 -0.012086269445717335 0.15700000524520874 181 116 116
0.07125407457351685 -0.012086269445717335 0.15700000524520874 195 130 130
0.07162324339151382 -0.012086269445717335 0.15700000524520874 190 141 140
0.0719924122095108 -0.012086269445717335 0.15700000524520874 189 140 139
0.07236158102750778 -0.012086269445717335 0.15700000524520874 182 145 142
0.07273074984550476 -0.012086269445717335 0.15700000524520874 178 141 138
0.07309991866350174 -0.012086269445717335 0.15700000524520874 169 136 137
0.07346908748149872 -0.012086269445717335 0.15700000524520874 172 139 140
0.0738382562994957 -0.012086269445717335 0.15700000524520874 162 133 137
0.07420742511749268 -0.012086269445717335 0.15700000524520874 158 129 133
0.07457659393548965 -0.012086269445717335 0.15700000524520874 158 131 136
0.07494576275348663 -0.012086269445717335 0.15700000524520874 151 124 129
0.07531493157148361 -0.012086269445717335 0.15700000524520874 140 117 116
0.07568410038948059 -0.012086269445717335 0.15700000524520874 107 84 83
0.07605326920747757 -0.012086269445717335 0.15700000524520874 87 63 49
0.07690920680761337 -0.01216325256973505 0.15800000727176666 91 67 53
0.07728073000907898 -0.01216325256973505 0.15800000727176666 121 87 77
0.07765224575996399 -0.01216325256973505 0.15800000727176666 178 144 134
0.0780237689614296 -0.01216325256973505 0.15800000727176666 169 138 138
0.0783952847123146 -0.01216325256973505 0.15800000727176666 177 146 146
0.07876680791378021 -0.01216325256973505 0.15800000727176666 179 155 159
0.07913833111524582 -0.01216325256973505 0.15800000727176666 186 162 166
0.07950984686613083 -0.01216325256973505 0.15800000727176666 186 165 172
0.07988137006759644 -0.01216325256973505 0.15800000727176666 185 164 171
0.08025288581848145 -0.01216325256973505 0.15800000727176666 178 157 164
0.08062440901994705 -0.01216325256973505 0.15800000727176666 169 148 155
0.08099593222141266 -0.01216325256973505 0.15800000727176666 175 142 153
0.08136744797229767 -0.01216325256973505 0.15800000727176666 166 133 144
0.08173897117376328 -0.01216325256973505 0.15800000727176666 169 123 133
0.08263017982244492 -0.012240234762430191 0.1589999943971634 159 113 123
0.08300404995679855 -0.012240234762430191 0.1589999943971634 158 106 115
0.08337792009115219 -0.012240234762430191 0.1589999943971634 158 106 115
0.08427853137254715 -0.012317217886447906 0.1599999964237213 162 107 113
0.08465475589036942 -0.012317217886447906 0.1599999964237213 160 105 111
0.08503098040819168 -0.012317217886447906 0.1599999964237213 171 115 119
0.08594099432229996 -0.012394200079143047 0.16099999845027924 171 115 119
0.08631957322359085 -0.012394200079143047 0.16099999845027924 172 116 120
0.08669814467430115 -0.012394200079143047 0.16099999845027924 172 116 120
0.08707672357559204 -0.012394200079143047 0.16099999845027924 172 112 120
0.08799849450588226 -0.012471182271838188 0.16200000047683716 174 114 122
0.08837942034006119 -0.012471182271838188 0.16200000047683716 176 100 117
0.08876034617424011 -0.012471182271838188 0.16200000047683716 167 91 108
0.0472470261156559 -0.013508250005543232 0.1809999942779541 255 195 187
0.04740924388170242 -0.01343361847102642 0.18000000715255737 250 235 225
0.04783249646425247 -0.01343361847102642 0.18000000715255737 255 251 241
0.04798765853047371 -0.013358987867832184 0.17900000512599945 255 255 251
0.04813811928033829 -0.013284356333315372 0.17800000309944153 255 255 251
0.04828387871384621 -0.013209724798798561 0.1770000010728836 254 255 251
0.04842493310570717 -0.013135094195604324 0.17599999904632568 254 255 251
0.04856128618121147 -0.013060462661087513 0.17499999701976776 254 255 251
0.04869293421506882 -0.012985831126570702 0.17399999499320984 254 255 251
0.04910207912325859 -0.012985831126570702 0.17399999499320984 254 255 251
0.04922667145729065 -0.012911200523376465 0.17299999296665192 254 255 251
0.04934656620025635 -0.012836568988859653 0.1720000058412552 254 255 251
0.049751006066799164 -0.012836568988859653 0.1720000058412552 254 255 251
0.049863845109939575 -0.012761937454342842 0.17100000381469727 254 255 251
0.05026593059301376 -0.012761937454342842 0.17100000381469727 254 255 251
0.050371717661619186 -0.012687306851148605 0.17000000178813934 252 253 249
0.050771452486515045 -0.012687306851148605 0.17000000178813934 254 255 251
0.05087018385529518 -0.012612675316631794 0.16899999976158142 254 255 251
0.05126756802201271 -0.012612675316631794 0.16899999976158142 254 255 251
0.05135924369096756 -0.012538043782114983 0.1679999977350235 254 255 251
0.05175427719950676 -0.012538043782114983 0.1679999977350235 254 255 251
0.05183890089392662 -0.012463413178920746 0.16699999570846558 254 255 251
0.05223158374428749 -0.012463413178920746 0.16699999570846558 254 255 251
0.05262426659464836 -0.012463413178920746 0.16699999570846558 254 255 251
0.05269948020577431 -0.012388781644403934 0.16599999368190765 254 255 251
0.05308981239795685 -0.012388781644403934 0.16599999368190765 255 255 249
0.05348014459013939 -0.012388781644403934 0.16599999368190765 254 254 248
0.05354595556855202 -0.012314150109887123 0.16500000655651093 251 236 235
0.05393393337726593 -0.012314150109887123 0.16500000655651093 244 229 228
0.05432191491127014 -0.012314150109887123 0.16500000655651093 255 252 248
0.05437831953167915 -0.012239519506692886 0.164000004529953 255 253 249
0.054763950407505035 -0.012239519506692886 0.164000004529953 254 255 251
0.05514957755804062 -0.012239519506692886 0.164000004529953 254 255 251
0.0555352047085762 -0.012239519506692886 0.164000004529953 254 255 251
0.05557985231280327 -0.012164887972176075 0.16300000250339508 254 255 251
0.05596313253045082 -0.012164887972176075 0.16300000250339508 254 255 251
0.0560007244348526 -0.012090256437659264 0.16200000047683716 254 255 251
0.056381650269031525 -0.012090256437659264 0.16200000047683716 254 255 251
0.05676257610321045 -0.012090256437659264 0.16200000047683716 254 255 251
0.057143501937389374 -0.012090256437659264 0.16200000047683716 254 255 251
0.0575244277715683 -0.012090256437659264 0.16200000047683716 254 255 251
0.0575479120016098 -0.012015625834465027 0.16099999845027924 253 254 248
0.0579264871776104 -0.012015625834465027 0.16099999845027924 253 254 248
0.05830506235361099 -0.012015625834465027 0.16099999845027924 254 255 249
0.05831914395093918 -0.011940994299948215 0.1599999964237213 253 254 248
0.058695364743471146 -0.011940994299948215 0.1599999964237213 255 253 251
0.05907158926129341 -0.011940994299948215 0.1599999964237213 255 252 250
0.05944781005382538 -0.011940994299948215 0.1599999964237213 255 240 242
0.059824034571647644 -0.011940994299948215 0.1599999964237213 240 209 211
0.06020025908946991 -0.011940994299948215 0.1599999964237213 225 159 166
0.06057647988200188 -0.011940994299948215 0.1599999964237213 213 147 154
0.061319492757320404 -0.011866362765431404 0.1589999943971634 197 123 126
0.06169336289167404 -0.011866362765431404 0.1589999943971634 255 220 223
0.06206723675131798 -0.011866362765431404 0.1589999943971634 255 245 237
0.062441106885671616 -0.011866362765431404 0.1589999943971634 255 245 237
0.062419917434453964 -0.011791732162237167 0.15800000727176666 255 223 232
0.06279143691062927 -0.011791732162237167 0.15800000727176666 248 209 218
0.06316296011209488 -0.011791732162237167 0.15800000727176666 227 180 200
0.06353447586297989 -0.011791732162237167 0.15800000727176666 231 184 204
0.06350152939558029 -0.011717100627720356 0.15700000524520874 237 195 211
0.06387069821357727 -0.011717100627720356 0.15700000524520874 237 195 211
0.06423986703157425 -0.011717100627720356 0.15700000524520874 235 194 214
0.06460903584957123 -0.011717100627720356 0.15700000524520874 233 192 212
0.0649782046675682 -0.011717100627720356 0.15700000524520874 225 186 206
0.06534737348556519 -0.011717100627720356 0.15700000524520874 204 165 185
0.06571654230356216 -0.011717100627720356 0.15700000524520874 191 153 166
0.06608571112155914 -0.011717100627720356 0.15700000524520874 191 153 166
0.06645487993955612 -0.011717100627720356 0.15700000524520874 181 146 158
0.0668240487575531 -0.011717100627720356 0.15700000524520874 175 140 152
0.06719321757555008 -0.011717100627720356 0.15700000524520874 176 141 153
0.06756238639354706 -0.011717100627720356 0.15700000524520874 166 131 143
0.06793155521154404 -0.011717100627720356 0.15700000524520874 170 126 135
0.06830072402954102 -0.011717100627720356 0.15700000524520874 163 119 128
0.068669892847538 -0.011717100627720356 0.15700000524520874 173 105 111
0.06903906166553497 -0.011717100627720356 0.15700000524520874 159 91 97
0.07162324339151382 -0.011717100627720356 0.15700000524520874 194 121 122
0.0719924122095108 -0.011717100627720356 0.15700000524520874 194 121 122
0.07236158102750778 -0.011717100627720356 0.15700000524520874 175 122 120
0.07273074984550476 -0.011717100627720356 0.15700000524520874 178 125 123
0.07309991866350174 -0.011717100627720356 0.15700000524520874 179 128 130
0.07346908748149872 -0.011717100627720356 0.15700000524520874 180 129 131
0.0738382562994957 -0.011717100627720356 0.15700000524520874 170 125 128
0.07420742511749268 -0.011717100627720356 0.15700000524520874 157 112 115
0.07457659393548965 -0.011717100627720356 0.15700000524520874 150 122 123
0.07494576275348663 -0.011717100627720356 0.15700000524520874 132 104 105
0.07531493157148361 -0.011717100627720356 0.15700000524520874 92 71 66
0.07568410038948059 -0.011717100627720356 0.15700000524520874 77 56 51
0.07605326920747757 -0.011717100627720356 0.15700000524520874 76 57 40
0.07690920680761337 -0.011791732162237167 0.15800000727176666 79 60 43
0.07728073000907898 -0.011791732162237167 0.15800000727176666 101 77 63
0.07765224575996399 -0.011791732162237167 0.15800000727176666 171 147 133
0.0780237689614296 -0.011791732162237167 0.15800000727176666 179 148 148
0.0783952847123146 -0.011791732162237167 0.15800000727176666 181 150 150
0.07876680791378021 -0.011791732162237167 0.15800000727176666 183 160 157
0.07913833111524582 -0.011791732162237167 0.15800000727176666 183 160 157
0.07950984686613083 -0.011791732162237167 0.15800000727176666 179 159 160
0.07988137006759644 -0.011791732162237167 0.15800000727176666 180 160 161
0.08025288581848145 -0.011791732162237167 0.15800000727176666 181 161 164
0.08062440901994705 -0.011791732162237167 0.15800000727176666 175 155 158
0.08099593222141266 -0.011791732162237167 0.15800000727176666 178 144 152
0.08136744797229767 -0.011791732162237167 0.15800000727176666 163 129 137
0.08173897117376328 -0.011791732162237167 0.15800000727176666 163 117 127
0.08263017982244492 -0.011866362765431404 0.1589999943971634 163 117 127
0.08300404995679855 -0.011866362765431404 0.1589999943971634 163 113 121
0.08337792009115219 -0.011866362765431404 0.1589999943971634 167 117 125
0.08427853137254715 -0.011940994299948215 0.1599999964237213 166 116 120
0.08465475589036942 -0.011940994299948215 0.1599999964237213 167 117 121
0.08503098040819168 -0.011940994299948215 0.1599999964237213 165 116 117
0.08594099432229996 -0.012015625834465027 0.16099999845027924 168 119 120
0.08631957322359085 -0.012015625834465027 0.16099999845027924 169 118 120
0.08669814467430115 -0.012015625834465027 0.16099999845027924 166 115 117
0.08707672357559204 -0.012015625834465027 0.16099999845027924 165 108 117
0.08799849450588226 -0.012090256437659264 0.16200000047683716 170 113 122
0.08837942034006119 -0.012090256437659264 0.16200000047683716 183 104 120
0.0893082469701767 -0.012164887972176075 0.16300000250339508 169 90 106
0.04733878746628761 -0.013227207586169243 0.18299999833106995 255 211 204
0.0472470261156559 -0.013082647696137428 0.1809999942779541 255 229 222
0.04740924388170242 -0.013010367751121521 0.18000000715255737 255 253 245
0.04783249646425247 -0.013010367751121521 0.18000000715255737 255 253 245
0.04798765853047371 -0.012938087806105614 0.17900000512599945 254 255 249
0.04813811928033829 -0.012865807861089706 0.17800000309944153 254 255 249
0.04828387871384621 -0.0127935279160738 0.1770000010728836 254 255 249
0.04842493310570717 -0.012721248902380466 0.17599999904632568 254 255 249
0.04856128618121147 -0.01264896895736456 0.17499999701976776 254 255 251
0.04869293421506882 -0.012576689012348652 0.17399999499320984 254 255 251
0.04910207912325859 -0.012576689012348652 0.17399999499320984 254 255 251
0.04922667145729065 -0.012504409067332745 0.17299999296665192 254 255 251
0.04934656620025635 -0.012432129122316837 0.1720000058412552 255 254 251
0.049751006066799164 -0.012432129122316837 0.1720000058412552 255 253 250
0.049863845109939575 -0.01235984917730093 0.17100000381469727 244 229 228
0.05026593059301376 -0.01235984917730093 0.17100000381469727 227 212 211
0.050371717661619186 -0.012287569232285023 0.17000000178813934 253 250 245
0.050771452486515045 -0.012287569232285023 0.17000000178813934 255 253 248
0.05087018385529518 -0.01221529021859169 0.16899999976158142 254 255 249
0.05126756802201271 -0.01221529021859169 0.16899999976158142 254 255 249
0.05135924369096756 -0.012143010273575783 0.1679999977350235 254 255 251
0.05175427719950676 -0.012143010273575783 0.1679999977350235 254 255 251
0.05183890089392662 -0.012070730328559875 0.16699999570846558 254 255 251
0.05223158374428749 -0.012070730328559875 0.16699999570846558 254 255 251
0.05262426659464836 -0.012070730328559875 0.16699999570846558 255 255 251
0.05269948020577431 -0.011998450383543968 0.16599999368190765 255 255 251
0.05308981239795685 -0.011998450383543968 0.16599999368190765 255 247 243
0.053157974034547806 -0.011926170438528061 0.16500000655651093 244 225 221
0.05354595556855202 -0.011926170438528061 0.16500000655651093 231 187 187
0.05393393337726593 -0.011926170438528061 0.16500000655651093 195 151 151
0.05432191491127014 -0.011926170438528061 0.16500000655651093 218 182 182
0.05437831953167915 -0.011853890493512154 0.164000004529953 255 241 241
0.054763950407505035 -0.011853890493512154 0.164000004529953 255 252 247
0.05514957755804062 -0.011853890493512154 0.164000004529953 255 251 246
0.0555352047085762 -0.011853890493512154 0.164000004529953 254 255 246
0.05557985231280327 -0.011781610548496246 0.16300000250339508 255 255 247
0.05596313253045082 -0.011781610548496246 0.16300000250339508 254 255 246
0.0560007244348526 -0.011709330603480339 0.16200000047683716 254 255 246
0.056381650269031525 -0.011709330603480339 0.16200000047683716 254 255 244
0.05676257610321045 -0.011709330603480339 0.16200000047683716 255 255 245
0.057143501937389374 -0.011709330603480339 0.16200000047683716 255 253 244
0.0575244277715683 -0.011709330603480339 0.16200000047683716 255 254 245
0.0575479120016098 -0.011637051589787006 0.16099999845027924 255 251 239
0.0579264871776104 -0.011637051589787006 0.16099999845027924 255 250 238
0.05794291943311691 -0.011564771644771099 0.1599999964237213 255 251 245
0.05831914395093918 -0.011564771644771099 0.1599999964237213 255 251 245
0.058695364743471146 -0.011564771644771099 0.1599999964237213 255 245 245
0.05907158926129341 -0.011564771644771099 0.1599999964237213 255 229 229
0.05944781005382538 -0.011564771644771099 0.1599999964237213 246 191 199
0.059824034571647644 -0.011564771644771099 0.1599999964237213 212 157 165
0.06206723675131798 -0.011492491699755192 0.1589999943971634 255 220 221
0.062441106885671616 -0.011492491699755192 0.1589999943971634 255 219 220
0.062419917434453964 -0.011420211754739285 0.15800000727176666 255 203 212
0.06279143691062927 -0.011420211754739285 0.15800000727176666 243 186 195
0.06316296011209488 -0.011420211754739285 0.15800000727176666 237 176 191
0.06353447586297989 -0.011420211754739285 0.15800000727176666 236 175 190
0.06350152939558029 -0.011347931809723377 0.15700000524520874 228 172 185
0.06387069821357727 -0.011347931809723377 0.15700000524520874 227 171 184
0.06423986703157425 -0.011347931809723377 0.15700000524520874 198 148 165
0.06460903584957123 -0.011347931809723377 0.15700000524520874 193 143 160
0.0649782046675682 -0.011347931809723377 0.15700000524520874 204 159 174
0.06534737348556519 -0.011347931809723377 0.15700000524520874 184 139 154
0.06571654230356216 -0.011347931809723377 0.15700000524520874 182 138 147
0.06608571112155914 -0.011347931809723377 0.15700000524520874 177 133 142
0.06645487993955612 -0.011347931809723377 0.15700000524520874 182 136 148
0.0668240487575531 -0.011347931809723377 0.15700000524520874 181 135 147
0.06719321757555008 -0.011347931809723377 0.15700000524520874 179 128 141
0.06756238639354706 -0.011347931809723377 0.15700000524520874 180 129 142
0.06793155521154404 -0.011347931809723377 0.15700000524520874 192 123 134
0.06830072402954102 -0.011347931809723377 0.15700000524520874 168 99 110
0.07309991866350174 -0.011347931809723377 0.15700000524520874 153 74 79
0.07346908748149872 -0.011347931809723377 0.15700000524520874 157 78 83
0.0738382562994957 -0.011347931809723377 0.15700000524520874 140 75 77
0.07420742511749268 -0.011347931809723377 0.15700000524520874 169 104 106
0.07457659393548965 -0.011347931809723377 0.15700000524520874 157 121 121
0.07494576275348663 -0.011347931809723377 0.15700000524520874 141 105 105
0.07531493157148361 -0.011347931809723377 0.15700000524520874 84 64 54
0.07568410038948059 -0.011347931809723377 0.15700000524520874 75 55 45
0.07605326920747757 -0.011347931809723377 0.15700000524520874 73 64 45
0.07690920680761337 -0.011420211754739285 0.15800000727176666 69 60 41
0.07728073000907898 -0.011420211754739285 0.15800000727176666 87 68 55
0.07765224575996399 -0.011420211754739285 0.15800000727176666 152 133 120
0.07851758599281311 -0.011492491699755192 0.1589999943971634 184 156 153
0.07889146357774734 -0.011492491699755192 0.1589999943971634 180 152 149
0.07926533371210098 -0.011492491699755192 0.1589999943971634 181 153 152
0.07963920384645462 -0.011492491699755192 0.1589999943971634 189 161 160
0.08001307398080826 -0.011492491699755192 0.1589999943971634 195 169 167
0.0803869441151619 -0.011492491699755192 0.1589999943971634 194 168 166
0.08076082170009613 -0.011492491699755192 0.1589999943971634 183 157 157
0.08062440901994705 -0.011420211754739285 0.15800000727176666 181 155 155
0.08099593222141266 -0.011420211754739285 0.15800000727176666 184 147 156
0.08136744797229767 -0.011420211754739285 0.15800000727176666 168 131 140
0.08225630223751068 -0.011492491699755192 0.1589999943971634 163 117 127
0.08263017982244492 -0.011492491699755192 0.1589999943971634 164 118 128
0.08300404995679855 -0.011492491699755192 0.1589999943971634 158 110 118
0.08390230685472488 -0.011564771644771099 0.1599999964237213 173 125 133
0.08427853137254715 -0.011564771644771099 0.1599999964237213 171 123 129
0.08465475589036942 -0.011564771644771099 0.1599999964237213 168 120 126
0.08556242287158966 -0.011637051589787006 0.16099999845027924 164 116 122
0.08594099432229996 -0.011637051589787006 0.16099999845027924 168 120 126
0.08631957322359085 -0.011637051589787006 0.16099999845027924 166 116 122
0.08723664283752441 -0.011709330603480339 0.16200000047683716 164 114 120
0.08761756867170334 -0.011709330603480339 0.16200000047683716 172 112 124
0.08799849450588226 -0.011709330603480339 0.16200000047683716 171 111 123
0.08892497420310974 -0.011781610548496246 0.16300000250339508 178 102 117
0.0893082469701767 -0.011781610548496246 0.16300000250339508 173 97 112
0.04733878746628761 -0.012796902097761631 0.18299999833106995 255 232 220
0.047508060932159424 -0.012726973742246628 0.18199999630451202 255 241 229
0.04767262935638428 -0.012657045386731625 0.1809999942779541 255 255 245
0.04783249646425247 -0.012587117031216621 0.18000000715255737 255 255 245
0.04798765853047371 -0.012517188675701618 0.17900000512599945 254 255 249
0.04813811928033829 -0.012447260320186615 0.17800000309944153 254 255 249
0.04828387871384621 -0.012377331964671612 0.1770000010728836 254 255 249
0.04842493310570717 -0.012307403609156609 0.17599999904632568 254 255 249
0.04856128618121147 -0.01223747432231903 0.17499999701976776 254 255 249
0.04869293421506882 -0.012167545966804028 0.17399999499320984 254 255 249
0.04910207912325859 -0.012167545966804028 0.17399999499320984 254 255 249
0.04922667145729065 -0.012097617611289024 0.17299999296665192 254 255 249
0.04934656620025635 -0.012027689255774021 0.1720000058412552 255 252 245
0.049751006066799164 -0.012027689255774021 0.1720000058412552 245 234 227
0.049863845109939575 -0.011957760900259018 0.17100000381469727 219 183 175
0.05026593059301376 -0.011957760900259018 0.17100000381469727 193 157 149
0.050371717661619186 -0.011887832544744015 0.17000000178813934 204 186 175
0.050771452486515045 -0.011887832544744015 0.17000000178813934 255 250 239
0.05087018385529518 -0.011817904189229012 0.16899999976158142 254 255 241
0.05126756802201271 -0.011817904189229012 0.16899999976158142 254 255 241
0.05135924369096756 -0.011747975833714008 0.1679999977350235 252 255 245
0.05175427719950676 -0.011747975833714008 0.1679999977350235 252 255 245
0.05183890089392662 -0.011678047478199005 0.16699999570846558 254 255 245
0.05223158374428749 -0.011678047478199005 0.16699999570846558 254 255 245
0.052309151738882065 -0.011608119122684002 0.16599999368190765 255 250 246
0.05269948020577431 -0.011608119122684002 0.16599999368190765 255 247 243
0.05308981239795685 -0.011608119122684002 0.16599999368190765 255 209 210
0.053157974034547806 -0.011538190767168999 0.16500000655651093 207 160 161
0.05437831953167915 -0.011468262411653996 0.164000004529953 255 200 206
0.054763950407505035 -0.011468262411653996 0.164000004529953 255 236 233
0.05514957755804062 -0.011468262411653996 0.164000004529953 255 238 235
0.0555352047085762 -0.011468262411653996 0.164000004529953 255 244 231
0.05557985231280327 -0.011398334056138992 0.16300000250339508 255 245 232
0.05596313253045082 -0.011398334056138992 0.16300000250339508 255 247 232
0.0560007244348526 -0.011328404769301414 0.16200000047683716 255 247 232
0.056381650269031525 -0.011328404769301414 0.16200000047683716 255 245 231
0.05676257610321045 -0.011328404769301414 0.16200000047683716 255 245 231
0.05679076537489891 -0.011258476413786411 0.16099999845027924 255 241 226
0.057169340550899506 -0.011258476413786411 0.16099999845027924 255 234 219
0.0575479120016098 -0.011258476413786411 0.16099999845027924 255 218 205
0.0579264871776104 -0.011258476413786411 0.16099999845027924 253 208 195
0.05794291943311691 -0.011188548058271408 0.1599999964237213 255 208 202
0.05831914395093918 -0.011188548058271408 0.1599999964237213 255 211 205
0.058695364743471146 -0.011188548058271408 0.1599999964237213 245 183 191
0.05907158926129341 -0.011188548058271408 0.1599999964237213 203 141 149
0.06350152939558029 -0.010978762991726398 0.15700000524520874 209 133 146
0.06387069821357727 -0.010978762991726398 0.15700000524520874 216 140 153
0.06423986703157425 -0.010978762991726398 0.15700000524520874 200 131 144
0.06460903584957123 -0.010978762991726398 0.15700000524520874 196 127 140
0.0649782046675682 -0.010978762991726398 0.15700000524520874 200 133 143
0.06534737348556519 -0.010978762991726398 0.15700000524520874 197 130 140
0.06571654230356216 -0.010978762991726398 0.15700000524520874 190 126 135
0.06608571112155914 -0.010978762991726398 0.15700000524520874 176 112 121
0.06645487993955612 -0.010978762991726398 0.15700000524520874 175 106 117
0.0668240487575531 -0.010978762991726398 0.15700000524520874 171 102 113
0.07457659393548965 -0.010978762991726398 0.15700000524520874 150 112 105
0.07494576275348663 -0.010978762991726398 0.15700000524520874 109 71 64
0.07531493157148361 -0.010978762991726398 0.15700000524520874 73 58 46
0.07568410038948059 -0.010978762991726398 0.15700000524520874 78 63 51
0.07605326920747757 -0.010978762991726398 0.15700000524520874 71 65 50
0.07938763499259949 -0.011188548058271408 0.1599999964237213 186 156 151
0.07976385951042175 -0.011188548058271408 0.1599999964237213 186 148 148
0.08014007657766342 -0.011188548058271408 0.1599999964237213 177 139 139
0.08051630109548569 -0.011188548058271408 0.1599999964237213 186 150 150
0.08089252561330795 -0.011188548058271408 0.1599999964237213 190 154 154
0.08126875013113022 -0.011188548058271408 0.1599999964237213 184 151 150
0.08113469183444977 -0.011118619702756405 0.1589999943971634 184 151 150
0.0815085619688034 -0.011118619702756405 0.1589999943971634 188 149 158
0.08188243210315704 -0.011118619702756405 0.1589999943971634 157 118 127
0.08277364075183868 -0.011188548058271408 0.1599999964237213 158 114 123
0.08314986526966095 -0.011188548058271408 0.1599999964237213 159 115 124
0.08352608978748322 -0.011188548058271408 0.1599999964237213 157 109 117
0.08390230685472488 -0.011188548058271408 0.1599999964237213 177 129 137
0.08480527251958847 -0.011258476413786411 0.16099999845027924 177 129 135
0.08518385142087936 -0.011258476413786411 0.16099999845027924 172 124 130
0.08556242287158966 -0.011258476413786411 0.16099999845027924 166 121 126
0.08647479116916656 -0.011328404769301414 0.16200000047683716 174 129 134
0.08685571700334549 -0.011328404769301414 0.16200000047683716 170 125 130
0.08723664283752441 -0.011328404769301414 0.16200000047683716 166 121 126
0.08761756867170334 -0.011328404769301414 0.16200000047683716 170 112 126
0.08854169398546219 -0.011398334056138992 0.16300000250339508 164 106 120
0.08892497420310974 -0.011398334056138992 0.16300000250339508 165 96 109
0.0893082469701767 -0.011398334056138992 0.16300000250339508 156 87 100
0.09024178236722946 -0.011468262411653996 0.164000004529953 174 99 109
0.09118001908063889 -0.011538190767168999 0.16500000655651093 180 105 115
0.0915680006146431 -0.011538190767168999 0.16500000655651093 180 102 111
0.09195597469806671 -0.011538190767168999 0.16500000655651093 177 99 108
0.09234395623207092 -0.011538190767168999 0.16500000655651093 178 99 106
0.09329394996166229 -0.011608119122684002 0.16599999368190765 178 99 106
0.04733878746628761 -0.01236659660935402 0.18299999833106995 255 240 225
0.047508060932159424 -0.01229901984333992 0.18199999630451202 255 244 229
0.04767262935638428 -0.012231443077325821 0.1809999942779541 255 255 245
0.04783249646425247 -0.012163866311311722 0.18000000715255737 255 255 245
0.04798765853047371 -0.012096288613975048 0.17900000512599945 254 255 249
0.04813811928033829 -0.012028711847960949 0.17800000309944153 254 255 249
0.04828387871384621 -0.01196113508194685 0.1770000010728836 254 255 249
0.04842493310570717 -0.011893557384610176 0.17599999904632568 254 255 249
0.04856128618121147 -0.011825980618596077 0.17499999701976776 254 255 249
0.04869293421506882 -0.011758403852581978 0.17399999499320984 254 255 249
0.04910207912325859 -0.011758403852581978 0.17399999499320984 255 255 249
0.04922667145729065 -0.011690827086567879 0.17299999296665192 254 254 248
0.049633461982011795 -0.011690827086567879 0.17299999296665192 255 233 225
0.049751006066799164 -0.011623249389231205 0.1720000058412552 214 187 179
0.05015544593334198 -0.011623249389231205 0.1720000058412552 193 138 135
0.05026593059301376 -0.011555672623217106 0.17100000381469727 174 119 116
0.05066801980137825 -0.011555672623217106 0.17100000381469727 182 139 134
0.050771452486515045 -0.011488095857203007 0.17000000178813934 255 232 227
0.0511711910367012 -0.011488095857203007 0.17000000178813934 255 252 239
0.05126756802201271 -0.011420518159866333 0.16899999976158142 255 252 239
0.05135924369096756 -0.011352941393852234 0.1679999977350235 255 255 239
0.05175427719950676 -0.011352941393852234 0.1679999977350235 255 255 239
0.05183890089392662 -0.011285364627838135 0.16699999570846558 255 252 241
0.05223158374428749 -0.011285364627838135 0.16699999570846558 255 244 233
0.052309151738882065 -0.011217787861824036 0.16599999368190765 255 211 214
0.05269948020577431 -0.011217787861824036 0.16599999368190765 209 164 167
0.07457659393548965 -0.01060959417372942 0.15700000524520874 137 90 77
0.07494576275348663 -0.01060959417372942 0.15700000524520874 104 57 44
0.07531493157148361 -0.01060959417372942 0.15700000524520874 76 57 44
0.07568410038948059 -0.01060959417372942 0.15700000524520874 80 61 48
0.07938763499259949 -0.010812325403094292 0.1599999964237213 195 153 150
0.07976385951042175 -0.010812325403094292 0.1599999964237213 194 143 145
0.08014007657766342 -0.010812325403094292 0.1599999964237213 172 121 123
0.08051630109548569 -0.010812325403094292 0.1599999964237213 164 115 114
0.08089252561330795 -0.010812325403094292 0.1599999964237213 170 121 120
0.08126875013113022 -0.010812325403094292 0.1599999964237213 183 139 139
0.08164497464895248 -0.010812325403094292 0.1599999964237213 180 136 136
0.08202119171619415 -0.010812325403094292 0.1599999964237213 171 125 135
0.0829124003648758 -0.01087990216910839 0.16099999845027924 164 118 128
0.08329097926616669 -0.01087990216910839 0.16099999845027924 156 110 120
0.08366955071687698 -0.01087990216910839 0.16099999845027924 153 107 117
0.08404812216758728 -0.01087990216910839 0.16099999845027924 158 108 114
0.08442670106887817 -0.01087990216910839 0.16099999845027924 189 139 145
0.08533201366662979 -0.01094747893512249 0.16200000047683716 188 139 138
0.08571293950080872 -0.01094747893512249 0.16200000047683716 180 131 130
0.08609386533498764 -0.01094747893512249 0.16200000047683716 173 126 125
0.08647479116916656 -0.01094747893512249 0.16200000047683716 176 129 128
0.08685571700334549 -0.01094747893512249 0.16200000047683716 173 124 135
0.08723664283752441 -0.01094747893512249 0.16200000047683716 166 117 128
0.08815842121839523 -0.011015056632459164 0.16300000250339508 170 109 126
0.08854169398546219 -0.011015056632459164 0.16300000250339508 171 110 127
0.0894705280661583 -0.011082633398473263 0.164000004529953 174 102 114
0.08985615521669388 -0.011082633398473263 0.164000004529953 172 100 112
0.09079203754663467 -0.011150210164487362 0.16500000655651093 175 100 110
0.09118001908063889 -0.011150210164487362 0.16500000655651093 176 101 111
0.09212295711040497 -0.011217787861824036 0.16599999368190765 180 105 115
0.09251328557729721 -0.011217787861824036 0.16599999368190765 180 105 115
0.09290361404418945 -0.011217787861824036 0.16599999368190765 178 101 107
0.09329394996166229 -0.011217787861824036 0.16599999368190765 175 98 104
0.04759747162461281 -0.012001517228782177 0.18400000035762787 255 242 230
0.047508060932159424 -0.011871065944433212 0.18199999630451202 255 245 233
0.04767262935638428 -0.011805840767920017 0.1809999942779541 255 255 245
0.04783249646425247 -0.011740614660084248 0.18000000715255737 255 255 245
0.04798765853047371 -0.011675389483571053 0.17900000512599945 254 255 249
0.04813811928033829 -0.011610163375735283 0.17800000309944153 254 255 249
0.04828387871384621 -0.011544938199222088 0.1770000010728836 254 255 249
0.04842493310570717 -0.011479712091386318 0.17599999904632568 254 255 249
0.04856128618121147 -0.011414486914873123 0.17499999701976776 254 255 249
0.04869293421506882 -0.011349260807037354 0.17399999499320984 254 255 249
0.04910207912325859 -0.011349260807037354 0.17399999499320984 255 254 245
0.04922667145729065 -0.011284035630524158 0.17299999296665192 255 252 243
0.049633461982011795 -0.011284035630524158 0.17299999296665192 245 195 188
0.049751006066799164 -0.011218809522688389 0.1720000058412552 187 137 130
0.05015544593334198 -0.011218809522688389 0.1720000058412552 173 103 103
0.050559885799884796 -0.011218809522688389 0.1720000058412552 174 104 104
0.05066801980137825 -0.011153584346175194 0.17100000381469727 168 108 108
0.05107010900974274 -0.011153584346175194 0.17100000381469727 223 163 163
0.0511711910367012 -0.011088358238339424 0.17000000178813934 255 232 228
0.05126756802201271 -0.011023133061826229 0.16899999976158142 255 234 230
0.05135924369096756 -0.01095790695399046 0.1679999977350235 255 239 226
0.05175427719950676 -0.01095790695399046 0.1679999977350235 255 229 216
0.05183890089392662 -0.010892681777477264 0.16699999570846558 248 203 192
0.05223158374428749 -0.010892681777477264 0.16699999570846558 222 177 166
0.07494576275348663 -0.010240425355732441 0.15700000524520874 115 53 36
0.07531493157148361 -0.010240425355732441 0.15700000524520874 87 57 39
0.08026237785816193 -0.01050132792443037 0.16099999845027924 192 132 132
0.08064095675945282 -0.01050132792443037 0.16099999845027924 183 123 123
0.08101952821016312 -0.01050132792443037 0.16099999845027924 166 113 109
0.08139810711145401 -0.01050132792443037 0.16099999845027924 162 109 105
0.0817766785621643 -0.01050132792443037 0.16099999845027924 160 110 107
0.08266553282737732 -0.010566553100943565 0.16200000047683716 169 119 116
0.08304645866155624 -0.010566553100943565 0.16200000047683716 168 118 122
0.08342738449573517 -0.010566553100943565 0.16200000047683716 166 116 120
0.08380831032991409 -0.010566553100943565 0.16200000047683716 162 114 122
0.08418923616409302 -0.010566553100943565 0.16200000047683716 166 118 126
0.08457016199827194 -0.010566553100943565 0.16200000047683716 164 114 118
0.08547547459602356 -0.010631779208779335 0.16300000250339508 164 114 118
0.08585875481367111 -0.010631779208779335 0.16300000250339508 187 137 134
0.08624203503131866 -0.010631779208779335 0.16300000250339508 189 139 136
0.08662530779838562 -0.010631779208779335 0.16300000250339508 193 143 138
0.08700858801603317 -0.010631779208779335 0.16300000250339508 189 139 134
0.08739186078310013 -0.010631779208779335 0.16300000250339508 188 136 145
0.08777514100074768 -0.010631779208779335 0.16300000250339508 169 117 126
0.08815842121839523 -0.010631779208779335 0.16300000250339508 173 111 123
0.08908489346504211 -0.01069700438529253 0.164000004529953 167 105 117
0.0894705280661583 -0.01069700438529253 0.164000004529953 177 103 111
0.09040405601263046 -0.0107622304931283 0.16500000655651093 183 109 117
0.09079203754663467 -0.0107622304931283 0.16500000655651093 181 106 114
0.09173262119293213 -0.010827455669641495 0.16599999368190765 171 96 104
0.09212295711040497 -0.010827455669641495 0.16599999368190765 178 103 113
0.09251328557729721 -0.010827455669641495 0.16599999368190765 180 105 115
0.09290361404418945 -0.010827455669641495 0.16599999368190765 179 102 108
0.09385596215724945 -0.010892681777477264 0.16699999570846558 176 99 105
0.04759747162461281 -0.011568861082196236 0.18400000035762787 255 242 237
0.047508060932159424 -0.011443112976849079 0.18199999630451202 255 244 239
0.04767262935638428 -0.011380238458514214 0.1809999942779541 255 255 245
0.04783249646425247 -0.011317363940179348 0.18000000715255737 255 255 245
0.04798765853047371 -0.011254489421844482 0.17900000512599945 254 255 249
0.04813811928033829 -0.011191615834832191 0.17800000309944153 254 255 249
0.04828387871384621 -0.011128741316497326 0.1770000010728836 254 255 249
0.04842493310570717 -0.01106586679816246 0.17599999904632568 253 254 248
0.04856128618121147 -0.01100299321115017 0.17499999701976776 254 255 249
0.048972778022289276 -0.01100299321115017 0.17499999701976776 254 255 249
0.04910207912325859 -0.010940118692815304 0.17399999499320984 255 248 237
0.049511220306158066 -0.010940118692815304 0.17399999499320984 238 220 209
0.049633461982011795 -0.010877244174480438 0.17299999296665192 229 163 157
0.05004025623202324 -0.010877244174480438 0.17299999296665192 180 114 108
0.050447046756744385 -0.010877244174480438 0.17299999296665192 186 117 114
0.05085383728146553 -0.010877244174480438 0.17299999296665192 186 117 114
0.05096432566642761 -0.010814369656145573 0.1720000058412552 175 102 105
0.05136876553297043 -0.010814369656145573 0.1720000058412552 168 95 98
0.051472198218107224 -0.010751496069133282 0.17100000381469727 199 124 132
0.05157092586159706 -0.010688621550798416 0.17000000178813934 199 124 132
0.05166495218873024 -0.01062574703246355 0.16899999976158142 193 124 121
0.05206234008073807 -0.01062574703246355 0.16899999976158142 170 101 98
0.0807609036564827 -0.01018562726676464 0.16200000047683716 201 132 127
0.08114182949066162 -0.01018562726676464 0.16200000047683716 185 116 111
0.08152275532484055 -0.01018562726676464 0.16200000047683716 172 108 103
0.08190368115901947 -0.01018562726676464 0.16200000047683716 165 101 96
0.08279253542423248 -0.010248501785099506 0.16300000250339508 184 126 122
0.08317581564188004 -0.010248501785099506 0.16300000250339508 213 155 151
0.08458435535430908 -0.010374250821769238 0.16500000655651093 210 156 157
0.0849723368883133 -0.010374250821769238 0.16500000655651093 209 155 156
0.0848429799079895 -0.010311376303434372 0.164000004529953 203 153 157
0.08522860705852509 -0.010311376303434372 0.164000004529953 196 146 150
0.08561424165964127 -0.010311376303434372 0.164000004529953 183 132 134
0.08599986881017685 -0.010311376303434372 0.164000004529953 160 109 111
0.08638549596071243 -0.010311376303434372 0.164000004529953 165 110 107
0.08677112311124802 -0.010311376303434372 0.164000004529953 160 105 102
0.0871567502617836 -0.010311376303434372 0.164000004529953 192 132 130
0.08754238486289978 -0.010311376303434372 0.164000004529953 195 135 133
0.08792801201343536 -0.010311376303434372 0.164000004529953 183 123 123
0.08831363916397095 -0.010311376303434372 0.164000004529953 176 116 116
0.08869926631450653 -0.010311376303434372 0.164000004529953 168 105 111
0.08962810039520264 -0.010374250821769238 0.16500000655651093 167 104 110
0.09001607447862625 -0.010374250821769238 0.16500000655651093 194 121 126
0.09040405601263046 -0.010374250821769238 0.16500000655651093 193 120 125
0.09134229272603989 -0.010437124408781528 0.16599999368190765 195 121 126
0.09173262119293213 -0.010437124408781528 0.16599999368190765 177 103 108
0.09267791360616684 -0.010499998927116394 0.16699999570846558 181 107 112
0.09307059645652771 -0.010499998927116394 0.16699999570846558 176 102 107
0.09346327930688858 -0.010499998927116394 0.16699999570846558 174 100 103
0.09385596215724945 -0.010499998927116394 0.16699999570846558 171 97 100
0.04759747162461281 -0.011136204935610294 0.18400000035762787 255 242 237
0.04776909574866295 -0.011075682006776333 0.18299999833106995 255 244 239
0.04767262935638428 -0.01095463614910841 0.1809999942779541 255 255 247
0.048098232597112656 -0.01095463614910841 0.1809999942779541 255 255 247
0.04798765853047371 -0.010833590291440487 0.17900000512599945 255 253 248
0.04813811928033829 -0.010773067362606525 0.17800000309944153 252 249 244
0.04828387871384621 -0.010712544433772564 0.1770000010728836 249 246 241
0.04842493310570717 -0.010652021504938602 0.17599999904632568 255 253 248
0.0488387793302536 -0.010652021504938602 0.17599999904632568 255 254 243
0.048972778022289276 -0.010591498576104641 0.17499999701976776 255 254 243
0.04938427358865738 -0.010591498576104641 0.17499999701976776 255 224 215
0.049795765429735184 -0.010591498576104641 0.17499999701976776 210 167 158
0.05073864758014679 -0.01053097564727068 0.17399999499320984 202 129 127
0.051147788763046265 -0.01053097564727068 0.17399999499320984 209 136 134
0.05155693367123604 -0.01053097564727068 0.17399999499320984 203 126 132
0.05166741833090782 -0.010470453649759293 0.17299999296665192 184 107 113
0.051773205399513245 -0.010409930720925331 0.1720000058412552 172 93 100
0.05187428370118141 -0.01034940779209137 0.17100000381469727 160 81 88
0.08330046385526657 -0.00992574729025364 0.164000004529953 204 140 133
0.08419637382030487 -0.0099862702190876 0.16500000655651093 232 168 161
0.08458435535430908 -0.0099862702190876 0.16500000655651093 211 158 154
0.0849723368883133 -0.0099862702190876 0.16500000655651093 203 150 146
0.0853603184223175 -0.0099862702190876 0.16500000655651093 204 150 153
0.08574829995632172 -0.0099862702190876 0.16500000655651093 192 138 141
0.08665831387042999 -0.010046793147921562 0.16599999368190765 175 119 121
0.08704864978790283 -0.010046793147921562 0.16599999368190765 155 99 101
0.08691223710775375 -0.0099862702190876 0.16500000655651093 158 100 98
0.08730021864175797 -0.0099862702190876 0.16500000655651093 146 88 86
0.08768820017576218 -0.0099862702190876 0.16500000655651093 181 121 121
0.08807617425918579 -0.0099862702190876 0.16500000655651093 164 104 104
0.08846415579319 -0.0099862702190876 0.16500000655651093 168 108 108
0.08885213732719421 -0.0099862702190876 0.16500000655651093 175 115 115
0.08924011886119843 -0.0099862702190876 0.16500000655651093 170 105 105
0.09017129987478256 -0.010046793147921562 0.16599999368190765 191 126 126
0.0905616283416748 -0.010046793147921562 0.16599999368190765 198 131 132
0.09095195680856705 -0.010046793147921562 0.16599999368190765 190 123 124
0.09134229272603989 -0.010046793147921562 0.16599999368190765 194 124 126
0.09228523075580597 -0.010107316076755524 0.16699999570846558 185 115 117
0.09267791360616684 -0.010107316076755524 0.16699999570846558 181 111 115
0.09362790733575821 -0.010167839005589485 0.1679999977350235 175 105 109
0.09402293711900711 -0.010167839005589485 0.1679999977350235 179 106 109
0.09441797435283661 -0.010167839005589485 0.1679999977350235 168 95 98
0.09481300413608551 -0.010167839005589485 0.1679999977350235 168 92 91
0.09520804136991501 -0.010167839005589485 0.1679999977350235 166 90 89
0.04759747162461281 -0.010703547857701778 0.18400000035762787 255 242 232
0.04776909574866295 -0.010645376518368721 0.18299999833106995 255 245 235
0.04793601483106613 -0.010587205179035664 0.18199999630451202 255 254 243
0.048098232597112656 -0.010529033839702606 0.1809999942779541 255 254 243
0.04825574532151222 -0.010470862500369549 0.18000000715255737 245 226 224
