0.08590013533830643 -0.012758870609104633 0.12999999523162842 184 157 151
0.08620581775903702 -0.012758870609104633 0.12999999523162842 180 150 143
0.08651150017976761 -0.012758870609104633 0.12999999523162842 175 145 138
0.0868171826004982 -0.012758870609104633 0.12999999523162842 176 144 140
0.08712286502122879 -0.012758870609104633 0.12999999523162842 169 137 133
0.08742854744195938 -0.012758870609104633 0.12999999523162842 161 130 130
0.08773422241210938 -0.012758870609104633 0.12999999523162842 168 137 137
0.08803990483283997 -0.012758870609104633 0.12999999523162842 167 143 147
0.08834558725357056 -0.012758870609104633 0.12999999523162842 162 138 142
0.08865126967430115 -0.012758870609104633 0.12999999523162842 154 133 140
0.08895695209503174 -0.012758870609104633 0.12999999523162842 146 125 132
0.08926263451576233 -0.012758870609104633 0.12999999523162842 142 125 127
0.08956830948591232 -0.012758870609104633 0.12999999523162842 149 132 134
0.08987399190664291 -0.012758870609104633 0.12999999523162842 155 139 134
0.0901796743273735 -0.012758870609104633 0.12999999523162842 154 138 133
0.0904853567481041 -0.012758870609104633 0.12999999523162842 150 131 129
0.09079103916883469 -0.012758870609104633 0.12999999523162842 145 126 124
0.09109672158956528 -0.012758870609104633 0.12999999523162842 151 130 129
0.09140239655971527 -0.012758870609104633 0.12999999523162842 153 132 131
0.09170807898044586 -0.012758870609104633 0.12999999523162842 150 131 125
0.09201376140117645 -0.012758870609104633 0.12999999523162842 147 128 122
0.09302959591150284 -0.012857015244662762 0.13099999725818634 149 130 124
0.09333762526512146 -0.012857015244662762 0.13099999725818634 146 127 121
0.09364565461874008 -0.012857015244662762 0.13099999725818634 144 123 118
0.0939536914229393 -0.012857015244662762 0.13099999725818634 150 129 124
0.09426172077655792 -0.012857015244662762 0.13099999725818634 157 129 126
0.09529165923595428 -0.012955160811543465 0.13199999928474426 153 125 122
0.09560204297304153 -0.012955160811543465 0.13199999928474426 161 125 129
0.09591243416070938 -0.012955160811543465 0.13199999928474426 165 129 133
0.09622281789779663 -0.012955160811543465 0.13199999928474426 160 131 137
0.09653320163488388 -0.012955160811543465 0.13199999928474426 159 130 136
0.09757724404335022 -0.013053305447101593 0.13300000131130219 155 129 144
0.0978899821639061 -0.013053305447101593 0.13300000131130219 152 126 141
0.09820272028446198 -0.013053305447101593 0.13300000131130219 147 123 138
0.09851545095443726 -0.013053305447101593 0.13300000131130219 145 121 136
0.09882818907499313 -0.013053305447101593 0.13300000131130219 145 120 130
0.09914091974496841 -0.013053305447101593 0.13300000131130219 145 120 130
0.09945365786552429 -0.013053305447101593 0.13300000131130219 157 121 125
0.09976639598608017 -0.013053305447101593 0.13300000131130219 154 118 122
0.10007912665605545 -0.013053305447101593 0.13300000131130219 169 107 106
0.10114669054746628 -0.013151451013982296 0.1340000033378601 152 90 89
0.06298384815454483 -0.013794302009046078 0.14399999380111694 255 173 163
0.06332245469093323 -0.013794302009046078 0.14399999380111694 255 179 169
0.06366105377674103 -0.013794302009046078 0.14399999380111694 255 211 206
0.06355521082878113 -0.013698508031666279 0.14300000667572021 255 224 219
0.0638914629817009 -0.013698508031666279 0.14300000667572021 255 243 238
0.06422770768404007 -0.013698508031666279 0.14300000667572021 255 250 245
0.06411246210336685 -0.01360271405428648 0.1420000046491623 255 251 247
0.064446359872818 -0.01360271405428648 0.1420000046491623 255 251 247
0.06478025764226913 -0.01360271405428648 0.1420000046491623 253 250 247
0.06511415541172028 -0.01360271405428648 0.1420000046491623 255 253 250
0.06544805318117142 -0.01360271405428648 0.1420000046491623 255 253 250
0.06578195095062256 -0.01360271405428648 0.1420000046491623 253 250 247
0.06565024703741074 -0.013506920076906681 0.14100000262260437 255 249 247
0.06598179042339325 -0.013506920076906681 0.14100000262260437 255 248 246
0.06584303081035614 -0.013411127030849457 0.14000000059604645 245 205 206
0.06617222726345062 -0.013411127030849457 0.14000000059604645 231 191 192
0.0665014237165451 -0.013411127030849457 0.14000000059604645 235 179 181
0.06683062016963959 -0.013411127030849457 0.14000000059604645 231 175 177
0.06668009608983994 -0.013315333053469658 0.13899999856948853 240 179 171
0.06700694561004639 -0.013315333053469658 0.13899999856948853 237 176 168
0.06733378767967224 -0.013315333053469658 0.13899999856948853 221 165 151
0.06717386096715927 -0.013219539076089859 0.1379999965429306 241 185 171
0.0674983561038971 -0.013219539076089859 0.1379999965429306 255 249 235
0.06782285124063492 -0.013219539076089859 0.1379999965429306 255 250 236
0.06814733892679214 -0.013219539076089859 0.1379999965429306 254 255 247
0.06847183406352997 -0.013219539076089859 0.1379999965429306 254 255 247
0.06829780340194702 -0.01312374509871006 0.13699999451637268 254 255 249
0.06861994415521622 -0.01312374509871006 0.13699999451637268 254 255 249
0.06894208490848541 -0.01312374509871006 0.13699999451637268 254 255 249
0.06875864416360855 -0.013027951121330261 0.13600000739097595 254 255 249
0.06907843798398972 -0.013027951121330261 0.13600000739097595 254 255 249
0.06939822435379028 -0.013027951121330261 0.13600000739097595 254 255 249
0.0692053809762001 -0.012932158075273037 0.13500000536441803 254 255 249
0.06952282041311264 -0.012932158075273037 0.13500000536441803 254 255 249
0.06984025985002518 -0.012932158075273037 0.13500000536441803 254 255 249
0.07015769928693771 -0.012932158075273037 0.13500000536441803 254 255 249
0.07047513872385025 -0.012932158075273037 0.13500000536441803 254 255 249
0.0702681839466095 -0.012836364097893238 0.1340000033378601 254 255 249
0.0705832690000534 -0.012836364097893238 0.1340000033378601 254 255 249
0.07089836150407791 -0.012836364097893238 0.1340000033378601 254 255 249
0.07121344655752182 -0.012836364097893238 0.1340000033378601 255 249 249
0.07152853161096573 -0.012836364097893238 0.1340000033378601 254 237 237
0.071307472884655 -0.01274057012051344 0.13300000131130219 237 188 187
0.07162020355463028 -0.01274057012051344 0.13300000131130219 249 200 199
0.07193294167518616 -0.01274057012051344 0.13300000131130219 220 173 160
0.07224567979574203 -0.01274057012051344 0.13300000131130219 250 203 190
0.07255841046571732 -0.01274057012051344 0.13300000131130219 255 252 234
0.0728711485862732 -0.01274057012051344 0.13300000131130219 255 253 235
0.07318388670682907 -0.01274057012051344 0.13300000131130219 254 255 245
0.07349661737680435 -0.01274057012051344 0.13300000131130219 254 255 245
0.07380935549736023 -0.01274057012051344 0.13300000131130219 254 253 253
0.07356478273868561 -0.01264477614313364 0.13199999928474426 244 243 243
0.07387516647577286 -0.01264477614313364 0.13199999928474426 210 199 207
0.07418555021286011 -0.01264477614313364 0.13199999928474426 218 207 215
0.07449593394994736 -0.01264477614313364 0.13199999928474426 230 209 220
0.0748063176870346 -0.01264477614313364 0.13199999928474426 230 209 220
0.07454763352870941 -0.012548983097076416 0.13099999725818634 236 208 217
0.07485567033290863 -0.012548983097076416 0.13099999725818634 255 230 239
0.07516369968652725 -0.012548983097076416 0.13099999725818634 255 244 254
0.07547173649072647 -0.012548983097076416 0.13099999725818634 255 245 255
0.07577976584434509 -0.012548983097076416 0.13099999725818634 255 242 253
0.07608779519796371 -0.012548983097076416 0.13099999725818634 246 225 236
0.07639583200216293 -0.012548983097076416 0.13099999725818634 247 207 224
0.07670386135578156 -0.012548983097076416 0.13099999725818634 217 177 194
0.07701189815998077 -0.012548983097076416 0.13099999725818634 216 170 180
0.0773199275135994 -0.012548983097076416 0.13099999725818634 206 160 170
0.07762796431779861 -0.012548983097076416 0.13099999725818634 213 168 175
0.07793599367141724 -0.012548983097076416 0.13099999725818634 217 172 179
0.07824403047561646 -0.012548983097076416 0.13099999725818634 219 174 181
0.07855205982923508 -0.012548983097076416 0.13099999725818634 219 174 181
0.0788600891828537 -0.012548983097076416 0.13099999725818634 221 181 186
0.07916812598705292 -0.012548983097076416 0.13099999725818634 228 188 193
0.07947615534067154 -0.012548983097076416 0.13099999725818634 231 192 201
0.07978419214487076 -0.012548983097076416 0.13099999725818634 222 183 192
0.08009222149848938 -0.012548983097076416 0.13099999725818634 199 159 176
0.0804002583026886 -0.012548983097076416 0.13099999725818634 194 154 171
0.08070828765630722 -0.012548983097076416 0.13099999725818634 191 145 157
0.08039787411689758 -0.012453189119696617 0.12999999523162842 178 132 144
0.08070355653762817 -0.012453189119696617 0.12999999523162842 176 131 120
0.08100923895835876 -0.012453189119696617 0.12999999523162842 191 146 135
0.08131492137908936 -0.012453189119696617 0.12999999523162842 205 163 151
0.08162060379981995 -0.012453189119696617 0.12999999523162842 221 179 167
0.08192627876996994 -0.012453189119696617 0.12999999523162842 230 185 188
0.08223196119070053 -0.012453189119696617 0.12999999523162842 224 179 182
0.08253764361143112 -0.012453189119696617 0.12999999523162842 219 180 189
0.08284332603216171 -0.012453189119696617 0.12999999523162842 200 161 170
0.0831490084528923 -0.012453189119696617 0.12999999523162842 180 153 158
0.0834546908736229 -0.012453189119696617 0.12999999523162842 180 153 158
0.08376036584377289 -0.012453189119696617 0.12999999523162842 175 154 151
0.08406604826450348 -0.012453189119696617 0.12999999523162842 169 148 145
0.08437173068523407 -0.012453189119696617 0.12999999523162842 172 150 142
0.08467741310596466 -0.012453189119696617 0.12999999523162842 178 156 148
0.08498309552669525 -0.012453189119696617 0.12999999523162842 178 153 146
0.08528877794742584 -0.012453189119696617 0.12999999523162842 181 156 149
0.08559445291757584 -0.012453189119696617 0.12999999523162842 184 159 150
0.08590013533830643 -0.012453189119696617 0.12999999523162842 183 158 149
0.08620581775903702 -0.012453189119696617 0.12999999523162842 179 151 148
0.08651150017976761 -0.012453189119696617 0.12999999523162842 172 144 141
0.0868171826004982 -0.012453189119696617 0.12999999523162842 170 142 139
0.08645268529653549 -0.012357395142316818 0.1289999932050705 165 137 134
0.08675601333379745 -0.012357395142316818 0.1289999932050705 161 134 137
0.08705934882164001 -0.012357395142316818 0.1289999932050705 155 128 131
0.08736267685890198 -0.012357395142316818 0.1289999932050705 155 131 133
0.08766600489616394 -0.012357395142316818 0.1289999932050705 160 136 138
0.08865126967430115 -0.012453189119696617 0.12999999523162842 158 138 141
0.08895695209503174 -0.012453189119696617 0.12999999523162842 146 126 129
0.08926263451576233 -0.012453189119696617 0.12999999523162842 142 122 125
0.08956830948591232 -0.012453189119696617 0.12999999523162842 143 123 126
0.08987399190664291 -0.012453189119696617 0.12999999523162842 146 126 127
0.0901796743273735 -0.012453189119696617 0.12999999523162842 156 136 137
0.0904853567481041 -0.012453189119696617 0.12999999523162842 151 129 131
0.09079103916883469 -0.012453189119696617 0.12999999523162842 148 126 128
0.09109672158956528 -0.012453189119696617 0.12999999523162842 148 126 128
0.09140239655971527 -0.012453189119696617 0.12999999523162842 147 125 127
0.09170807898044586 -0.012453189119696617 0.12999999523162842 149 130 128
0.09201376140117645 -0.012453189119696617 0.12999999523162842 147 128 126
0.09302959591150284 -0.012548983097076416 0.13099999725818634 147 128 126
0.09333762526512146 -0.012548983097076416 0.13099999725818634 149 130 128
0.09364565461874008 -0.012548983097076416 0.13099999725818634 143 124 122
0.0939536914229393 -0.012548983097076416 0.13099999725818634 144 125 123
0.09426172077655792 -0.012548983097076416 0.13099999725818634 147 124 123
0.09529165923595428 -0.01264477614313364 0.13199999928474426 146 123 122
0.09560204297304153 -0.01264477614313364 0.13199999928474426 158 125 128
0.09591243416070938 -0.01264477614313364 0.13199999928474426 163 130 133
0.09622281789779663 -0.01264477614313364 0.13199999928474426 160 128 135
0.09653320163488388 -0.01264477614313364 0.13199999928474426 158 126 133
0.09757724404335022 -0.01274057012051344 0.13300000131130219 156 131 143
0.0978899821639061 -0.01274057012051344 0.13300000131130219 156 131 143
0.09820272028446198 -0.01274057012051344 0.13300000131130219 150 129 140
0.09851545095443726 -0.01274057012051344 0.13300000131130219 144 123 134
0.09882818907499313 -0.01274057012051344 0.13300000131130219 145 122 132
0.09914091974496841 -0.01274057012051344 0.13300000131130219 148 125 135
0.09945365786552429 -0.01274057012051344 0.13300000131130219 153 121 128
0.09976639598608017 -0.01274057012051344 0.13300000131130219 148 116 123
0.10007912665605545 -0.01274057012051344 0.13300000131130219 164 104 104
0.10114669054746628 -0.012836364097893238 0.1340000033378601 152 92 92
0.06298384815454483 -0.013455701060593128 0.14399999380111694 255 174 162
0.06332245469093323 -0.013455701060593128 0.14399999380111694 255 188 176
0.06321895867586136 -0.013362258672714233 0.14300000667572021 254 209 196
0.06355521082878113 -0.013362258672714233 0.14300000667572021 255 233 220
0.0638914629817009 -0.013362258672714233 0.14300000667572021 255 252 243
0.06422770768404007 -0.013362258672714233 0.14300000667572021 255 252 243
0.06411246210336685 -0.013268816284835339 0.1420000046491623 255 255 249
0.064446359872818 -0.013268816284835339 0.1420000046491623 252 252 246
0.06478025764226913 -0.013268816284835339 0.1420000046491623 252 253 249
0.06511415541172028 -0.013268816284835339 0.1420000046491623 254 255 251
0.06544805318117142 -0.013268816284835339 0.1420000046491623 254 255 251
0.06531869620084763 -0.013175373896956444 0.14100000262260437 254 255 251
0.06565024703741074 -0.013175373896956444 0.14100000262260437 255 255 251
0.06598179042339325 -0.013175373896956444 0.14100000262260437 254 254 250
0.06584303081035614 -0.013081931509077549 0.14000000059604645 255 239 244
0.06617222726345062 -0.013081931509077549 0.14000000059604645 239 207 212
0.0665014237165451 -0.013081931509077549 0.14000000059604645 235 180 188
0.06683062016963959 -0.013081931509077549 0.14000000059604645 240 185 193
0.06668009608983994 -0.012988489121198654 0.13899999856948853 235 180 177
0.06700694561004639 -0.012988489121198654 0.13899999856948853 225 170 167
0.06733378767967224 -0.012988489121198654 0.13899999856948853 220 175 162
0.06717386096715927 -0.01289504673331976 0.1379999965429306 229 184 171
0.0674983561038971 -0.01289504673331976 0.1379999965429306 255 249 237
0.06782285124063492 -0.01289504673331976 0.1379999965429306 255 251 239
0.06814733892679214 -0.01289504673331976 0.1379999965429306 254 255 249
0.06847183406352997 -0.01289504673331976 0.1379999965429306 254 255 249
0.06829780340194702 -0.012801604345440865 0.13699999451637268 254 255 249
0.06861994415521622 -0.012801604345440865 0.13699999451637268 254 255 249
0.06894208490848541 -0.012801604345440865 0.13699999451637268 254 255 249
0.06875864416360855 -0.01270816195756197 0.13600000739097595 254 255 249
0.06907843798398972 -0.01270816195756197 0.13600000739097595 254 255 249
0.06939822435379028 -0.01270816195756197 0.13600000739097595 254 255 249
0.06971801817417145 -0.01270816195756197 0.13600000739097595 254 255 249
0.06952282041311264 -0.012614719569683075 0.13500000536441803 254 255 249
0.06984025985002518 -0.012614719569683075 0.13500000536441803 254 255 249
0.07015769928693771 -0.012614719569683075 0.13500000536441803 254 255 249
0.07047513872385025 -0.012614719569683075 0.13500000536441803 254 255 249
0.0702681839466095 -0.01252127718180418 0.1340000033378601 254 255 249
0.0705832690000534 -0.01252127718180418 0.1340000033378601 254 255 249
0.07089836150407791 -0.01252127718180418 0.1340000033378601 253 254 248
0.07121344655752182 -0.01252127718180418 0.1340000033378601 255 248 248
0.07152853161096573 -0.01252127718180418 0.1340000033378601 230 220 220
0.071307472884655 -0.012427834793925285 0.13300000131130219 241 198 200
0.07162020355463028 -0.012427834793925285 0.13300000131130219 239 196 198
0.07193294167518616 -0.012427834793925285 0.13300000131130219 227 187 174
0.07224567979574203 -0.012427834793925285 0.13300000131130219 237 197 184
0.07255841046571732 -0.012427834793925285 0.13300000131130219 255 251 231
0.0728711485862732 -0.012427834793925285 0.13300000131130219 255 253 233
0.07318388670682907 -0.012427834793925285 0.13300000131130219 254 255 243
0.07349661737680435 -0.012427834793925285 0.13300000131130219 254 255 243
0.07380935549736023 -0.012427834793925285 0.13300000131130219 254 255 251
0.07356478273868561 -0.01233439240604639 0.13199999928474426 250 251 247
0.07387516647577286 -0.01233439240604639 0.13199999928474426 214 205 212
0.07418555021286011 -0.01233439240604639 0.13199999928474426 217 208 215
0.07449593394994736 -0.01233439240604639 0.13199999928474426 227 211 218
0.0748063176870346 -0.01233439240604639 0.13199999928474426 227 211 218
0.07454763352870941 -0.012240950018167496 0.13099999725818634 233 216 216
0.07485567033290863 -0.012240950018167496 0.13099999725818634 255 240 240
0.07516369968652725 -0.012240950018167496 0.13099999725818634 255 248 249
0.07547173649072647 -0.012240950018167496 0.13099999725818634 255 249 250
0.07577976584434509 -0.012240950018167496 0.13099999725818634 255 249 255
0.07608779519796371 -0.012240950018167496 0.13099999725818634 237 224 230
0.07639583200216293 -0.012240950018167496 0.13099999725818634 242 209 224
0.07670386135578156 -0.012240950018167496 0.13099999725818634 212 179 194
0.07701189815998077 -0.012240950018167496 0.13099999725818634 220 174 184
0.0773199275135994 -0.012240950018167496 0.13099999725818634 212 166 176
0.07762796431779861 -0.012240950018167496 0.13099999725818634 209 164 169
0.07793599367141724 -0.012240950018167496 0.13099999725818634 214 169 174
0.07824403047561646 -0.012240950018167496 0.13099999725818634 217 174 178
0.07855205982923508 -0.012240950018167496 0.13099999725818634 223 180 184
0.0788600891828537 -0.012240950018167496 0.13099999725818634 222 182 185
0.07916812598705292 -0.012240950018167496 0.13099999725818634 222 182 185
0.07947615534067154 -0.012240950018167496 0.13099999725818634 215 181 189
0.07978419214487076 -0.012240950018167496 0.13099999725818634 206 172 180
0.08009222149848938 -0.012240950018167496 0.13099999725818634 200 167 182
0.0804002583026886 -0.012240950018167496 0.13099999725818634 193 160 175
0.08009219169616699 -0.012147507630288601 0.12999999523162842 183 146 155
0.08039787411689758 -0.012147507630288601 0.12999999523162842 170 133 142
0.08070355653762817 -0.012147507630288601 0.12999999523162842 166 130 118
0.08100923895835876 -0.012147507630288601 0.12999999523162842 163 127 115
0.08131492137908936 -0.012147507630288601 0.12999999523162842 181 143 132
0.08162060379981995 -0.012147507630288601 0.12999999523162842 203 165 154
0.08192627876996994 -0.012147507630288601 0.12999999523162842 224 185 183
0.08223196119070053 -0.012147507630288601 0.12999999523162842 218 179 177
0.08253764361143112 -0.012147507630288601 0.12999999523162842 205 170 182
0.08284332603216171 -0.012147507630288601 0.12999999523162842 195 160 172
0.0831490084528923 -0.012147507630288601 0.12999999523162842 180 157 167
0.0834546908736229 -0.012147507630288601 0.12999999523162842 177 154 164
0.08376036584377289 -0.012147507630288601 0.12999999523162842 175 154 151
0.08406604826450348 -0.012147507630288601 0.12999999523162842 169 148 145
0.08437173068523407 -0.012147507630288601 0.12999999523162842 169 148 143
0.08467741310596466 -0.012147507630288601 0.12999999523162842 170 149 144
0.08498309552669525 -0.012147507630288601 0.12999999523162842 172 149 144
0.08528877794742584 -0.012147507630288601 0.12999999523162842 178 155 150
0.08559445291757584 -0.012147507630288601 0.12999999523162842 181 158 155
0.08590013533830643 -0.012147507630288601 0.12999999523162842 176 153 150
0.08620581775903702 -0.012147507630288601 0.12999999523162842 174 150 152
0.08651150017976761 -0.012147507630288601 0.12999999523162842 174 150 152
0.0868171826004982 -0.012147507630288601 0.12999999523162842 167 146 145
0.08645268529653549 -0.012054065242409706 0.1289999932050705 160 139 138
0.08675601333379745 -0.012054065242409706 0.1289999932050705 150 128 130
0.08705934882164001 -0.012054065242409706 0.1289999932050705 150 128 130
0.08736267685890198 -0.012054065242409706 0.1289999932050705 158 136 138
0.08766600489616394 -0.012054065242409706 0.1289999932050705 157 135 137
0.08865126967430115 -0.012147507630288601 0.12999999523162842 157 137 138
0.08895695209503174 -0.012147507630288601 0.12999999523162842 149 129 130
0.08926263451576233 -0.012147507630288601 0.12999999523162842 142 123 121
0.08956830948591232 -0.012147507630288601 0.12999999523162842 137 118 116
0.08987399190664291 -0.012147507630288601 0.12999999523162842 143 120 119
0.0901796743273735 -0.012147507630288601 0.12999999523162842 148 125 124
0.0904853567481041 -0.012147507630288601 0.12999999523162842 152 128 132
0.09079103916883469 -0.012147507630288601 0.12999999523162842 154 130 134
0.09109672158956528 -0.012147507630288601 0.12999999523162842 153 129 131
0.09140239655971527 -0.012147507630288601 0.12999999523162842 146 122 124
0.09170807898044586 -0.012147507630288601 0.12999999523162842 146 122 124
0.09201376140117645 -0.012147507630288601 0.12999999523162842 148 124 126
0.09302959591150284 -0.012240950018167496 0.13099999725818634 147 127 130
0.09333762526512146 -0.012240950018167496 0.13099999725818634 146 126 129
0.09364565461874008 -0.012240950018167496 0.13099999725818634 136 119 119
0.0939536914229393 -0.012240950018167496 0.13099999725818634 141 124 124
0.09426172077655792 -0.012240950018167496 0.13099999725818634 146 125 124
0.09529165923595428 -0.01233439240604639 0.13199999928474426 144 123 122
0.09560204297304153 -0.01233439240604639 0.13199999928474426 157 125 130
0.09591243416070938 -0.01233439240604639 0.13199999928474426 158 126 131
0.09622281789779663 -0.01233439240604639 0.13199999928474426 154 122 127
0.09726451337337494 -0.012427834793925285 0.13300000131130219 154 122 127
0.09757724404335022 -0.012427834793925285 0.13300000131130219 156 131 139
0.0978899821639061 -0.012427834793925285 0.13300000131130219 154 129 137
0.09820272028446198 -0.012427834793925285 0.13300000131130219 151 130 139
0.09851545095443726 -0.012427834793925285 0.13300000131130219 150 129 138
0.09882818907499313 -0.012427834793925285 0.13300000131130219 150 129 138
0.09914091974496841 -0.012427834793925285 0.13300000131130219 149 128 137
0.09945365786552429 -0.012427834793925285 0.13300000131130219 153 124 130
0.09976639598608017 -0.012427834793925285 0.13300000131130219 156 127 133
0.10007912665605545 -0.012427834793925285 0.13300000131130219 169 110 115
0.10114669054746628 -0.01252127718180418 0.1340000033378601 153 94 99
0.06298384815454483 -0.013117100112140179 0.14399999380111694 255 176 164
0.06332245469093323 -0.013117100112140179 0.14399999380111694 255 192 180
0.06321895867586136 -0.013026009313762188 0.14300000667572021 252 212 197
0.06355521082878113 -0.013026009313762188 0.14300000667572021 255 234 219
0.0638914629817009 -0.013026009313762188 0.14300000667572021 255 253 240
0.06422770768404007 -0.013026009313762188 0.14300000667572021 255 254 241
0.06411246210336685 -0.012934918515384197 0.1420000046491623 254 255 247
0.064446359872818 -0.012934918515384197 0.1420000046491623 254 255 247
0.06478025764226913 -0.012934918515384197 0.1420000046491623 254 255 249
0.06511415541172028 -0.012934918515384197 0.1420000046491623 254 255 249
0.06544805318117142 -0.012934918515384197 0.1420000046491623 254 255 249
0.06531869620084763 -0.012843827717006207 0.14100000262260437 254 255 249
0.06565024703741074 -0.012843827717006207 0.14100000262260437 254 255 249
0.06598179042339325 -0.012843827717006207 0.14100000262260437 254 255 249
0.06584303081035614 -0.012752735987305641 0.14000000059604645 255 248 249
0.06617222726345062 -0.012752735987305641 0.14000000059604645 235 220 221
0.0665014237165451 -0.012752735987305641 0.14000000059604645 236 192 201
0.06635325402021408 -0.01266164518892765 0.13899999856948853 230 186 195
0.06668009608983994 -0.01266164518892765 0.13899999856948853 231 180 182
0.06700694561004639 -0.01266164518892765 0.13899999856948853 226 175 177
0.06733378767967224 -0.01266164518892765 0.13899999856948853 214 178 170
0.06717386096715927 -0.01257055439054966 0.1379999965429306 214 178 170
0.0674983561038971 -0.01257055439054966 0.1379999965429306 255 249 237
0.06782285124063492 -0.01257055439054966 0.1379999965429306 255 252 240
0.06814733892679214 -0.01257055439054966 0.1379999965429306 254 255 247
0.06847183406352997 -0.01257055439054966 0.1379999965429306 254 255 247
0.06829780340194702 -0.012479463592171669 0.13699999451637268 254 255 249
0.06861994415521622 -0.012479463592171669 0.13699999451637268 254 255 249
0.06894208490848541 -0.012479463592171669 0.13699999451637268 254 255 249
0.06875864416360855 -0.012388372793793678 0.13600000739097595 254 255 249
0.06907843798398972 -0.012388372793793678 0.13600000739097595 254 255 249
0.06939822435379028 -0.012388372793793678 0.13600000739097595 254 255 249
0.06971801817417145 -0.012388372793793678 0.13600000739097595 254 255 249
0.07003780454397202 -0.012388372793793678 0.13600000739097595 254 255 249
0.06984025985002518 -0.012297281064093113 0.13500000536441803 254 255 249
0.07015769928693771 -0.012297281064093113 0.13500000536441803 254 255 249
0.07047513872385025 -0.012297281064093113 0.13500000536441803 254 255 249
0.0702681839466095 -0.012206190265715122 0.1340000033378601 254 255 249
0.0705832690000534 -0.012206190265715122 0.1340000033378601 254 255 249
0.07089836150407791 -0.012206190265715122 0.1340000033378601 254 255 249
0.07121344655752182 -0.012206190265715122 0.1340000033378601 255 251 250
0.07152853161096573 -0.012206190265715122 0.1340000033378601 242 234 233
0.071307472884655 -0.012115099467337132 0.13300000131130219 234 200 206
0.07162020355463028 -0.012115099467337132 0.13300000131130219 232 198 204
0.07193294167518616 -0.012115099467337132 0.13300000131130219 218 184 174
0.07224567979574203 -0.012115099467337132 0.13300000131130219 211 177 167
0.07255841046571732 -0.012115099467337132 0.13300000131130219 255 248 226
0.0728711485862732 -0.012115099467337132 0.13300000131130219 255 252 230
0.07318388670682907 -0.012115099467337132 0.13300000131130219 255 255 241
0.07349661737680435 -0.012115099467337132 0.13300000131130219 255 255 241
0.07380935549736023 -0.012115099467337132 0.13300000131130219 254 255 251
0.07356478273868561 -0.01202400866895914 0.13199999928474426 254 255 251
0.07387516647577286 -0.01202400866895914 0.13199999928474426 228 222 226
0.07418555021286011 -0.01202400866895914 0.13199999928474426 222 216 220
0.07449593394994736 -0.01202400866895914 0.13199999928474426 229 216 222
0.0748063176870346 -0.01202400866895914 0.13199999928474426 229 216 222
0.07454763352870941 -0.01193291787058115 0.13099999725818634 234 222 220
0.07485567033290863 -0.01193291787058115 0.13099999725818634 248 236 234
0.07516369968652725 -0.01193291787058115 0.13099999725818634 255 250 248
0.07547173649072647 -0.01193291787058115 0.13099999725818634 255 251 249
0.07577976584434509 -0.01193291787058115 0.13099999725818634 255 249 253
0.07608779519796371 -0.01193291787058115 0.13099999725818634 239 228 232
0.07639583200216293 -0.01193291787058115 0.13099999725818634 241 211 223
0.07670386135578156 -0.01193291787058115 0.13099999725818634 224 194 206
0.07701189815998077 -0.01193291787058115 0.13099999725818634 225 181 190
0.0773199275135994 -0.01193291787058115 0.13099999725818634 213 169 178
0.07762796431779861 -0.01193291787058115 0.13099999725818634 208 165 169
0.07793599367141724 -0.01193291787058115 0.13099999725818634 211 168 172
0.07824403047561646 -0.01193291787058115 0.13099999725818634 209 169 172
0.07855205982923508 -0.01193291787058115 0.13099999725818634 213 173 176
0.0788600891828537 -0.01193291787058115 0.13099999725818634 210 177 178
0.07916812598705292 -0.01193291787058115 0.13099999725818634 211 178 179
0.07947615534067154 -0.01193291787058115 0.13099999725818634 208 179 183
0.07978419214487076 -0.01193291787058115 0.13099999725818634 210 181 185
0.08009222149848938 -0.01193291787058115 0.13099999725818634 214 186 195
0.0804002583026886 -0.01193291787058115 0.13099999725818634 198 170 179
0.08009219169616699 -0.011841826140880585 0.12999999523162842 185 156 162
0.08039787411689758 -0.011841826140880585 0.12999999523162842 162 133 139
0.08070355653762817 -0.011841826140880585 0.12999999523162842 154 122 116
0.08100923895835876 -0.011841826140880585 0.12999999523162842 159 127 121
0.08131492137908936 -0.011841826140880585 0.12999999523162842 199 165 155
0.08162060379981995 -0.011841826140880585 0.12999999523162842 198 164 154
0.08192627876996994 -0.011841826140880585 0.12999999523162842 214 179 176
0.08223196119070053 -0.011841826140880585 0.12999999523162842 217 182 179
0.08253764361143112 -0.011841826140880585 0.12999999523162842 198 168 178
0.08284332603216171 -0.011841826140880585 0.12999999523162842 186 156 166
0.0831490084528923 -0.011841826140880585 0.12999999523162842 185 157 170
0.0834546908736229 -0.011841826140880585 0.12999999523162842 176 148 161
0.08376036584377289 -0.011841826140880585 0.12999999523162842 175 151 153
0.08406604826450348 -0.011841826140880585 0.12999999523162842 174 150 152
0.08437173068523407 -0.011841826140880585 0.12999999523162842 170 147 142
0.08467741310596466 -0.011841826140880585 0.12999999523162842 169 146 141
0.08498309552669525 -0.011841826140880585 0.12999999523162842 169 146 145
0.08528877794742584 -0.011841826140880585 0.12999999523162842 174 151 150
0.08559445291757584 -0.011841826140880585 0.12999999523162842 175 153 157
0.08590013533830643 -0.011841826140880585 0.12999999523162842 177 155 159
0.08620581775903702 -0.011841826140880585 0.12999999523162842 167 144 152
0.08651150017976761 -0.011841826140880585 0.12999999523162842 165 142 150
0.0868171826004982 -0.011841826140880585 0.12999999523162842 160 140 141
0.08712286502122879 -0.011841826140880585 0.12999999523162842 158 138 139
0.08742854744195938 -0.011841826140880585 0.12999999523162842 150 130 131
0.08773422241210938 -0.011841826140880585 0.12999999523162842 150 130 131
0.08803990483283997 -0.011841826140880585 0.12999999523162842 149 129 130
0.08834558725357056 -0.011841826140880585 0.12999999523162842 149 129 130
0.08865126967430115 -0.011841826140880585 0.12999999523162842 151 131 132
0.08895695209503174 -0.011841826140880585 0.12999999523162842 144 124 125
0.08926263451576233 -0.011841826140880585 0.12999999523162842 138 114 116
0.08956830948591232 -0.011841826140880585 0.12999999523162842 138 114 116
0.08987399190664291 -0.011841826140880585 0.12999999523162842 144 117 122
0.0901796743273735 -0.011841826140880585 0.12999999523162842 148 121 126
0.0904853567481041 -0.011841826140880585 0.12999999523162842 150 121 127
0.09079103916883469 -0.011841826140880585 0.12999999523162842 158 129 135
0.09109672158956528 -0.011841826140880585 0.12999999523162842 153 124 130
0.09140239655971527 -0.011841826140880585 0.12999999523162842 150 121 127
0.09170807898044586 -0.011841826140880585 0.12999999523162842 152 128 130
0.09272155910730362 -0.01193291787058115 0.13099999725818634 154 130 132
0.09302959591150284 -0.01193291787058115 0.13099999725818634 151 130 141
0.09333762526512146 -0.01193291787058115 0.13099999725818634 142 121 132
0.09364565461874008 -0.01193291787058115 0.13099999725818634 135 114 121
0.0939536914229393 -0.01193291787058115 0.13099999725818634 139 118 125
0.09426172077655792 -0.01193291787058115 0.13099999725818634 138 117 116
0.09529165923595428 -0.01202400866895914 0.13199999928474426 137 116 115
0.09560204297304153 -0.01202400866895914 0.13199999928474426 153 120 123
0.09591243416070938 -0.01202400866895914 0.13199999928474426 156 123 126
0.09622281789779663 -0.01202400866895914 0.13199999928474426 155 123 128
0.09726451337337494 -0.012115099467337132 0.13300000131130219 155 123 128
0.09757724404335022 -0.012115099467337132 0.13300000131130219 153 128 138
0.0978899821639061 -0.012115099467337132 0.13300000131130219 155 130 140
0.09820272028446198 -0.012115099467337132 0.13300000131130219 149 131 139
0.09851545095443726 -0.012115099467337132 0.13300000131130219 149 131 139
0.09882818907499313 -0.012115099467337132 0.13300000131130219 151 133 141
0.09914091974496841 -0.012115099467337132 0.13300000131130219 148 130 138
0.09945365786552429 -0.012115099467337132 0.13300000131130219 150 123 128
0.09976639598608017 -0.012115099467337132 0.13300000131130219 145 118 123
0.10007912665605545 -0.012115099467337132 0.13300000131130219 160 101 106
0.10114669054746628 -0.012206190265715122 0.1340000033378601 144 85 90
0.06298384815454483 -0.01277849916368723 0.14399999380111694 254 171 159
0.06332245469093323 -0.01277849916368723 0.14399999380111694 255 202 190
0.06321895867586136 -0.012689759954810143 0.14300000667572021 255 216 203
0.06355521082878113 -0.012689759954810143 0.14300000667572021 255 228 215
0.0638914629817009 -0.012689759954810143 0.14300000667572021 255 251 241
0.06422770768404007 -0.012689759954810143 0.14300000667572021 255 253 243
0.06411246210336685 -0.012601020745933056 0.1420000046491623 254 255 247
0.064446359872818 -0.012601020745933056 0.1420000046491623 254 255 247
0.06478025764226913 -0.012601020745933056 0.1420000046491623 254 255 249
0.06511415541172028 -0.012601020745933056 0.1420000046491623 254 255 249
0.06544805318117142 -0.012601020745933056 0.1420000046491623 254 255 249
0.06531869620084763 -0.012512280605733395 0.14100000262260437 254 255 249
0.06565024703741074 -0.012512280605733395 0.14100000262260437 254 255 249
0.06598179042339325 -0.012512280605733395 0.14100000262260437 254 255 249
0.06584303081035614 -0.012423541396856308 0.14000000059604645 255 253 251
0.06617222726345062 -0.012423541396856308 0.14000000059604645 250 245 243
0.0665014237165451 -0.012423541396856308 0.14000000059604645 245 208 217
0.06635325402021408 -0.012334801256656647 0.13899999856948853 224 187 196
0.06668009608983994 -0.012334801256656647 0.13899999856948853 227 179 185
0.06700694561004639 -0.012334801256656647 0.13899999856948853 221 173 179
0.06684937328100204 -0.01224606204777956 0.1379999965429306 202 172 165
0.06717386096715927 -0.01224606204777956 0.1379999965429306 193 163 156
0.0674983561038971 -0.01224606204777956 0.1379999965429306 255 251 233
0.06782285124063492 -0.01224606204777956 0.1379999965429306 255 255 237
0.06814733892679214 -0.01224606204777956 0.1379999965429306 254 255 243
0.06847183406352997 -0.01224606204777956 0.1379999965429306 254 255 243
0.06829780340194702 -0.012157322838902473 0.13699999451637268 254 255 249
0.06861994415521622 -0.012157322838902473 0.13699999451637268 254 255 249
0.06894208490848541 -0.012157322838902473 0.13699999451637268 254 255 249
0.06875864416360855 -0.012068582698702812 0.13600000739097595 254 255 249
0.06907843798398972 -0.012068582698702812 0.13600000739097595 254 255 249
0.06939822435379028 -0.012068582698702812 0.13600000739097595 254 255 249
0.06971801817417145 -0.012068582698702812 0.13600000739097595 254 255 249
0.07003780454397202 -0.012068582698702812 0.13600000739097595 254 255 249
0.06984025985002518 -0.011979843489825726 0.13500000536441803 254 255 249
0.07015769928693771 -0.011979843489825726 0.13500000536441803 254 255 249
0.07047513872385025 -0.011979843489825726 0.13500000536441803 254 255 249
0.0702681839466095 -0.011891103349626064 0.1340000033378601 254 255 249
0.0705832690000534 -0.011891103349626064 0.1340000033378601 254 255 249
0.07089836150407791 -0.011891103349626064 0.1340000033378601 254 255 249
0.07121344655752182 -0.011891103349626064 0.1340000033378601 255 252 251
0.07152853161096573 -0.011891103349626064 0.1340000033378601 244 236 235
0.07184361666440964 -0.011891103349626064 0.1340000033378601 235 203 208
0.07162020355463028 -0.011802364140748978 0.13300000131130219 240 208 213
0.07193294167518616 -0.011802364140748978 0.13300000131130219 205 169 159
0.07224567979574203 -0.011802364140748978 0.13300000131130219 198 162 152
0.07255841046571732 -0.011802364140748978 0.13300000131130219 221 205 182
0.0728711485862732 -0.011802364140748978 0.13300000131130219 255 252 229
0.07318388670682907 -0.011802364140748978 0.13300000131130219 255 255 239
0.07349661737680435 -0.011802364140748978 0.13300000131130219 255 255 239
0.07380935549736023 -0.011802364140748978 0.13300000131130219 254 255 249
0.07356478273868561 -0.011713624931871891 0.13199999928474426 253 254 248
0.07387516647577286 -0.011713624931871891 0.13199999928474426 236 227 232
0.07418555021286011 -0.011713624931871891 0.13199999928474426 230 221 226
0.07449593394994736 -0.011713624931871891 0.13199999928474426 231 218 226
0.0748063176870346 -0.011713624931871891 0.13199999928474426 231 218 226
0.07454763352870941 -0.01162488479167223 0.13099999725818634 231 220 224
0.07485567033290863 -0.01162488479167223 0.13099999725818634 235 224 228
0.07516369968652725 -0.01162488479167223 0.13099999725818634 246 236 236
0.07547173649072647 -0.01162488479167223 0.13099999725818634 255 247 247
0.07577976584434509 -0.01162488479167223 0.13099999725818634 255 248 252
0.07608779519796371 -0.01162488479167223 0.13099999725818634 250 239 243
0.07639583200216293 -0.01162488479167223 0.13099999725818634 243 213 225
0.07670386135578156 -0.01162488479167223 0.13099999725818634 234 204 216
0.07701189815998077 -0.01162488479167223 0.13099999725818634 228 187 197
0.0773199275135994 -0.01162488479167223 0.13099999725818634 215 174 184
0.07762796431779861 -0.01162488479167223 0.13099999725818634 203 165 169
0.07793599367141724 -0.01162488479167223 0.13099999725818634 202 164 168
0.07824403047561646 -0.01162488479167223 0.13099999725818634 197 166 168
0.07855205982923508 -0.01162488479167223 0.13099999725818634 205 174 176
0.0788600891828537 -0.01162488479167223 0.13099999725818634 209 185 189
0.07916812598705292 -0.01162488479167223 0.13099999725818634 200 176 180
0.07947615534067154 -0.01162488479167223 0.13099999725818634 197 173 177
0.07978419214487076 -0.01162488479167223 0.13099999725818634 198 174 178
0.08009222149848938 -0.01162488479167223 0.13099999725818634 197 172 180
0.0804002583026886 -0.01162488479167223 0.13099999725818634 191 166 174
0.08009219169616699 -0.011536145582795143 0.12999999523162842 179 151 160
0.08039787411689758 -0.011536145582795143 0.12999999523162842 142 114 123
0.08070355653762817 -0.011536145582795143 0.12999999523162842 128 95 96
0.08100923895835876 -0.011536145582795143 0.12999999523162842 134 101 102
0.08131492137908936 -0.011536145582795143 0.12999999523162842 189 155 145
0.08162060379981995 -0.011536145582795143 0.12999999523162842 197 163 153
0.08192627876996994 -0.011536145582795143 0.12999999523162842 205 173 169
0.08223196119070053 -0.011536145582795143 0.12999999523162842 215 183 179
0.08253764361143112 -0.011536145582795143 0.12999999523162842 203 174 180
0.08284332603216171 -0.011536145582795143 0.12999999523162842 206 177 183
0.0831490084528923 -0.011536145582795143 0.12999999523162842 187 157 171
0.0834546908736229 -0.011536145582795143 0.12999999523162842 177 147 161
0.08376036584377289 -0.011536145582795143 0.12999999523162842 172 145 150
0.08406604826450348 -0.011536145582795143 0.12999999523162842 170 143 148
0.08437173068523407 -0.011536145582795143 0.12999999523162842 172 146 146
0.08467741310596466 -0.011536145582795143 0.12999999523162842 170 144 144
0.08498309552669525 -0.011536145582795143 0.12999999523162842 167 145 149
0.08528877794742584 -0.011536145582795143 0.12999999523162842 170 148 152
0.08559445291757584 -0.011536145582795143 0.12999999523162842 172 149 159
0.08590013533830643 -0.011536145582795143 0.12999999523162842 168 145 155
0.08620581775903702 -0.011536145582795143 0.12999999523162842 159 141 151
0.08651150017976761 -0.011536145582795143 0.12999999523162842 156 138 148
0.0868171826004982 -0.011536145582795143 0.12999999523162842 149 132 134
0.08712286502122879 -0.011536145582795143 0.12999999523162842 145 128 130
0.08742854744195938 -0.011536145582795143 0.12999999523162842 151 132 130
0.08773422241210938 -0.011536145582795143 0.12999999523162842 151 132 130
0.08803990483283997 -0.011536145582795143 0.12999999523162842 149 130 128
0.08834558725357056 -0.011536145582795143 0.12999999523162842 146 127 125
0.08865126967430115 -0.011536145582795143 0.12999999523162842 150 128 130
0.08895695209503174 -0.011536145582795143 0.12999999523162842 146 124 126
0.08926263451576233 -0.011536145582795143 0.12999999523162842 142 118 120
0.08956830948591232 -0.011536145582795143 0.12999999523162842 139 115 117
0.08987399190664291 -0.011536145582795143 0.12999999523162842 141 117 121
0.0901796743273735 -0.011536145582795143 0.12999999523162842 142 118 122
0.0904853567481041 -0.011536145582795143 0.12999999523162842 145 116 122
0.09079103916883469 -0.011536145582795143 0.12999999523162842 151 122 128
0.09109672158956528 -0.011536145582795143 0.12999999523162842 156 119 126
0.09140239655971527 -0.011536145582795143 0.12999999523162842 148 111 118
0.09170807898044586 -0.011536145582795143 0.12999999523162842 157 125 130
0.09272155910730362 -0.01162488479167223 0.13099999725818634 157 125 130
0.09302959591150284 -0.01162488479167223 0.13099999725818634 155 129 144
0.09333762526512146 -0.01162488479167223 0.13099999725818634 146 120 135
0.09364565461874008 -0.01162488479167223 0.13099999725818634 136 115 124
0.0939536914229393 -0.01162488479167223 0.13099999725818634 132 111 120
0.09498127549886703 -0.011713624931871891 0.13199999928474426 132 109 108
0.09529165923595428 -0.011713624931871891 0.13199999928474426 129 106 105
0.09560204297304153 -0.011713624931871891 0.13199999928474426 145 114 114
0.09591243416070938 -0.011713624931871891 0.13199999928474426 155 124 124
0.09622281789779663 -0.011713624931871891 0.13199999928474426 157 125 132
0.09726451337337494 -0.011802364140748978 0.13300000131130219 157 125 132
0.09757724404335022 -0.011802364140748978 0.13300000131130219 150 125 135
0.0978899821639061 -0.011802364140748978 0.13300000131130219 160 135 145
0.09820272028446198 -0.011802364140748978 0.13300000131130219 149 133 142
0.09851545095443726 -0.011802364140748978 0.13300000131130219 149 133 142
0.09882818907499313 -0.011802364140748978 0.13300000131130219 149 136 142
0.09914091974496841 -0.011802364140748978 0.13300000131130219 147 134 140
0.09945365786552429 -0.011802364140748978 0.13300000131130219 150 127 135
0.09976639598608017 -0.011802364140748978 0.13300000131130219 152 129 137
0.10083160549402237 -0.011891103349626064 0.1340000033378601 167 110 117
0.10114669054746628 -0.011891103349626064 0.1340000033378601 147 90 97
0.06298384815454483 -0.012439899146556854 0.14399999380111694 242 161 146
0.06332245469093323 -0.012439899146556854 0.14399999380111694 255 182 167
0.06321895867586136 -0.012353510595858097 0.14300000667572021 251 216 201
0.06355521082878113 -0.012353510595858097 0.14300000667572021 255 237 222
0.0638914629817009 -0.012353510595858097 0.14300000667572021 255 254 242
0.06377856433391571 -0.01226712204515934 0.1420000046491623 255 255 243
0.06411246210336685 -0.01226712204515934 0.1420000046491623 254 255 249
0.064446359872818 -0.01226712204515934 0.1420000046491623 254 255 249
0.06478025764226913 -0.01226712204515934 0.1420000046491623 254 255 249
0.06511415541172028 -0.01226712204515934 0.1420000046491623 254 255 249
0.06498715281486511 -0.012180734425783157 0.14100000262260437 254 255 249
0.06531869620084763 -0.012180734425783157 0.14100000262260437 254 255 249
0.06565024703741074 -0.012180734425783157 0.14100000262260437 254 255 249
0.06598179042339325 -0.012180734425783157 0.14100000262260437 254 255 249
0.06584303081035614 -0.0120943458750844 0.14000000059604645 255 254 251
0.06617222726345062 -0.0120943458750844 0.14000000059604645 255 254 251
0.0665014237165451 -0.0120943458750844 0.14000000059604645 248 216 223
0.06635325402021408 -0.012007957324385643 0.13899999856948853 228 196 203
0.06668009608983994 -0.012007957324385643 0.13899999856948853 232 189 195
0.06700694561004639 -0.012007957324385643 0.13899999856948853 222 179 185
0.06684937328100204 -0.01192156970500946 0.1379999965429306 197 158 154
0.06717386096715927 -0.01192156970500946 0.1379999965429306 187 148 144
0.0674983561038971 -0.01192156970500946 0.1379999965429306 248 239 222
0.06782285124063492 -0.01192156970500946 0.1379999965429306 255 253 236
0.06814733892679214 -0.01192156970500946 0.1379999965429306 254 255 243
0.06847183406352997 -0.01192156970500946 0.1379999965429306 254 255 243
0.06829780340194702 -0.011835181154310703 0.13699999451637268 254 255 249
0.06861994415521622 -0.011835181154310703 0.13699999451637268 254 255 249
0.06894208490848541 -0.011835181154310703 0.13699999451637268 254 255 249
0.06926422566175461 -0.011835181154310703 0.13699999451637268 254 255 249
0.06907843798398972 -0.01174879353493452 0.13600000739097595 254 255 249
0.06939822435379028 -0.01174879353493452 0.13600000739097595 254 255 249
0.06971801817417145 -0.01174879353493452 0.13600000739097595 254 255 249
0.07003780454397202 -0.01174879353493452 0.13600000739097595 254 255 249
0.06984025985002518 -0.011662404984235764 0.13500000536441803 254 255 249
0.07015769928693771 -0.011662404984235764 0.13500000536441803 254 255 249
0.07047513872385025 -0.011662404984235764 0.13500000536441803 254 255 249
0.0702681839466095 -0.011576016433537006 0.1340000033378601 254 255 249
0.0705832690000534 -0.011576016433537006 0.1340000033378601 254 255 249
0.07089836150407791 -0.011576016433537006 0.1340000033378601 254 255 249
0.07121344655752182 -0.011576016433537006 0.1340000033378601 255 250 250
0.07152853161096573 -0.011576016433537006 0.1340000033378601 245 233 233
0.071307472884655 -0.011489628814160824 0.13300000131130219 238 201 208
0.07162020355463028 -0.011489628814160824 0.13300000131130219 227 190 197
0.07193294167518616 -0.011489628814160824 0.13300000131130219 196 155 147
0.07224567979574203 -0.011489628814160824 0.13300000131130219 181 140 132
0.07255841046571732 -0.011489628814160824 0.13300000131130219 187 154 139
0.0728711485862732 -0.011489628814160824 0.13300000131130219 255 242 227
0.07318388670682907 -0.011489628814160824 0.13300000131130219 255 255 235
0.07349661737680435 -0.011489628814160824 0.13300000131130219 255 255 235
0.07380935549736023 -0.011489628814160824 0.13300000131130219 255 255 247
0.07356478273868561 -0.011403240263462067 0.13199999928474426 255 255 247
0.07387516647577286 -0.011403240263462067 0.13199999928474426 252 243 250
0.07418555021286011 -0.011403240263462067 0.13199999928474426 226 217 224
0.07449593394994736 -0.011403240263462067 0.13199999928474426 230 216 231
0.07423960417509079 -0.011316852644085884 0.13099999725818634 223 209 224
0.07454763352870941 -0.011316852644085884 0.13099999725818634 220 210 224
0.07485567033290863 -0.011316852644085884 0.13099999725818634 238 228 242
0.07516369968652725 -0.011316852644085884 0.13099999725818634 255 251 255
0.07547173649072647 -0.011316852644085884 0.13099999725818634 255 252 255
0.07577976584434509 -0.011316852644085884 0.13099999725818634 255 250 255
0.07608779519796371 -0.011316852644085884 0.13099999725818634 249 238 246
0.07639583200216293 -0.011316852644085884 0.13099999725818634 239 211 222
0.07670386135578156 -0.011316852644085884 0.13099999725818634 229 201 212
0.07701189815998077 -0.011316852644085884 0.13099999725818634 227 189 202
0.0773199275135994 -0.011316852644085884 0.13099999725818634 215 177 190
0.07762796431779861 -0.011316852644085884 0.13099999725818634 196 164 171
0.07793599367141724 -0.011316852644085884 0.13099999725818634 197 165 172
