0.0772893875837326 -0.01574861630797386 0.13199999928474426 212 155 162
0.07759977132081985 -0.01574861630797386 0.13199999928474426 217 156 161
0.0779101550579071 -0.01574861630797386 0.13199999928474426 217 156 161
0.07822053879499435 -0.01574861630797386 0.13199999928474426 226 165 168
0.0785309225320816 -0.01574861630797386 0.13199999928474426 226 165 168
0.07884130626916885 -0.01574861630797386 0.13199999928474426 217 161 163
0.0791516974568367 -0.01574861630797386 0.13199999928474426 219 163 165
0.07946208119392395 -0.01574861630797386 0.13199999928474426 221 170 170
0.0797724649310112 -0.01574861630797386 0.13199999928474426 214 163 163
0.08008284866809845 -0.01574861630797386 0.13199999928474426 208 153 150
0.08132435381412506 -0.01562930829823017 0.13099999725818634 204 140 135
0.08163238316774368 -0.01562930829823017 0.13099999725818634 215 151 146
0.0819404199719429 -0.01562930829823017 0.13099999725818634 215 154 148
0.08224844932556152 -0.01562930829823017 0.13099999725818634 220 159 153
0.08255648612976074 -0.01562930829823017 0.13099999725818634 207 154 148
0.08286451548337936 -0.01562930829823017 0.13099999725818634 210 157 151
0.056487321853637695 -0.01836214028298855 0.15700000524520874 254 138 142
0.056856490671634674 -0.01836214028298855 0.15700000524520874 255 139 141
0.056861162185668945 -0.018245184794068336 0.15600000321865082 255 137 139
0.056861136108636856 -0.018128227442502975 0.1550000011920929 254 136 138
0.05722559988498688 -0.018128227442502975 0.1550000011920929 255 137 139
0.0575900673866272 -0.018128227442502975 0.1550000011920929 255 138 140
0.05795453488826752 -0.018128227442502975 0.1550000011920929 250 132 134
0.05630594864487648 -0.017075620591640472 0.1459999978542328 253 116 129
0.05664925277233124 -0.017075620591640472 0.1459999978542328 248 111 124
0.05655043572187424 -0.0168417077511549 0.14399999380111694 234 82 98
0.056889038532972336 -0.0168417077511549 0.14399999380111694 255 93 105
0.057227637618780136 -0.0168417077511549 0.14399999380111694 250 88 100
0.057566240429878235 -0.0168417077511549 0.14399999380111694 253 89 95
0.057904839515686035 -0.0168417077511549 0.14399999380111694 247 83 89
0.058243442326784134 -0.0168417077511549 0.14399999380111694 255 86 92
0.058582041412591934 -0.0168417077511549 0.14399999380111694 253 84 90
0.058920640498399734 -0.0168417077511549 0.14399999380111694 254 79 80
0.05925924330949783 -0.0168417077511549 0.14399999380111694 244 69 70
0.060011718422174454 -0.01695866510272026 0.14499999582767487 245 71 67
0.060352668166160583 -0.01695866510272026 0.14499999582767487 244 70 66
0.06027504429221153 -0.0168417077511549 0.14399999380111694 247 80 69
0.06061364710330963 -0.0168417077511549 0.14399999380111694 244 77 66
0.06095224618911743 -0.0168417077511549 0.14399999380111694 237 71 58
0.06129084900021553 -0.0168417077511549 0.14399999380111694 236 70 57
0.06162944808602333 -0.0168417077511549 0.14399999380111694 237 75 56
0.06196804717183113 -0.0168417077511549 0.14399999380111694 226 64 45
0.06230664998292923 -0.0168417077511549 0.14399999380111694 215 61 39
0.06264524906873703 -0.0168417077511549 0.14399999380111694 255 121 99
0.06298384815454483 -0.0168417077511549 0.14399999380111694 255 128 122
0.06332245469093323 -0.0168417077511549 0.14399999380111694 255 127 121
0.06366105377674103 -0.0168417077511549 0.14399999380111694 252 132 133
0.06355521082878113 -0.016724752262234688 0.14300000667572021 255 137 138
0.0638914629817009 -0.016724752262234688 0.14300000667572021 255 140 149
0.06422770768404007 -0.016724752262234688 0.14300000667572021 255 140 149
0.06456395983695984 -0.016724752262234688 0.14300000667572021 237 126 132
0.06490021198987961 -0.016724752262234688 0.14300000667572021 243 132 138
0.06478025764226913 -0.016607794910669327 0.1420000046491623 250 141 147
0.0646556094288826 -0.016490839421749115 0.14100000262260437 247 138 144
0.06498715281486511 -0.016490839421749115 0.14100000262260437 243 135 145
0.06531869620084763 -0.016490839421749115 0.14100000262260437 226 118 128
0.06518463790416718 -0.016373883932828903 0.14000000059604645 221 121 128
0.06504587829113007 -0.016256926581263542 0.13899999856948853 215 115 122
0.0674983561038971 -0.01613997109234333 0.1379999965429306 218 136 140
0.06782285124063492 -0.01613997109234333 0.1379999965429306 255 185 189
0.06814733892679214 -0.01613997109234333 0.1379999965429306 255 197 201
0.06847183406352997 -0.01613997109234333 0.1379999965429306 255 205 209
0.06879632920026779 -0.01613997109234333 0.1379999965429306 255 207 213
0.06861994415521622 -0.01602301374077797 0.13699999451637268 255 205 211
0.06894208490848541 -0.01602301374077797 0.13699999451637268 255 209 217
0.06926422566175461 -0.01602301374077797 0.13699999451637268 249 201 209
0.06907843798398972 -0.015906058251857758 0.13600000739097595 251 205 215
0.06939822435379028 -0.015906058251857758 0.13600000739097595 255 211 221
0.06971801817417145 -0.015906058251857758 0.13600000739097595 255 216 230
0.07003780454397202 -0.015906058251857758 0.13600000739097595 255 216 230
0.07035759091377258 -0.015906058251857758 0.13600000739097595 255 210 227
0.07067738473415375 -0.015906058251857758 0.13600000739097595 252 207 224
0.07099717110395432 -0.015906058251857758 0.13600000739097595 254 197 216
0.07079257071018219 -0.015789100900292397 0.13500000536441803 253 196 215
0.07111001014709473 -0.015789100900292397 0.13500000536441803 239 165 175
0.07142744958400726 -0.015789100900292397 0.13500000536441803 230 156 166
0.0717448890209198 -0.015789100900292397 0.13500000536441803 235 152 149
0.07206232845783234 -0.015789100900292397 0.13500000536441803 213 130 127
0.07278887927532196 -0.015672145411372185 0.1340000033378601 255 206 190
0.07310396432876587 -0.015672145411372185 0.1340000033378601 255 245 233
0.07341904938220978 -0.015672145411372185 0.1340000033378601 255 242 230
0.07373414188623428 -0.015672145411372185 0.1340000033378601 255 234 239
0.07404922693967819 -0.015672145411372185 0.1340000033378601 251 224 229
0.07380935549736023 -0.015555188991129398 0.13300000131130219 255 209 217
0.07412209361791611 -0.015555188991129398 0.13300000131130219 249 199 207
0.07443482428789139 -0.015555188991129398 0.13300000131130219 247 192 198
0.07474756240844727 -0.015555188991129398 0.13300000131130219 244 189 195
0.07506029307842255 -0.015555188991129398 0.13300000131130219 237 188 189
0.0748063176870346 -0.015438232570886612 0.13199999928474426 241 192 193
0.07511670142412186 -0.015438232570886612 0.13199999928474426 242 195 194
0.0754270851612091 -0.015438232570886612 0.13199999928474426 236 189 188
0.07573746889829636 -0.015438232570886612 0.13199999928474426 242 186 188
0.0760478526353836 -0.015438232570886612 0.13199999928474426 225 169 171
0.07635823637247086 -0.015438232570886612 0.13199999928474426 215 155 163
0.0766686201095581 -0.015438232570886612 0.13199999928474426 224 164 172
0.07697900384664536 -0.015438232570886612 0.13199999928474426 223 163 173
0.0772893875837326 -0.015438232570886612 0.13199999928474426 220 160 170
0.07759977132081985 -0.015438232570886612 0.13199999928474426 216 155 160
0.0779101550579071 -0.015438232570886612 0.13199999928474426 218 157 162
0.07822053879499435 -0.015438232570886612 0.13199999928474426 229 168 171
0.0785309225320816 -0.015438232570886612 0.13199999928474426 226 165 168
0.07884130626916885 -0.015438232570886612 0.13199999928474426 225 169 171
0.0791516974568367 -0.015438232570886612 0.13199999928474426 227 171 173
0.0788600891828537 -0.015321276150643826 0.13099999725818634 227 173 174
0.07916812598705292 -0.015321276150643826 0.13099999725818634 225 171 172
0.07947615534067154 -0.015321276150643826 0.13099999725818634 214 161 157
0.08009222149848938 -0.015321276150643826 0.13099999725818634 203 148 145
0.08163238316774368 -0.015321276150643826 0.13099999725818634 206 144 141
0.0819404199719429 -0.015321276150643826 0.13099999725818634 212 158 150
0.08224844932556152 -0.015321276150643826 0.13099999725818634 215 161 153
0.08255648612976074 -0.015321276150643826 0.13099999725818634 211 166 155
0.08286451548337936 -0.015321276150643826 0.13099999725818634 209 164 153
0.05576768144965172 -0.01753455214202404 0.15299999713897705 253 133 134
0.05612744390964508 -0.01753455214202404 0.15299999713897705 252 132 133
0.05648720636963844 -0.01753455214202404 0.15299999713897705 252 132 133
0.0575900673866272 -0.017763761803507805 0.1550000011920929 253 133 134
0.0567622035741806 -0.01707613281905651 0.14900000393390656 249 112 125
0.05711256340146065 -0.01707613281905651 0.14900000393390656 247 110 123
0.05630594864487648 -0.016732318326830864 0.1459999978542328 255 108 123
0.05664925277233124 -0.016732318326830864 0.1459999978542328 255 106 121
0.05655043572187424 -0.01650310680270195 0.14399999380111694 241 81 95
0.056889038532972336 -0.01650310680270195 0.14399999380111694 255 85 97
0.057227637618780136 -0.01650310680270195 0.14399999380111694 255 89 101
0.057566240429878235 -0.01650310680270195 0.14399999380111694 255 81 84
0.057904839515686035 -0.01650310680270195 0.14399999380111694 252 77 80
0.058243442326784134 -0.01650310680270195 0.14399999380111694 251 72 70
0.058582041412591934 -0.01650310680270195 0.14399999380111694 250 71 69
0.0593298114836216 -0.016617711633443832 0.14499999582767487 235 59 56
0.059670764952898026 -0.016617711633443832 0.14499999582767487 241 65 62
0.060011718422174454 -0.016617711633443832 0.14499999582767487 239 63 58
0.060352668166160583 -0.016617711633443832 0.14499999582767487 242 66 61
0.06069362163543701 -0.016617711633443832 0.14499999582767487 245 78 67
0.06103457510471344 -0.016617711633443832 0.14499999582767487 242 75 64
0.06137552484869957 -0.016617711633443832 0.14499999582767487 230 72 56
0.061716478317976 -0.016617711633443832 0.14499999582767487 228 70 54
0.062057431787252426 -0.016617711633443832 0.14499999582767487 228 74 54
0.062398381531238556 -0.016617711633443832 0.14499999582767487 208 54 34
0.06230664998292923 -0.01650310680270195 0.14399999380111694 219 69 48
0.06264524906873703 -0.01650310680270195 0.14399999380111694 255 130 109
0.06298384815454483 -0.01650310680270195 0.14399999380111694 255 141 137
0.06332245469093323 -0.01650310680270195 0.14399999380111694 255 137 133
0.06366105377674103 -0.01650310680270195 0.14399999380111694 252 139 142
0.06399965286254883 -0.01650310680270195 0.14399999380111694 253 140 143
0.0638914629817009 -0.016388501971960068 0.14300000667572021 255 159 168
0.06422770768404007 -0.016388501971960068 0.14300000667572021 255 151 160
0.06456395983695984 -0.016388501971960068 0.14300000667572021 253 153 158
0.06490021198987961 -0.016388501971960068 0.14300000667572021 255 162 167
0.06478025764226913 -0.016273897141218185 0.1420000046491623 255 161 165
0.0646556094288826 -0.016159292310476303 0.14100000262260437 255 160 164
0.06498715281486511 -0.016159292310476303 0.14100000262260437 249 148 160
0.06531869620084763 -0.016159292310476303 0.14100000262260437 242 141 153
0.06518463790416718 -0.01604468747973442 0.14000000059604645 230 129 141
0.06551383435726166 -0.01604468747973442 0.14000000059604645 228 127 139
0.06537272781133652 -0.01593008264899254 0.13899999856948853 218 122 126
0.06569956988096237 -0.01593008264899254 0.13899999856948853 205 109 113
0.0674983561038971 -0.015815477818250656 0.1379999965429306 239 166 164
0.06782285124063492 -0.015815477818250656 0.1379999965429306 255 202 200
0.06814733892679214 -0.015815477818250656 0.1379999965429306 255 213 211
0.06847183406352997 -0.015815477818250656 0.1379999965429306 255 219 217
0.06879632920026779 -0.015815477818250656 0.1379999965429306 255 225 230
0.06861994415521622 -0.015700872987508774 0.13699999451637268 255 223 228
0.06894208490848541 -0.015700872987508774 0.13699999451637268 248 219 223
0.06926422566175461 -0.015700872987508774 0.13699999451637268 253 224 228
0.06907843798398972 -0.015586268156766891 0.13600000739097595 245 218 221
0.06939822435379028 -0.015586268156766891 0.13600000739097595 255 228 231
0.06971801817417145 -0.015586268156766891 0.13600000739097595 255 232 237
0.07003780454397202 -0.015586268156766891 0.13600000739097595 255 234 239
0.07035759091377258 -0.015586268156766891 0.13600000739097595 255 230 238
0.07067738473415375 -0.015586268156766891 0.13600000739097595 248 223 231
0.07099717110395432 -0.015586268156766891 0.13600000739097595 242 202 217
0.07079257071018219 -0.01547166332602501 0.13500000536441803 238 198 213
0.07111001014709473 -0.01547166332602501 0.13500000536441803 250 182 201
0.07142744958400726 -0.01547166332602501 0.13500000536441803 236 168 187
0.0717448890209198 -0.01547166332602501 0.13500000536441803 250 169 168
0.07206232845783234 -0.01547166332602501 0.13500000536441803 236 155 154
0.07278887927532196 -0.015357058495283127 0.1340000033378601 255 216 206
0.07310396432876587 -0.015357058495283127 0.1340000033378601 255 248 233
0.07341904938220978 -0.015357058495283127 0.1340000033378601 255 248 233
0.07373414188623428 -0.015357058495283127 0.1340000033378601 255 249 246
0.07404922693967819 -0.015357058495283127 0.1340000033378601 254 238 235
0.07380935549736023 -0.015242453664541245 0.13300000131130219 254 209 214
0.07412209361791611 -0.015242453664541245 0.13300000131130219 246 201 206
0.07443482428789139 -0.015242453664541245 0.13300000131130219 245 193 198
0.07474756240844727 -0.015242453664541245 0.13300000131130219 242 190 195
0.07449593394994736 -0.015127848833799362 0.13199999928474426 236 188 192
0.0748063176870346 -0.015127848833799362 0.13199999928474426 237 189 193
0.07511670142412186 -0.015127848833799362 0.13199999928474426 237 189 193
0.0754270851612091 -0.015127848833799362 0.13199999928474426 236 188 192
0.07573746889829636 -0.015127848833799362 0.13199999928474426 240 186 189
0.0760478526353836 -0.015127848833799362 0.13199999928474426 246 192 195
0.07635823637247086 -0.015127848833799362 0.13199999928474426 240 181 186
0.0766686201095581 -0.015127848833799362 0.13199999928474426 233 174 179
0.07639583200216293 -0.01501324400305748 0.13099999725818634 233 174 179
0.07670386135578156 -0.01501324400305748 0.13099999725818634 234 175 180
0.07759977132081985 -0.015127848833799362 0.13199999928474426 230 169 172
0.0779101550579071 -0.015127848833799362 0.13199999928474426 225 164 167
0.07762796431779861 -0.01501324400305748 0.13099999725818634 227 169 169
0.07793599367141724 -0.01501324400305748 0.13099999725818634 228 170 170
0.07824403047561646 -0.01501324400305748 0.13099999725818634 228 170 170
0.07855205982923508 -0.01501324400305748 0.13099999725818634 229 171 171
0.0788600891828537 -0.01501324400305748 0.13099999725818634 229 173 175
0.07916812598705292 -0.01501324400305748 0.13099999725818634 231 175 177
0.07947615534067154 -0.01501324400305748 0.13099999725818634 219 165 166
0.07978419214487076 -0.01501324400305748 0.13099999725818634 203 149 150
0.08163238316774368 -0.01501324400305748 0.13099999725818634 216 156 154
0.0819404199719429 -0.01501324400305748 0.13099999725818634 214 168 162
0.08224844932556152 -0.01501324400305748 0.13099999725818634 213 167 161
0.08255648612976074 -0.01501324400305748 0.13099999725818634 210 169 161
0.08223196119070053 -0.014898639172315598 0.12999999523162842 202 161 153
0.05468839034438133 -0.01717478781938553 0.15299999713897705 247 129 131
0.055048152804374695 -0.01717478781938553 0.15299999713897705 244 126 128
0.05540791526436806 -0.01717478781938553 0.15299999713897705 248 126 127
0.05540318414568901 -0.017062535509467125 0.15199999511241913 251 129 130
0.055760595947504044 -0.017062535509467125 0.15199999511241913 254 132 133
0.05611800774931908 -0.017062535509467125 0.15199999511241913 247 125 126
0.05647541955113411 -0.017062535509467125 0.15199999511241913 248 124 126
0.05641184747219086 -0.016725774854421616 0.14900000393390656 239 104 114
0.05638125166296959 -0.016613520681858063 0.14800000190734863 242 94 106
0.056729257106781006 -0.016613520681858063 0.14800000190734863 247 99 111
0.05592029169201851 -0.016276760026812553 0.14499999582767487 254 95 106
0.05626124516129494 -0.016276760026812553 0.14499999582767487 243 84 95
0.05621183663606644 -0.01616450771689415 0.14399999380111694 255 79 89
0.05655043572187424 -0.01616450771689415 0.14399999380111694 245 69 79
0.056889038532972336 -0.01616450771689415 0.14399999380111694 251 68 77
0.057227637618780136 -0.01616450771689415 0.14399999380111694 255 75 84
0.057566240429878235 -0.01616450771689415 0.14399999380111694 248 65 66
0.057904839515686035 -0.01616450771689415 0.14399999380111694 237 54 55
0.058243442326784134 -0.01616450771689415 0.14399999380111694 241 60 59
0.05898886173963547 -0.016276760026812553 0.14499999582767487 246 65 64
0.0593298114836216 -0.016276760026812553 0.14499999582767487 235 59 58
0.059670764952898026 -0.016276760026812553 0.14499999582767487 239 63 62
0.060011718422174454 -0.016276760026812553 0.14499999582767487 237 63 61
0.060352668166160583 -0.016276760026812553 0.14499999582767487 249 75 73
0.06069362163543701 -0.016276760026812553 0.14499999582767487 247 76 71
0.06103457510471344 -0.016276760026812553 0.14499999582767487 242 71 66
0.06137552484869957 -0.016276760026812553 0.14499999582767487 233 77 65
0.061716478317976 -0.016276760026812553 0.14499999582767487 233 77 65
0.062057431787252426 -0.016276760026812553 0.14499999582767487 229 78 60
0.062398381531238556 -0.016276760026812553 0.14499999582767487 215 64 46
0.06273933500051498 -0.016276760026812553 0.14499999582767487 239 96 77
0.06308028846979141 -0.016276760026812553 0.14499999582767487 255 138 119
0.06298384815454483 -0.01616450771689415 0.14399999380111694 255 143 139
0.06332245469093323 -0.01616450771689415 0.14399999380111694 255 147 143
0.06366105377674103 -0.01616450771689415 0.14399999380111694 255 148 153
0.06399965286254883 -0.01616450771689415 0.14399999380111694 249 142 147
0.06433825194835663 -0.01616450771689415 0.14399999380111694 255 168 172
0.06422770768404007 -0.016052253544330597 0.14300000667572021 255 160 164
0.06456395983695984 -0.016052253544330597 0.14300000667572021 255 166 171
0.06490021198987961 -0.016052253544330597 0.14300000667572021 255 166 171
0.06478025764226913 -0.015939999371767044 0.1420000046491623 254 166 169
0.06511415541172028 -0.015939999371767044 0.1420000046491623 255 170 173
0.06544805318117142 -0.015939999371767044 0.1420000046491623 253 157 177
0.06531869620084763 -0.01582774706184864 0.14100000262260437 238 142 162
0.06565024703741074 -0.01582774706184864 0.14100000262260437 236 138 151
0.06551383435726166 -0.015715492889285088 0.14000000059604645 239 141 154
0.06584303081035614 -0.015715492889285088 0.14000000059604645 224 128 132
0.06569956988096237 -0.01560323964804411 0.13899999856948853 217 121 125
0.06602641195058823 -0.01560323964804411 0.13899999856948853 213 124 121
0.06798747181892395 -0.01560323964804411 0.13899999856948853 255 205 195
0.06782285124063492 -0.015490985475480556 0.1379999965429306 255 226 216
0.06814733892679214 -0.015490985475480556 0.1379999965429306 255 235 229
0.06847183406352997 -0.015490985475480556 0.1379999965429306 255 237 231
0.06879632920026779 -0.015490985475480556 0.1379999965429306 255 248 249
0.06861994415521622 -0.015378732234239578 0.13699999451637268 255 242 243
0.06894208490848541 -0.015378732234239578 0.13699999451637268 255 247 245
0.06926422566175461 -0.015378732234239578 0.13699999451637268 255 249 247
0.06907843798398972 -0.0152664789929986 0.13600000739097595 254 244 242
0.06939822435379028 -0.0152664789929986 0.13600000739097595 255 247 245
0.06971801817417145 -0.0152664789929986 0.13600000739097595 255 251 248
0.07003780454397202 -0.0152664789929986 0.13600000739097595 255 252 249
0.07035759091377258 -0.0152664789929986 0.13600000739097595 255 252 250
0.07067738473415375 -0.0152664789929986 0.13600000739097595 255 251 249
0.07099717110395432 -0.0152664789929986 0.13600000739097595 255 246 251
0.07079257071018219 -0.015154224820435047 0.13500000536441803 255 241 246
0.07111001014709473 -0.015154224820435047 0.13500000536441803 255 206 219
0.07142744958400726 -0.015154224820435047 0.13500000536441803 231 180 193
0.0717448890209198 -0.015154224820435047 0.13500000536441803 246 169 171
0.07206232845783234 -0.015154224820435047 0.13500000536441803 247 170 172
0.07237976789474487 -0.015154224820435047 0.13500000536441803 213 131 121
0.07278887927532196 -0.015041971579194069 0.1340000033378601 255 223 212
0.07310396432876587 -0.015041971579194069 0.1340000033378601 255 250 233
0.07341904938220978 -0.015041971579194069 0.1340000033378601 255 250 233
0.07373414188623428 -0.015041971579194069 0.1340000033378601 255 252 245
0.07349661737680435 -0.01492971833795309 0.13300000131130219 253 242 235
0.07380935549736023 -0.01492971833795309 0.13300000131130219 245 207 211
0.07412209361791611 -0.01492971833795309 0.13300000131130219 251 213 217
0.07443482428789139 -0.01492971833795309 0.13300000131130219 247 199 207
0.07474756240844727 -0.01492971833795309 0.13300000131130219 239 191 199
0.07449593394994736 -0.014817465096712112 0.13199999928474426 239 191 199
0.0748063176870346 -0.014817465096712112 0.13199999928474426 241 193 201
0.07511670142412186 -0.014817465096712112 0.13199999928474426 242 192 198
0.0754270851612091 -0.014817465096712112 0.13199999928474426 242 192 198
0.07573746889829636 -0.014817465096712112 0.13199999928474426 240 188 193
0.0760478526353836 -0.014817465096712112 0.13199999928474426 242 190 195
0.07577976584434509 -0.01470521092414856 0.13099999725818634 243 187 191
0.07608779519796371 -0.01470521092414856 0.13099999725818634 241 185 189
0.07639583200216293 -0.01470521092414856 0.13099999725818634 243 182 187
0.07670386135578156 -0.01470521092414856 0.13099999725818634 231 170 175
0.07701189815998077 -0.01470521092414856 0.13099999725818634 229 170 173
0.0773199275135994 -0.01470521092414856 0.13099999725818634 227 168 171
0.07762796431779861 -0.01470521092414856 0.13099999725818634 221 163 161
0.07793599367141724 -0.01470521092414856 0.13099999725818634 228 170 168
0.07824403047561646 -0.01470521092414856 0.13099999725818634 233 177 179
0.07855205982923508 -0.01470521092414856 0.13099999725818634 233 177 179
0.0788600891828537 -0.01470521092414856 0.13099999725818634 233 179 182
0.07916812598705292 -0.01470521092414856 0.13099999725818634 225 171 174
0.07947615534067154 -0.01470521092414856 0.13099999725818634 221 166 174
0.07978419214487076 -0.01470521092414856 0.13099999725818634 213 158 166
0.0819404199719429 -0.01470521092414856 0.13099999725818634 204 158 154
0.08162060379981995 -0.014592957682907581 0.12999999523162842 213 167 163
0.08192627876996994 -0.014592957682907581 0.12999999523162842 206 167 163
0.05468839034438133 -0.016815025359392166 0.15299999713897705 244 123 129
0.055048152804374695 -0.016815025359392166 0.15299999713897705 244 123 129
0.05540791526436806 -0.016815025359392166 0.15299999713897705 251 129 132
0.05540318414568901 -0.016705123707652092 0.15199999511241913 250 128 131
0.055760595947504044 -0.016705123707652092 0.15199999511241913 251 129 132
0.05611800774931908 -0.016705123707652092 0.15199999511241913 251 129 132
0.056103870272636414 -0.01659522019326687 0.1509999930858612 249 119 125
0.05645893141627312 -0.01659522019326687 0.1509999930858612 250 120 126
0.05641184747219086 -0.01637541688978672 0.14900000393390656 248 100 115
0.05638125166296959 -0.016265515238046646 0.14800000190734863 239 81 90
0.056729257106781006 -0.016265515238046646 0.14800000190734863 254 96 105
0.05592029169201851 -0.015935808420181274 0.14499999582767487 255 91 95
0.05626124516129494 -0.015935808420181274 0.14499999582767487 251 81 85
0.05621183663606644 -0.0158259067684412 0.14399999380111694 245 60 69
0.05655043572187424 -0.0158259067684412 0.14399999380111694 224 39 48
0.056889038532972336 -0.0158259067684412 0.14399999380111694 235 46 52
0.057227637618780136 -0.0158259067684412 0.14399999380111694 240 51 57
0.057566240429878235 -0.0158259067684412 0.14399999380111694 246 58 59
0.057904839515686035 -0.0158259067684412 0.14399999380111694 248 60 61
0.05864790827035904 -0.015935808420181274 0.14499999582767487 251 68 65
0.05898886173963547 -0.015935808420181274 0.14499999582767487 248 65 62
0.0593298114836216 -0.015935808420181274 0.14499999582767487 245 66 64
0.059670764952898026 -0.015935808420181274 0.14499999582767487 242 63 61
0.060011718422174454 -0.015935808420181274 0.14499999582767487 240 64 61
0.060352668166160583 -0.015935808420181274 0.14499999582767487 241 65 62
0.06069362163543701 -0.015935808420181274 0.14499999582767487 248 74 72
0.06103457510471344 -0.015935808420181274 0.14499999582767487 244 70 68
0.06137552484869957 -0.015935808420181274 0.14499999582767487 235 76 69
0.061716478317976 -0.015935808420181274 0.14499999582767487 235 76 69
0.062057431787252426 -0.015935808420181274 0.14499999582767487 226 77 60
0.062398381531238556 -0.015935808420181274 0.14499999582767487 225 76 59
0.06273933500051498 -0.015935808420181274 0.14499999582767487 245 105 88
0.06308028846979141 -0.015935808420181274 0.14499999582767487 255 139 122
0.06342124193906784 -0.015935808420181274 0.14499999582767487 253 142 137
0.06332245469093323 -0.0158259067684412 0.14399999380111694 255 149 144
0.06366105377674103 -0.0158259067684412 0.14399999380111694 253 156 160
0.06399965286254883 -0.0158259067684412 0.14399999380111694 255 159 163
0.06433825194835663 -0.0158259067684412 0.14399999380111694 255 172 174
0.06422770768404007 -0.015716003254055977 0.14300000667572021 255 171 173
0.06456395983695984 -0.015716003254055977 0.14300000667572021 255 183 186
0.06490021198987961 -0.015716003254055977 0.14300000667572021 255 177 180
0.06478025764226913 -0.015606101602315903 0.1420000046491623 252 177 185
0.06511415541172028 -0.015606101602315903 0.1420000046491623 255 180 188
0.06544805318117142 -0.015606101602315903 0.1420000046491623 250 165 190
0.06531869620084763 -0.015496199950575829 0.14100000262260437 244 159 184
0.06565024703741074 -0.015496199950575829 0.14100000262260437 244 149 166
0.06551383435726166 -0.01538629736751318 0.14000000059604645 244 149 166
0.06584303081035614 -0.01538629736751318 0.14000000059604645 233 140 143
0.06617222726345062 -0.01538629736751318 0.14000000059604645 225 132 135
0.0665014237165451 -0.01538629736751318 0.14000000059604645 227 138 137
0.06635325402021408 -0.015276395715773106 0.13899999856948853 217 128 127
0.0676606297492981 -0.015276395715773106 0.13899999856948853 206 118 108
0.06798747181892395 -0.015276395715773106 0.13899999856948853 255 215 200
0.0683143213391304 -0.015276395715773106 0.13899999856948853 255 240 225
0.06814733892679214 -0.015166493132710457 0.1379999965429306 255 247 237
0.06847183406352997 -0.015166493132710457 0.1379999965429306 255 249 239
0.06879632920026779 -0.015166493132710457 0.1379999965429306 255 254 249
0.06861994415521622 -0.015056591480970383 0.13699999451637268 255 253 248
0.06894208490848541 -0.015056591480970383 0.13699999451637268 255 254 249
0.06926422566175461 -0.015056591480970383 0.13699999451637268 255 254 249
0.06907843798398972 -0.014946688897907734 0.13600000739097595 255 253 248
0.06939822435379028 -0.014946688897907734 0.13600000739097595 255 253 248
0.06971801817417145 -0.014946688897907734 0.13600000739097595 254 254 248
0.07003780454397202 -0.014946688897907734 0.13600000739097595 255 255 249
0.07035759091377258 -0.014946688897907734 0.13600000739097595 255 255 249
0.07067738473415375 -0.014946688897907734 0.13600000739097595 254 254 248
0.07099717110395432 -0.014946688897907734 0.13600000739097595 255 252 250
0.07079257071018219 -0.01483678724616766 0.13500000536441803 255 253 251
0.07111001014709473 -0.01483678724616766 0.13500000536441803 255 233 242
0.07142744958400726 -0.01483678724616766 0.13500000536441803 222 183 192
0.0717448890209198 -0.01483678724616766 0.13500000536441803 242 172 174
0.07206232845783234 -0.01483678724616766 0.13500000536441803 237 167 169
0.07237976789474487 -0.01483678724616766 0.13500000536441803 237 161 149
0.07278887927532196 -0.014726884663105011 0.1340000033378601 255 225 211
0.07310396432876587 -0.014726884663105011 0.1340000033378601 255 250 233
0.07341904938220978 -0.014726884663105011 0.1340000033378601 255 250 233
0.07373414188623428 -0.014726884663105011 0.1340000033378601 255 252 246
0.07349661737680435 -0.014616983011364937 0.13300000131130219 255 249 243
0.07380935549736023 -0.014616983011364937 0.13300000131130219 244 217 222
0.07412209361791611 -0.014616983011364937 0.13300000131130219 240 213 218
0.07443482428789139 -0.014616983011364937 0.13300000131130219 246 196 213
0.07474756240844727 -0.014616983011364937 0.13300000131130219 242 192 209
0.07449593394994736 -0.014507080428302288 0.13199999928474426 243 192 205
0.0748063176870346 -0.014507080428302288 0.13199999928474426 244 193 206
0.07511670142412186 -0.014507080428302288 0.13199999928474426 245 192 204
0.0754270851612091 -0.014507080428302288 0.13199999928474426 247 194 206
0.07516369968652725 -0.014397178776562214 0.13099999725818634 248 193 203
0.07547173649072647 -0.014397178776562214 0.13099999725818634 252 197 207
0.07577976584434509 -0.014397178776562214 0.13099999725818634 248 191 200
0.07608779519796371 -0.014397178776562214 0.13099999725818634 247 190 199
0.07639583200216293 -0.014397178776562214 0.13099999725818634 248 192 196
0.07670386135578156 -0.014397178776562214 0.13099999725818634 220 164 168
0.07701189815998077 -0.014397178776562214 0.13099999725818634 225 169 171
0.0773199275135994 -0.014397178776562214 0.13099999725818634 226 170 172
0.07762796431779861 -0.014397178776562214 0.13099999725818634 229 173 175
0.07793599367141724 -0.014397178776562214 0.13099999725818634 227 171 173
0.07824403047561646 -0.014397178776562214 0.13099999725818634 233 179 182
0.07855205982923508 -0.014397178776562214 0.13099999725818634 231 177 180
0.0788600891828537 -0.014397178776562214 0.13099999725818634 225 173 178
0.07916812598705292 -0.014397178776562214 0.13099999725818634 221 169 174
0.07947615534067154 -0.014397178776562214 0.13099999725818634 219 163 176
0.07978419214487076 -0.014397178776562214 0.13099999725818634 212 156 169
0.08163238316774368 -0.014397178776562214 0.13099999725818634 214 156 156
0.08131492137908936 -0.014287276193499565 0.12999999523162842 214 168 164
0.08162060379981995 -0.014287276193499565 0.12999999523162842 218 172 168
0.08192627876996994 -0.014287276193499565 0.12999999523162842 211 171 174
0.08223196119070053 -0.014287276193499565 0.12999999523162842 202 162 165
0.056103870272636414 -0.016240160912275314 0.1509999930858612 253 111 119
0.05645893141627312 -0.016240160912275314 0.1509999930858612 248 106 114
0.05638125166296959 -0.01591750793159008 0.14800000190734863 255 80 81
0.056729257106781006 -0.01591750793159008 0.14800000190734863 251 76 77
0.05630594864487648 -0.01570240594446659 0.1459999978542328 247 68 64
0.05664925277233124 -0.01570240594446659 0.1459999978542328 245 66 62
0.05660219490528107 -0.01559485588222742 0.14499999582767487 250 62 65
0.056943148374557495 -0.01559485588222742 0.14499999582767487 254 66 69
0.05728410184383392 -0.01559485588222742 0.14499999582767487 248 59 65
0.05762505158782005 -0.01559485588222742 0.14499999582767487 246 57 63
0.05796600505709648 -0.01559485588222742 0.14499999582767487 248 57 57
0.05830695852637291 -0.01559485588222742 0.14499999582767487 250 59 59
0.05864790827035904 -0.01559485588222742 0.14499999582767487 253 66 62
0.05898886173963547 -0.01559485588222742 0.14499999582767487 251 64 60
0.0593298114836216 -0.01559485588222742 0.14499999582767487 246 61 56
0.059670764952898026 -0.01559485588222742 0.14499999582767487 241 56 51
0.060425590723752975 -0.01570240594446659 0.1459999978542328 238 57 54
0.06076889485120773 -0.01570240594446659 0.1459999978542328 239 58 55
0.06111219897866249 -0.01570240594446659 0.1459999978542328 239 65 61
0.06145550310611725 -0.01570240594446659 0.1459999978542328 247 73 69
0.061798807233572006 -0.01570240594446659 0.1459999978542328 239 77 71
0.062142107635736465 -0.01570240594446659 0.1459999978542328 234 72 66
0.062057431787252426 -0.01559485588222742 0.14499999582767487 224 77 64
0.062398381531238556 -0.01559485588222742 0.14499999582767487 217 70 57
0.06273933500051498 -0.01559485588222742 0.14499999582767487 245 115 98
0.06308028846979141 -0.01559485588222742 0.14499999582767487 255 149 132
0.06342124193906784 -0.01559485588222742 0.14499999582767487 255 150 147
0.06376218795776367 -0.01559485588222742 0.14499999582767487 255 148 145
0.06366105377674103 -0.01548730581998825 0.14399999380111694 255 167 169
0.06399965286254883 -0.01548730581998825 0.14399999380111694 255 180 182
0.06433825194835663 -0.01548730581998825 0.14399999380111694 255 182 178
0.06422770768404007 -0.015379754826426506 0.14300000667572021 251 178 174
0.06456395983695984 -0.015379754826426506 0.14300000667572021 253 189 184
0.06490021198987961 -0.015379754826426506 0.14300000667572021 255 191 186
0.06478025764226913 -0.015272203832864761 0.1420000046491623 252 192 192
0.06511415541172028 -0.015272203832864761 0.1420000046491623 255 198 198
0.06544805318117142 -0.015272203832864761 0.1420000046491623 254 186 203
0.06578195095062256 -0.015272203832864761 0.1420000046491623 255 187 204
0.06565024703741074 -0.015164652839303017 0.14100000262260437 241 154 173
0.06598179042339325 -0.015164652839303017 0.14100000262260437 233 146 165
0.06584303081035614 -0.015057102777063847 0.14000000059604645 247 158 166
0.06617222726345062 -0.015057102777063847 0.14000000059604645 233 144 152
0.0665014237165451 -0.015057102777063847 0.14000000059604645 226 142 139
0.06683062016963959 -0.015057102777063847 0.14000000059604645 222 138 135
0.06668009608983994 -0.014949551783502102 0.13899999856948853 220 136 131
0.06700694561004639 -0.014949551783502102 0.13899999856948853 214 130 125
0.0676606297492981 -0.014949551783502102 0.13899999856948853 207 124 114
0.06798747181892395 -0.014949551783502102 0.13899999856948853 255 224 208
0.0683143213391304 -0.014949551783502102 0.13899999856948853 255 242 226
0.06814733892679214 -0.014842000789940357 0.1379999965429306 255 253 240
0.06847183406352997 -0.014842000789940357 0.1379999965429306 255 254 241
0.06879632920026779 -0.014842000789940357 0.1379999965429306 254 255 249
0.06861994415521622 -0.014734450727701187 0.13699999451637268 254 255 249
0.06894208490848541 -0.014734450727701187 0.13699999451637268 254 255 249
0.06926422566175461 -0.014734450727701187 0.13699999451637268 254 255 249
0.0695863664150238 -0.014734450727701187 0.13699999451637268 254 255 249
0.06939822435379028 -0.014626899734139442 0.13600000739097595 254 255 249
0.06971801817417145 -0.014626899734139442 0.13600000739097595 254 255 249
0.07003780454397202 -0.014626899734139442 0.13600000739097595 254 255 249
0.07035759091377258 -0.014626899734139442 0.13600000739097595 254 255 249
0.07067738473415375 -0.014626899734139442 0.13600000739097595 254 255 249
0.07047513872385025 -0.014519348740577698 0.13500000536441803 254 255 251
0.07079257071018219 -0.014519348740577698 0.13500000536441803 254 255 251
0.07111001014709473 -0.014519348740577698 0.13500000536441803 255 241 250
0.07142744958400726 -0.014519348740577698 0.13500000536441803 232 204 213
0.0717448890209198 -0.014519348740577698 0.13500000536441803 240 177 181
0.07206232845783234 -0.014519348740577698 0.13500000536441803 246 183 187
0.07184361666440964 -0.014411797747015953 0.1340000033378601 247 175 164
0.07215870171785355 -0.014411797747015953 0.1340000033378601 210 138 127
0.07278887927532196 -0.014411797747015953 0.1340000033378601 255 225 208
0.07310396432876587 -0.014411797747015953 0.1340000033378601 255 251 233
0.07341904938220978 -0.014411797747015953 0.1340000033378601 255 251 233
0.07373414188623428 -0.014411797747015953 0.1340000033378601 255 255 247
0.07349661737680435 -0.014304247684776783 0.13300000131130219 255 255 247
0.07380935549736023 -0.014304247684776783 0.13300000131130219 247 232 233
0.07412209361791611 -0.014304247684776783 0.13300000131130219 225 210 211
0.07443482428789139 -0.014304247684776783 0.13300000131130219 239 197 213
0.07474756240844727 -0.014304247684776783 0.13300000131130219 235 193 209
0.07449593394994736 -0.014196696691215038 0.13199999928474426 247 191 206
0.0748063176870346 -0.014196696691215038 0.13199999928474426 246 190 205
0.07511670142412186 -0.014196696691215038 0.13199999928474426 252 196 209
0.0754270851612091 -0.014196696691215038 0.13199999928474426 249 193 206
0.07516369968652725 -0.014089145697653294 0.13099999725818634 251 195 210
0.07547173649072647 -0.014089145697653294 0.13099999725818634 252 196 211
0.07577976584434509 -0.014089145697653294 0.13099999725818634 245 189 204
0.07608779519796371 -0.014089145697653294 0.13099999725818634 233 177 192
0.07639583200216293 -0.014089145697653294 0.13099999725818634 217 162 170
0.07670386135578156 -0.014089145697653294 0.13099999725818634 221 166 174
0.07701189815998077 -0.014089145697653294 0.13099999725818634 231 176 182
0.0773199275135994 -0.014089145697653294 0.13099999725818634 219 164 170
0.07762796431779861 -0.014089145697653294 0.13099999725818634 225 169 173
0.07793599367141724 -0.014089145697653294 0.13099999725818634 231 175 179
0.07824403047561646 -0.014089145697653294 0.13099999725818634 225 171 174
0.07855205982923508 -0.014089145697653294 0.13099999725818634 230 176 179
0.0788600891828537 -0.014089145697653294 0.13099999725818634 230 175 181
0.07916812598705292 -0.014089145697653294 0.13099999725818634 231 176 182
0.07947615534067154 -0.014089145697653294 0.13099999725818634 209 158 171
0.07978419214487076 -0.014089145697653294 0.13099999725818634 204 153 166
0.08100923895835876 -0.013981594704091549 0.12999999523162842 210 152 148
0.08131492137908936 -0.013981594704091549 0.12999999523162842 208 162 158
0.08162060379981995 -0.013981594704091549 0.12999999523162842 219 173 169
0.08192627876996994 -0.013981594704091549 0.12999999523162842 215 177 181
0.08223196119070053 -0.013981594704091549 0.12999999523162842 213 175 179
0.05611800774931908 -0.015990300104022026 0.15199999511241913 250 111 118
0.056103870272636414 -0.01588509976863861 0.1509999930858612 255 104 115
0.05645893141627312 -0.01588509976863861 0.1509999930858612 248 89 100
0.05752411484718323 -0.01588509976863861 0.1509999930858612 244 58 47
0.05711256340146065 -0.01567470096051693 0.14900000393390656 243 57 46
0.05707726255059242 -0.015569501556456089 0.14800000190734863 250 64 51
0.05703726038336754 -0.015464303083717823 0.1469999998807907 255 69 56
0.057382915169000626 -0.015464303083717823 0.1469999998807907 242 55 51
0.05733586102724075 -0.015359103679656982 0.1459999978542328 246 59 55
0.05767916142940521 -0.015359103679656982 0.1459999978542328 250 62 63
0.05802246555685997 -0.015359103679656982 0.1459999978542328 253 65 66
0.05836576968431473 -0.015359103679656982 0.1459999978542328 247 59 58
0.058709073811769485 -0.015359103679656982 0.1459999978542328 251 63 62
0.05905237793922424 -0.015359103679656982 0.1459999978542328 250 65 58
0.059395682066679 -0.015359103679656982 0.1459999978542328 249 64 57
0.05973898619413376 -0.015359103679656982 0.1459999978542328 250 68 60
0.06008228659629822 -0.015359103679656982 0.1459999978542328 241 59 51
0.060425590723752975 -0.015359103679656982 0.1459999978542328 255 74 73
0.06076889485120773 -0.015359103679656982 0.1459999978542328 253 72 71
0.06111219897866249 -0.015359103679656982 0.1459999978542328 244 72 72
0.06145550310611725 -0.015359103679656982 0.1459999978542328 245 73 73
0.061798807233572006 -0.015359103679656982 0.1459999978542328 239 76 75
0.062142107635736465 -0.015359103679656982 0.1459999978542328 237 74 73
0.06248541176319122 -0.015359103679656982 0.1459999978542328 214 66 58
0.06282871961593628 -0.015359103679656982 0.1459999978542328 217 69 61
0.06273933500051498 -0.015253904275596142 0.14499999582767487 237 115 105
0.06308028846979141 -0.015253904275596142 0.14499999582767487 255 154 144
0.06342124193906784 -0.015253904275596142 0.14499999582767487 255 154 154
0.06376218795776367 -0.015253904275596142 0.14499999582767487 255 155 155
0.06366105377674103 -0.015148704871535301 0.14399999380111694 255 175 175
0.06399965286254883 -0.015148704871535301 0.14399999380111694 255 185 185
0.06433825194835663 -0.015148704871535301 0.14399999380111694 255 201 192
0.06422770768404007 -0.01504350546747446 0.14300000667572021 255 206 197
0.06456395983695984 -0.01504350546747446 0.14300000667572021 255 208 200
0.064446359872818 -0.01493830606341362 0.1420000046491623 251 203 195
0.06478025764226913 -0.01493830606341362 0.1420000046491623 254 210 208
0.06511415541172028 -0.01493830606341362 0.1420000046491623 255 211 209
0.06544805318117142 -0.01493830606341362 0.1420000046491623 255 208 216
0.06578195095062256 -0.01493830606341362 0.1420000046491623 255 208 216
0.06565024703741074 -0.01483310665935278 0.14100000262260437 246 179 193
0.06598179042339325 -0.01483310665935278 0.14100000262260437 240 173 187
0.06584303081035614 -0.014727907255291939 0.14000000059604645 245 165 175
0.06617222726345062 -0.014727907255291939 0.14000000059604645 238 158 168
0.0665014237165451 -0.014727907255291939 0.14000000059604645 227 149 147
0.06683062016963959 -0.014727907255291939 0.14000000059604645 220 142 140
0.06668009608983994 -0.014622707851231098 0.13899999856948853 216 139 132
0.06700694561004639 -0.014622707851231098 0.13899999856948853 215 138 131
0.0676606297492981 -0.014622707851231098 0.13899999856948853 220 145 135
0.06798747181892395 -0.014622707851231098 0.13899999856948853 255 237 220
0.06782285124063492 -0.014517508447170258 0.1379999965429306 255 246 229
0.06814733892679214 -0.014517508447170258 0.1379999965429306 255 255 243
0.06847183406352997 -0.014517508447170258 0.1379999965429306 255 255 243
0.06879632920026779 -0.014517508447170258 0.1379999965429306 254 255 249
0.06861994415521622 -0.014412309043109417 0.13699999451637268 254 255 249
0.06894208490848541 -0.014412309043109417 0.13699999451637268 254 255 249
0.06926422566175461 -0.014412309043109417 0.13699999451637268 254 255 249
0.0695863664150238 -0.014412309043109417 0.13699999451637268 254 255 249
0.06939822435379028 -0.014307109639048576 0.13600000739097595 254 255 249
0.06971801817417145 -0.014307109639048576 0.13600000739097595 254 255 249
0.07003780454397202 -0.014307109639048576 0.13600000739097595 254 255 249
0.07035759091377258 -0.014307109639048576 0.13600000739097595 254 255 249
0.07067738473415375 -0.014307109639048576 0.13600000739097595 254 255 249
0.07047513872385025 -0.014201910234987736 0.13500000536441803 254 255 249
0.07079257071018219 -0.014201910234987736 0.13500000536441803 254 255 249
0.07111001014709473 -0.014201910234987736 0.13500000536441803 255 245 246
0.07142744958400726 -0.014201910234987736 0.13500000536441803 244 229 230
0.0717448890209198 -0.014201910234987736 0.13500000536441803 247 190 199
0.07206232845783234 -0.014201910234987736 0.13500000536441803 245 188 197
0.07184361666440964 -0.014096710830926895 0.1340000033378601 253 185 177
0.07215870171785355 -0.014096710830926895 0.1340000033378601 221 153 145
0.07278887927532196 -0.014096710830926895 0.1340000033378601 255 220 199
0.07310396432876587 -0.014096710830926895 0.1340000033378601 255 253 231
0.07341904938220978 -0.014096710830926895 0.1340000033378601 255 253 231
0.07373414188623428 -0.014096710830926895 0.1340000033378601 255 255 245
0.07349661737680435 -0.01399151235818863 0.13300000131130219 255 255 245
0.07380935549736023 -0.01399151235818863 0.13300000131130219 255 242 243
0.07412209361791611 -0.01399151235818863 0.13300000131130219 239 224 225
0.07387516647577286 -0.013886312954127789 0.13199999928474426 254 213 223
0.07418555021286011 -0.013886312954127789 0.13199999928474426 235 194 204
0.07449593394994736 -0.013886312954127789 0.13199999928474426 248 197 208
0.0748063176870346 -0.013886312954127789 0.13199999928474426 248 197 208
0.07511670142412186 -0.013886312954127789 0.13199999928474426 251 200 213
0.07485567033290863 -0.013781113550066948 0.13099999725818634 246 195 208
0.07516369968652725 -0.013781113550066948 0.13099999725818634 251 197 217
0.07547173649072647 -0.013781113550066948 0.13099999725818634 251 197 217
0.07577976584434509 -0.013781113550066948 0.13099999725818634 249 197 218
0.07608779519796371 -0.013781113550066948 0.13099999725818634 242 190 211
0.07639583200216293 -0.013781113550066948 0.13099999725818634 235 179 192
0.07670386135578156 -0.013781113550066948 0.13099999725818634 233 177 190
0.07701189815998077 -0.013781113550066948 0.13099999725818634 238 181 190
0.0773199275135994 -0.013781113550066948 0.13099999725818634 221 164 173
0.07762796431779861 -0.013781113550066948 0.13099999725818634 225 168 175
0.07793599367141724 -0.013781113550066948 0.13099999725818634 229 172 179
0.07824403047561646 -0.013781113550066948 0.13099999725818634 221 166 172
0.07855205982923508 -0.013781113550066948 0.13099999725818634 227 172 178
0.0788600891828537 -0.013781113550066948 0.13099999725818634 223 171 178
0.07916812598705292 -0.013781113550066948 0.13099999725818634 224 172 179
0.07947615534067154 -0.013781113550066948 0.13099999725818634 218 172 184
0.07978419214487076 -0.013781113550066948 0.13099999725818634 213 167 179
0.08009222149848938 -0.013781113550066948 0.13099999725818634 205 156 167
0.08100923895835876 -0.013675914146006107 0.12999999523162842 203 145 141
0.08131492137908936 -0.013675914146006107 0.12999999523162842 211 162 161
0.08162060379981995 -0.013675914146006107 0.12999999523162842 221 172 171
0.08192627876996994 -0.013675914146006107 0.12999999523162842 218 175 179
0.08223196119070053 -0.013675914146006107 0.12999999523162842 211 168 172
0.05611800774931908 -0.015632888302206993 0.15199999511241913 241 86 94
0.05647541955113411 -0.015632888302206993 0.15199999511241913 252 67 76
0.05683283135294914 -0.015632888302206993 0.15199999511241913 233 48 57
0.05756649747490883 -0.01573573611676693 0.15299999713897705 242 47 50
0.05792625993490219 -0.01573573611676693 0.15299999713897705 246 51 54
0.05752411484718323 -0.015530039556324482 0.1509999930858612 243 54 44
0.05787917599081993 -0.015530039556324482 0.1509999930858612 248 59 49
0.057848576456308365 -0.015427191741764545 0.15000000596046448 248 64 50
0.05781327933073044 -0.015324343927204609 0.14900000393390656 255 72 58
0.057773277163505554 -0.015221496112644672 0.14800000190734863 232 49 32
0.05812128260731697 -0.015221496112644672 0.14800000190734863 240 57 40
0.0580742247402668 -0.015118647366762161 0.1469999998807907 251 65 54
0.05841987952589989 -0.015118647366762161 0.1469999998807907 250 64 53
0.058765534311532974 -0.015118647366762161 0.1469999998807907 246 65 52
0.05911118909716606 -0.015118647366762161 0.1469999998807907 250 69 56
0.05945684388279915 -0.015118647366762161 0.1469999998807907 255 83 70
0.059802502393722534 -0.015118647366762161 0.1469999998807907 249 70 57
0.06014815717935562 -0.015118647366762161 0.1469999998807907 241 66 58
0.06049381196498871 -0.015118647366762161 0.1469999998807907 229 54 46
0.060839466750621796 -0.015118647366762161 0.1469999998807907 234 66 62
0.06076889485120773 -0.015015799552202225 0.1459999978542328 244 76 72
0.06111219897866249 -0.015015799552202225 0.1459999978542328 241 75 78
0.06145550310611725 -0.015015799552202225 0.1459999978542328 238 72 75
0.061798807233572006 -0.015015799552202225 0.1459999978542328 236 75 76
0.062142107635736465 -0.015015799552202225 0.1459999978542328 241 80 81
0.06248541176319122 -0.015015799552202225 0.1459999978542328 228 82 80
0.06282871961593628 -0.015015799552202225 0.1459999978542328 225 79 77
0.06273933500051498 -0.014912951737642288 0.14499999582767487 227 113 107
0.06308028846979141 -0.014912951737642288 0.14499999582767487 255 155 149
0.06342124193906784 -0.014912951737642288 0.14499999582767487 253 152 153
0.06376218795776367 -0.014912951737642288 0.14499999582767487 254 153 154
