0.012552293948829174 0.0005455211503431201 0.18400000035762787 255 255 241
0.012984950095415115 0.0005455211503431201 0.18400000035762787 255 255 227
0.01334468461573124 0.0005425563431344926 0.18299999833106995 255 253 224
0.0146356001496315 0.0005425563431344926 0.18299999833106995 206 184 149
0.014983577653765678 0.0005395915359258652 0.18199999630451202 255 251 216
0.015411531552672386 0.0005395915359258652 0.18199999630451202 255 255 238
0.015839485451579094 0.0005395915359258652 0.18199999630451202 255 255 239
0.0162674393504858 0.0005395915359258652 0.18199999630451202 254 255 247
0.016603659838438034 0.0005366267869248986 0.1809999942779541 254 255 247
0.017029263079166412 0.0005366267869248986 0.1809999942779541 254 255 249
0.01745486445724964 0.0005366267869248986 0.1809999942779541 254 255 249
0.01788046769797802 0.0005366267869248986 0.1809999942779541 254 255 251
0.018204931169748306 0.0005336619797162712 0.18000000715255737 254 255 251
0.018628181889653206 0.0005336619797162712 0.18000000715255737 254 255 247
0.019051432609558105 0.0005336619797162712 0.18000000715255737 254 255 247
0.019474683329463005 0.0005336619797162712 0.18000000715255737 255 250 238
0.019897934049367905 0.0005336619797162712 0.18000000715255737 231 223 211
0.020208289846777916 0.0005306971725076437 0.17900000512599945 253 245 233
0.020629189908504486 0.0005306971725076437 0.17900000512599945 255 253 241
0.021050089970231056 0.0005306971725076437 0.17900000512599945 254 255 245
0.021470988169312477 0.0005306971725076437 0.17900000512599945 254 255 245
0.021891888231039047 0.0005306971725076437 0.17900000512599945 254 255 249
0.022312788292765617 0.0005306971725076437 0.17900000512599945 254 255 249
0.02273368649184704 0.0005306971725076437 0.17900000512599945 254 255 249
0.02315458655357361 0.0005306971725076437 0.17900000512599945 254 255 249
0.023443778976798058 0.0005277323652990162 0.17800000309944153 254 255 251
0.023862328380346298 0.0005277323652990162 0.17800000309944153 254 255 251
0.02428087592124939 0.0005277323652990162 0.17800000309944153 254 255 251
0.02469942346215248 0.0005277323652990162 0.17800000309944153 254 255 251
0.025117972865700722 0.0005277323652990162 0.17800000309944153 254 255 251
0.025536520406603813 0.0005277323652990162 0.17800000309944153 254 255 251
0.025955067947506905 0.0005277323652990162 0.17800000309944153 254 255 251
0.026373617351055145 0.0005277323652990162 0.17800000309944153 254 255 251
0.026792164891958237 0.0005277323652990162 0.17800000309944153 254 255 251
0.027057843282818794 0.0005247676162980497 0.1770000010728836 254 255 251
0.027474040165543556 0.0005247676162980497 0.1770000010728836 255 254 247
0.027890237048268318 0.0005247676162980497 0.1770000010728836 255 254 247
0.02830643393099308 0.0005247676162980497 0.1770000010728836 207 195 179
0.028722630813717842 0.0005247676162980497 0.1770000010728836 233 221 205
0.029303453862667084 0.0005277323652990162 0.17800000309944153 255 254 239
0.029722001403570175 0.0005277323652990162 0.17800000309944153 255 254 239
0.030140550807118416 0.0005277323652990162 0.17800000309944153 254 255 245
0.030559098348021507 0.0005277323652990162 0.17800000309944153 254 255 245
0.0309776458889246 0.0005277323652990162 0.17800000309944153 254 255 249
0.03139619529247284 0.0005277323652990162 0.17800000309944153 254 255 249
0.031993478536605835 0.0005306971725076437 0.17900000512599945 254 255 249
0.032414376735687256 0.0005306971725076437 0.17900000512599945 254 255 249
0.03283527493476868 0.0005306971725076437 0.17900000512599945 254 255 251
0.033256176859140396 0.0005306971725076437 0.17900000512599945 254 255 251
0.03367707505822182 0.0005306971725076437 0.17900000512599945 254 255 251
0.03409797325730324 0.0005306971725076437 0.17900000512599945 254 255 251
0.03451887518167496 0.0005306971725076437 0.17900000512599945 254 255 251
0.03474457934498787 0.0005277323652990162 0.17800000309944153 254 255 251
0.03516312688589096 0.0005277323652990162 0.17800000309944153 254 255 251
0.03558167442679405 0.0005277323652990162 0.17800000309944153 254 255 251
0.03600022569298744 0.0005277323652990162 0.17800000309944153 255 255 249
0.03641877323389053 0.0005277323652990162 0.17800000309944153 255 255 249
0.036837320774793625 0.0005277323652990162 0.17800000309944153 255 237 226
0.037255868315696716 0.0005277323652990162 0.17800000309944153 201 170 159
0.037462763488292694 0.0005247676162980497 0.1770000010728836 231 190 171
0.037878960371017456 0.0005247676162980497 0.1770000010728836 255 226 207
0.03829515725374222 0.0005247676162980497 0.1770000010728836 255 252 234
0.03871135413646698 0.0005247676162980497 0.1770000010728836 255 253 235
0.03934860974550247 0.0005277323652990162 0.17800000309944153 254 255 247
0.03976715728640556 0.0005277323652990162 0.17800000309944153 254 255 247
0.040185704827308655 0.0005277323652990162 0.17800000309944153 254 255 249
0.040604252368211746 0.0005277323652990162 0.17800000309944153 254 255 249
0.041253264993429184 0.0005306971725076437 0.17900000512599945 254 255 251
0.0416741669178009 0.0005306971725076437 0.17900000512599945 253 254 250
0.042095065116882324 0.0005306971725076437 0.17900000512599945 255 250 248
0.042515967041254044 0.0005306971725076437 0.17900000512599945 255 250 248
0.042936865240335464 0.0005306971725076437 0.17900000512599945 255 205 210
0.043357763439416885 0.0005306971725076437 0.17900000512599945 190 131 136
0.04462046176195145 0.0005306971725076437 0.17900000512599945 235 167 173
0.045041363686323166 0.0005306971725076437 0.17900000512599945 255 215 221
0.045716241002082825 0.0005336619797162712 0.18000000715255737 255 248 245
0.046139493584632874 0.0005336619797162712 0.18000000715255737 255 248 245
0.046562742441892624 0.0005336619797162712 0.18000000715255737 255 254 247
0.0472470261156559 0.0005366267869248986 0.1809999942779541 255 254 247
0.04767262935638428 0.0005366267869248986 0.1809999942779541 255 252 249
0.048098232597112656 0.0005366267869248986 0.1809999942779541 255 252 249
0.04879192262887955 0.0005395915359258652 0.18199999630451202 255 242 246
0.049219876527786255 0.0005395915359258652 0.18199999630451202 255 237 241
0.010172797366976738 0.0009994424181059003 0.18799999356269836 255 242 186
0.010558397509157658 0.0009941261960193515 0.18700000643730164 255 255 231
0.010998107492923737 0.0009941261960193515 0.18700000643730164 255 255 231
0.011376653797924519 0.0009888099739328027 0.1860000044107437 254 255 247
0.011814013123512268 0.0009888099739328027 0.1860000044107437 254 255 247
0.012185504660010338 0.0009834938682615757 0.1850000023841858 254 255 247
0.012552293948829174 0.000978177646175027 0.18400000035762787 254 255 247
0.012984950095415115 0.000978177646175027 0.18400000035762787 255 255 241
0.013417607173323631 0.000978177646175027 0.18400000035762787 255 255 241
0.013774990104138851 0.0009728614240884781 0.18299999833106995 255 254 227
0.014205295592546463 0.0009728614240884781 0.18299999833106995 238 226 199
0.0146356001496315 0.0009728614240884781 0.18299999833106995 209 203 179
0.014983577653765678 0.0009675452602095902 0.18199999630451202 249 243 219
0.015411531552672386 0.0009675452602095902 0.18199999630451202 254 255 247
0.015839485451579094 0.0009675452602095902 0.18199999630451202 254 255 247
0.016178058460354805 0.0009622290963307023 0.1809999942779541 254 255 249
0.016603659838438034 0.0009622290963307023 0.1809999942779541 254 255 249
0.017029263079166412 0.0009622290963307023 0.1809999942779541 254 255 251
0.01745486445724964 0.0009622290963307023 0.1809999942779541 254 255 251
0.017781680449843407 0.0009569128742441535 0.18000000715255737 254 255 251
0.018204931169748306 0.0009569128742441535 0.18000000715255737 254 255 251
0.018628181889653206 0.0009569128742441535 0.18000000715255737 254 255 251
0.019051432609558105 0.0009569128742441535 0.18000000715255737 254 255 251
0.019474683329463005 0.0009569128742441535 0.18000000715255737 255 255 247
0.019787389785051346 0.0009515967103652656 0.17900000512599945 251 252 243
0.020208289846777916 0.0009515967103652656 0.17900000512599945 253 254 245
0.020629189908504486 0.0009515967103652656 0.17900000512599945 255 255 247
0.021050089970231056 0.0009515967103652656 0.17900000512599945 254 255 249
0.021470988169312477 0.0009515967103652656 0.17900000512599945 254 255 249
0.021891888231039047 0.0009515967103652656 0.17900000512599945 254 255 249
0.022188134491443634 0.0009462805464863777 0.17800000309944153 254 255 249
0.022606683894991875 0.0009462805464863777 0.17800000309944153 254 255 251
0.02315458655357361 0.0009515967103652656 0.17900000512599945 254 255 251
0.02357548661530018 0.0009515967103652656 0.17900000512599945 254 255 251
0.02399638667702675 0.0009515967103652656 0.17900000512599945 254 255 251
0.02428087592124939 0.0009462805464863777 0.17800000309944153 254 255 251
0.02469942346215248 0.0009462805464863777 0.17800000309944153 254 255 251
0.025117972865700722 0.0009462805464863777 0.17800000309944153 254 255 251
0.025536520406603813 0.0009462805464863777 0.17800000309944153 254 255 251
0.025955067947506905 0.0009462805464863777 0.17800000309944153 254 255 251
0.026373617351055145 0.0009462805464863777 0.17800000309944153 254 255 251
0.026792164891958237 0.0009462805464863777 0.17800000309944153 254 255 251
0.027210712432861328 0.0009462805464863777 0.17800000309944153 254 255 251
0.027474040165543556 0.0009409643243998289 0.1770000010728836 255 255 249
0.027890237048268318 0.0009409643243998289 0.1770000010728836 255 255 249
0.02830643393099308 0.0009409643243998289 0.1770000010728836 226 224 212
0.028722630813717842 0.0009409643243998289 0.1770000010728836 235 233 221
0.029303453862667084 0.0009462805464863777 0.17800000309944153 255 255 243
0.029722001403570175 0.0009462805464863777 0.17800000309944153 255 255 243
0.030140550807118416 0.0009462805464863777 0.17800000309944153 254 255 247
0.030559098348021507 0.0009462805464863777 0.17800000309944153 254 255 247
0.0309776458889246 0.0009462805464863777 0.17800000309944153 254 255 249
0.03139619529247284 0.0009462805464863777 0.17800000309944153 254 255 249
0.031993478536605835 0.0009515967103652656 0.17900000512599945 254 255 249
0.032414376735687256 0.0009515967103652656 0.17900000512599945 254 255 249
0.03283527493476868 0.0009515967103652656 0.17900000512599945 254 255 251
0.033256176859140396 0.0009515967103652656 0.17900000512599945 254 255 251
0.03367707505822182 0.0009515967103652656 0.17900000512599945 254 255 251
0.033907484263181686 0.0009462805464863777 0.17800000309944153 254 255 251
0.03432603180408478 0.0009462805464863777 0.17800000309944153 254 255 251
0.03474457934498787 0.0009462805464863777 0.17800000309944153 254 255 251
0.03516312688589096 0.0009462805464863777 0.17800000309944153 254 255 251
0.03558167442679405 0.0009462805464863777 0.17800000309944153 254 255 251
0.03600022569298744 0.0009462805464863777 0.17800000309944153 254 255 249
0.03641877323389053 0.0009462805464863777 0.17800000309944153 254 255 249
0.036837320774793625 0.0009462805464863777 0.17800000309944153 255 251 241
0.03704656660556793 0.0009409643243998289 0.1770000010728836 232 217 207
0.037462763488292694 0.0009409643243998289 0.1770000010728836 255 234 218
0.037878960371017456 0.0009409643243998289 0.1770000010728836 255 248 232
0.03829515725374222 0.0009409643243998289 0.1770000010728836 255 254 241
0.03871135413646698 0.0009409643243998289 0.1770000010728836 255 254 241
0.03934860974550247 0.0009462805464863777 0.17800000309944153 254 255 247
0.03976715728640556 0.0009462805464863777 0.17800000309944153 254 255 247
0.040185704827308655 0.0009462805464863777 0.17800000309944153 254 255 249
0.040604252368211746 0.0009462805464863777 0.17800000309944153 254 255 249
0.041253264993429184 0.0009515967103652656 0.17900000512599945 254 255 251
0.0416741669178009 0.0009515967103652656 0.17900000512599945 254 255 251
0.042095065116882324 0.0009515967103652656 0.17900000512599945 255 255 251
0.042515967041254044 0.0009515967103652656 0.17900000512599945 255 255 251
0.042936865240335464 0.0009515967103652656 0.17900000512599945 245 212 213
0.043357763439416885 0.0009515967103652656 0.17900000512599945 197 164 165
0.043778665363788605 0.0009515967103652656 0.17900000512599945 212 155 164
0.044199563562870026 0.0009515967103652656 0.17900000512599945 248 191 200
0.04462046176195145 0.0009515967103652656 0.17900000512599945 255 232 234
0.045292992144823074 0.0009569128742441535 0.18000000715255737 255 243 245
0.045716241002082825 0.0009569128742441535 0.18000000715255737 255 254 247
0.046139493584632874 0.0009569128742441535 0.18000000715255737 255 254 247
0.046562742441892624 0.0009569128742441535 0.18000000715255737 255 255 249
0.0472470261156559 0.0009622290963307023 0.1809999942779541 255 255 249
0.04767262935638428 0.0009622290963307023 0.1809999942779541 255 255 249
0.048098232597112656 0.0009622290963307023 0.1809999942779541 255 255 249
0.04879192262887955 0.0009675452602095902 0.18199999630451202 255 246 253
0.049219876527786255 0.0009675452602095902 0.18199999630451202 252 231 238
0.049920618534088135 0.0009728614240884781 0.18299999833106995 255 198 225
0.00973073486238718 0.0014415044570341706 0.18799999356269836 255 240 189
0.010172797366976738 0.0014415044570341706 0.18799999356269836 255 244 193
0.010558397509157658 0.0014338368782773614 0.18700000643730164 255 255 237
0.010939294472336769 0.0014261692995205522 0.1860000044107437 255 255 237
0.011376653797924519 0.0014261692995205522 0.1860000044107437 254 255 249
0.011750496923923492 0.001418501720763743 0.1850000023841858 254 255 249
0.012185504660010338 0.001418501720763743 0.1850000023841858 254 255 249
0.012552293948829174 0.0014108341420069337 0.18400000035762787 254 255 249
0.012984950095415115 0.0014108341420069337 0.18400000035762787 254 255 249
0.013417607173323631 0.0014108341420069337 0.18400000035762787 254 255 249
0.013774990104138851 0.0014031665632501245 0.18299999833106995 255 255 241
0.014205295592546463 0.0014031665632501245 0.18299999833106995 254 255 240
0.0146356001496315 0.0014031665632501245 0.18299999833106995 253 255 242
0.014983577653765678 0.0013954989844933152 0.18199999630451202 253 255 242
0.015411531552672386 0.0013954989844933152 0.18199999630451202 254 255 249
0.015839485451579094 0.0013954989844933152 0.18199999630451202 254 255 249
0.016178058460354805 0.001387831405736506 0.1809999942779541 254 255 249
0.016603659838438034 0.001387831405736506 0.1809999942779541 254 255 249
0.017029263079166412 0.001387831405736506 0.1809999942779541 254 255 251
0.017358429729938507 0.0013801638269796968 0.18000000715255737 254 255 251
0.017781680449843407 0.0013801638269796968 0.18000000715255737 254 255 251
0.018204931169748306 0.0013801638269796968 0.18000000715255737 254 255 251
0.018628181889653206 0.0013801638269796968 0.18000000715255737 254 255 251
0.019051432609558105 0.0013801638269796968 0.18000000715255737 254 255 251
0.019366491585969925 0.0013724962482228875 0.17900000512599945 254 255 251
0.019787389785051346 0.0013724962482228875 0.17900000512599945 254 255 251
0.020208289846777916 0.0013724962482228875 0.17900000512599945 254 255 251
0.020629189908504486 0.0013724962482228875 0.17900000512599945 254 255 251
0.021050089970231056 0.0013724962482228875 0.17900000512599945 254 255 251
0.02135103940963745 0.0013648286694660783 0.17800000309944153 254 255 251
0.021769586950540543 0.0013648286694660783 0.17800000309944153 254 255 251
0.022188134491443634 0.0013648286694660783 0.17800000309944153 254 255 251
0.022606683894991875 0.0013648286694660783 0.17800000309944153 254 255 251
0.02315458655357361 0.0013724962482228875 0.17900000512599945 254 255 251
0.02357548661530018 0.0013724962482228875 0.17900000512599945 254 255 251
0.02399638667702675 0.0013724962482228875 0.17900000512599945 254 255 251
0.02441728487610817 0.0013724962482228875 0.17900000512599945 254 255 251
0.02483818493783474 0.0013724962482228875 0.17900000512599945 254 255 251
0.02525908499956131 0.0013724962482228875 0.17900000512599945 254 255 251
0.025536520406603813 0.0013648286694660783 0.17800000309944153 254 255 251
0.025955067947506905 0.0013648286694660783 0.17800000309944153 254 255 251
0.026373617351055145 0.0013648286694660783 0.17800000309944153 254 255 251
0.026792164891958237 0.0013648286694660783 0.17800000309944153 254 255 251
0.027210712432861328 0.0013648286694660783 0.17800000309944153 254 255 251
0.027474040165543556 0.001357161090709269 0.1770000010728836 254 255 251
0.027890237048268318 0.001357161090709269 0.1770000010728836 254 255 251
0.02830643393099308 0.001357161090709269 0.1770000010728836 251 252 243
0.028722630813717842 0.001357161090709269 0.1770000010728836 230 231 222
0.029138827696442604 0.001357161090709269 0.1770000010728836 253 255 246
0.029555024579167366 0.001357161090709269 0.1770000010728836 254 255 247
0.030140550807118416 0.0013648286694660783 0.17800000309944153 254 255 249
0.030559098348021507 0.0013648286694660783 0.17800000309944153 254 255 249
0.0309776458889246 0.0013648286694660783 0.17800000309944153 254 255 249
0.03139619529247284 0.0013648286694660783 0.17800000309944153 254 255 249
0.03181474283337593 0.0013648286694660783 0.17800000309944153 254 255 251
0.03223329037427902 0.0013648286694660783 0.17800000309944153 254 255 251
0.03283527493476868 0.0013724962482228875 0.17900000512599945 254 255 251
0.033070385456085205 0.0013648286694660783 0.17800000309944153 254 255 251
0.033488936722278595 0.0013648286694660783 0.17800000309944153 254 255 251
0.033907484263181686 0.0013648286694660783 0.17800000309944153 254 255 251
0.03432603180408478 0.0013648286694660783 0.17800000309944153 254 255 251
0.03474457934498787 0.0013648286694660783 0.17800000309944153 254 255 251
0.03516312688589096 0.0013648286694660783 0.17800000309944153 254 255 251
0.03558167442679405 0.0013648286694660783 0.17800000309944153 254 255 251
0.035797975957393646 0.001357161090709269 0.1770000010728836 254 255 251
0.03621417284011841 0.001357161090709269 0.1770000010728836 254 255 251
0.03663036972284317 0.001357161090709269 0.1770000010728836 255 254 247
0.03704656660556793 0.001357161090709269 0.1770000010728836 239 235 228
0.037462763488292694 0.001357161090709269 0.1770000010728836 230 221 212
0.037878960371017456 0.001357161090709269 0.1770000010728836 255 251 242
0.03829515725374222 0.001357161090709269 0.1770000010728836 255 255 245
0.03871135413646698 0.001357161090709269 0.1770000010728836 255 255 245
0.03912755101919174 0.001357161090709269 0.1770000010728836 254 255 249
0.039543747901916504 0.001357161090709269 0.1770000010728836 254 255 249
0.040185704827308655 0.0013648286694660783 0.17800000309944153 254 255 249
0.040604252368211746 0.0013648286694660783 0.17800000309944153 254 255 249
0.041253264993429184 0.0013724962482228875 0.17900000512599945 254 255 251
0.0416741669178009 0.0013724962482228875 0.17900000512599945 254 255 251
0.042095065116882324 0.0013724962482228875 0.17900000512599945 254 255 251
0.042515967041254044 0.0013724962482228875 0.17900000512599945 254 255 251
0.042936865240335464 0.0013724962482228875 0.17900000512599945 255 249 250
0.043357763439416885 0.0013724962482228875 0.17900000512599945 243 228 229
0.043778665363788605 0.0013724962482228875 0.17900000512599945 249 222 227
0.044199563562870026 0.0013724962482228875 0.17900000512599945 255 244 249
0.04462046176195145 0.0013724962482228875 0.17900000512599945 255 250 251
0.045292992144823074 0.0013801638269796968 0.18000000715255737 255 250 251
0.045716241002082825 0.0013801638269796968 0.18000000715255737 254 255 251
0.046139493584632874 0.0013801638269796968 0.18000000715255737 254 255 251
0.046562742441892624 0.0013801638269796968 0.18000000715255737 254 255 251
0.0472470261156559 0.001387831405736506 0.1809999942779541 254 255 251
0.04767262935638428 0.001387831405736506 0.1809999942779541 254 255 251
0.04836396872997284 0.0013954989844933152 0.18199999630451202 254 255 251
0.04879192262887955 0.0013954989844933152 0.18199999630451202 255 249 253
0.0494903139770031 0.0014031665632501245 0.18299999833106995 255 247 251
0.049920618534088135 0.0014031665632501245 0.18299999833106995 255 207 231
0.00973073486238718 0.001883566495962441 0.18799999356269836 255 241 196
0.010172797366976738 0.001883566495962441 0.18799999356269836 255 246 201
0.010558397509157658 0.0018735475605353713 0.18700000643730164 255 255 241
0.010939294472336769 0.0018635286251083016 0.1860000044107437 255 255 241
0.011376653797924519 0.0018635286251083016 0.1860000044107437 254 255 249
0.011750496923923492 0.0018535095732659101 0.1850000023841858 254 255 249
0.012185504660010338 0.0018535095732659101 0.1850000023841858 254 255 251
0.012552293948829174 0.0018434906378388405 0.18400000035762787 254 255 251
0.012984950095415115 0.0018434906378388405 0.18400000035762787 254 255 251
0.013417607173323631 0.0018434906378388405 0.18400000035762787 254 255 251
0.013774990104138851 0.0018334717024117708 0.18299999833106995 254 255 249
0.014205295592546463 0.0018334717024117708 0.18299999833106995 254 255 249
0.0146356001496315 0.0018334717024117708 0.18299999833106995 254 255 249
0.014983577653765678 0.0018234526505693793 0.18199999630451202 254 255 249
0.015411531552672386 0.0018234526505693793 0.18199999630451202 254 255 249
0.015839485451579094 0.0018234526505693793 0.18199999630451202 254 255 249
0.016178058460354805 0.0018134337151423097 0.1809999942779541 254 255 249
0.016603659838438034 0.0018134337151423097 0.1809999942779541 254 255 249
0.016935177147388458 0.00180341477971524 0.18000000715255737 254 255 249
0.017358429729938507 0.00180341477971524 0.18000000715255737 254 255 249
0.017781680449843407 0.00180341477971524 0.18000000715255737 254 255 249
0.018204931169748306 0.00180341477971524 0.18000000715255737 254 255 249
0.018628181889653206 0.00180341477971524 0.18000000715255737 254 255 249
0.018945591524243355 0.0017933958442881703 0.17900000512599945 254 255 249
0.019366491585969925 0.0017933958442881703 0.17900000512599945 254 255 249
0.019787389785051346 0.0017933958442881703 0.17900000512599945 254 255 249
0.020208289846777916 0.0017933958442881703 0.17900000512599945 254 255 249
0.020629189908504486 0.0017933958442881703 0.17900000512599945 254 255 249
0.02093249000608921 0.0017833767924457788 0.17800000309944153 254 255 249
0.02135103940963745 0.0017833767924457788 0.17800000309944153 254 255 249
0.021769586950540543 0.0017833767924457788 0.17800000309944153 254 255 249
0.022188134491443634 0.0017833767924457788 0.17800000309944153 254 255 249
0.022606683894991875 0.0017833767924457788 0.17800000309944153 254 255 249
0.023025231435894966 0.0017833767924457788 0.17800000309944153 254 255 249
0.02357548661530018 0.0017933958442881703 0.17900000512599945 254 255 249
0.02399638667702675 0.0017933958442881703 0.17900000512599945 254 255 249
0.02441728487610817 0.0017933958442881703 0.17900000512599945 254 255 249
0.02483818493783474 0.0017933958442881703 0.17900000512599945 254 255 249
0.02525908499956131 0.0017933958442881703 0.17900000512599945 254 255 249
0.02567998319864273 0.0017933958442881703 0.17900000512599945 254 255 249
0.025955067947506905 0.0017833767924457788 0.17800000309944153 254 255 249
0.026373617351055145 0.0017833767924457788 0.17800000309944153 254 255 249
0.026792164891958237 0.0017833767924457788 0.17800000309944153 254 255 249
0.027210712432861328 0.0017833767924457788 0.17800000309944153 254 255 249
0.027474040165543556 0.0017733578570187092 0.1770000010728836 254 255 249
0.027890237048268318 0.0017733578570187092 0.1770000010728836 254 255 249
0.02830643393099308 0.0017733578570187092 0.1770000010728836 250 251 245
0.028722630813717842 0.0017733578570187092 0.1770000010728836 237 238 232
0.029138827696442604 0.0017733578570187092 0.1770000010728836 254 255 249
0.029555024579167366 0.0017733578570187092 0.1770000010728836 254 255 249
0.029971221461892128 0.0017733578570187092 0.1770000010728836 254 255 251
0.030559098348021507 0.0017833767924457788 0.17800000309944153 254 255 251
0.0309776458889246 0.0017833767924457788 0.17800000309944153 254 255 251
0.03139619529247284 0.0017833767924457788 0.17800000309944153 254 255 251
0.03181474283337593 0.0017833767924457788 0.17800000309944153 254 255 251
0.03223329037427902 0.0017833767924457788 0.17800000309944153 254 255 251
0.032651837915182114 0.0017833767924457788 0.17800000309944153 254 255 251
0.033070385456085205 0.0017833767924457788 0.17800000309944153 254 255 251
0.033488936722278595 0.0017833767924457788 0.17800000309944153 254 255 251
0.033907484263181686 0.0017833767924457788 0.17800000309944153 254 255 251
0.03432603180408478 0.0017833767924457788 0.17800000309944153 254 255 251
0.03474457934498787 0.0017833767924457788 0.17800000309944153 254 255 251
0.03496558219194412 0.0017733578570187092 0.1770000010728836 254 255 251
0.035381779074668884 0.0017733578570187092 0.1770000010728836 254 255 251
0.035797975957393646 0.0017733578570187092 0.1770000010728836 254 255 251
0.03621417284011841 0.0017733578570187092 0.1770000010728836 254 255 251
0.03663036972284317 0.0017733578570187092 0.1770000010728836 254 255 251
0.03704656660556793 0.0017733578570187092 0.1770000010728836 253 254 250
0.037462763488292694 0.0017733578570187092 0.1770000010728836 229 229 223
0.037878960371017456 0.0017733578570187092 0.1770000010728836 255 255 249
0.03829515725374222 0.0017733578570187092 0.1770000010728836 254 255 249
0.03871135413646698 0.0017733578570187092 0.1770000010728836 254 255 249
0.03912755101919174 0.0017733578570187092 0.1770000010728836 254 255 251
0.039543747901916504 0.0017733578570187092 0.1770000010728836 254 255 251
0.040185704827308655 0.0017833767924457788 0.17800000309944153 254 255 251
0.040604252368211746 0.0017833767924457788 0.17800000309944153 254 255 251
0.041253264993429184 0.0017933958442881703 0.17900000512599945 254 255 251
0.0416741669178009 0.0017933958442881703 0.17900000512599945 254 255 251
0.042095065116882324 0.0017933958442881703 0.17900000512599945 254 255 251
0.042515967041254044 0.0017933958442881703 0.17900000512599945 254 255 251
0.042936865240335464 0.0017933958442881703 0.17900000512599945 255 253 251
0.043357763439416885 0.0017933958442881703 0.17900000512599945 240 235 233
0.043778665363788605 0.0017933958442881703 0.17900000512599945 246 236 236
0.044199563562870026 0.0017933958442881703 0.17900000512599945 255 250 250
0.04462046176195145 0.0017933958442881703 0.17900000512599945 255 254 251
0.045292992144823074 0.00180341477971524 0.18000000715255737 255 254 251
0.045716241002082825 0.00180341477971524 0.18000000715255737 254 255 251
0.046139493584632874 0.00180341477971524 0.18000000715255737 254 255 251
0.04682142660021782 0.0018134337151423097 0.1809999942779541 254 255 251
0.0472470261156559 0.0018134337151423097 0.1809999942779541 254 255 251
0.04767262935638428 0.0018134337151423097 0.1809999942779541 254 255 251
0.04836396872997284 0.0018234526505693793 0.18199999630451202 254 255 251
0.04879192262887955 0.0018234526505693793 0.18199999630451202 255 251 254
0.0494903139770031 0.0018334717024117708 0.18299999833106995 255 251 254
0.049920618534088135 0.0018334717024117708 0.18299999833106995 255 216 237
0.00973073486238718 0.002325628651306033 0.18799999356269836 255 245 204
0.010172797366976738 0.002325628651306033 0.18799999356269836 255 250 209
0.010558397509157658 0.002313258359208703 0.18700000643730164 255 255 243
0.010939294472336769 0.0023008878342807293 0.1860000044107437 255 255 243
0.011376653797924519 0.0023008878342807293 0.1860000044107437 254 255 249
0.011750496923923492 0.002288517542183399 0.1850000023841858 254 255 249
0.012185504660010338 0.002288517542183399 0.1850000023841858 254 255 251
0.012552293948829174 0.002276147250086069 0.18400000035762787 254 255 251
0.012984950095415115 0.002276147250086069 0.18400000035762787 254 255 251
0.01334468461573124 0.0022637767251580954 0.18299999833106995 254 255 251
0.013774990104138851 0.0022637767251580954 0.18299999833106995 254 255 251
0.014205295592546463 0.0022637767251580954 0.18299999833106995 254 255 251
0.014555624686181545 0.0022514064330607653 0.18199999630451202 254 255 251
0.014983577653765678 0.0022514064330607653 0.18199999630451202 254 255 251
0.015411531552672386 0.0022514064330607653 0.18199999630451202 254 255 251
0.015839485451579094 0.0022514064330607653 0.18199999630451202 254 255 251
0.016178058460354805 0.002239036140963435 0.1809999942779541 254 255 251
0.016603659838438034 0.002239036140963435 0.1809999942779541 254 255 251
0.016935177147388458 0.0022266656160354614 0.18000000715255737 254 255 251
0.017358429729938507 0.0022266656160354614 0.18000000715255737 254 255 251
0.017781680449843407 0.0022266656160354614 0.18000000715255737 254 255 251
0.018204931169748306 0.0022266656160354614 0.18000000715255737 254 255 251
0.018524691462516785 0.0022142953239381313 0.17900000512599945 254 255 251
0.018945591524243355 0.0022142953239381313 0.17900000512599945 254 255 251
0.019366491585969925 0.0022142953239381313 0.17900000512599945 254 255 251
0.019787389785051346 0.0022142953239381313 0.17900000512599945 254 255 251
0.020208289846777916 0.0022142953239381313 0.17900000512599945 254 255 251
0.02051394246518612 0.0022019250318408012 0.17800000309944153 254 255 251
0.02093249000608921 0.0022019250318408012 0.17800000309944153 254 255 251
0.02135103940963745 0.0022019250318408012 0.17800000309944153 254 255 251
0.021769586950540543 0.0022019250318408012 0.17800000309944153 254 255 251
0.022188134491443634 0.0022019250318408012 0.17800000309944153 254 255 251
0.022606683894991875 0.0022019250318408012 0.17800000309944153 254 255 251
0.023025231435894966 0.0022019250318408012 0.17800000309944153 254 255 251
0.02357548661530018 0.0022142953239381313 0.17900000512599945 254 255 251
0.02399638667702675 0.0022142953239381313 0.17900000512599945 254 255 251
0.02441728487610817 0.0022142953239381313 0.17900000512599945 254 255 251
0.02483818493783474 0.0022142953239381313 0.17900000512599945 254 255 251
0.02525908499956131 0.0022142953239381313 0.17900000512599945 254 255 251
0.025536520406603813 0.0022019250318408012 0.17800000309944153 254 255 251
0.025955067947506905 0.0022019250318408012 0.17800000309944153 254 255 251
0.026373617351055145 0.0022019250318408012 0.17800000309944153 254 255 251
0.026792164891958237 0.0022019250318408012 0.17800000309944153 254 255 249
0.027210712432861328 0.0022019250318408012 0.17800000309944153 254 255 249
0.027474040165543556 0.0021895545069128275 0.1770000010728836 254 255 249
0.027890237048268318 0.0021895545069128275 0.1770000010728836 254 255 249
0.02830643393099308 0.0021895545069128275 0.1770000010728836 249 251 242
0.028722630813717842 0.0021895545069128275 0.1770000010728836 233 235 226
0.029138827696442604 0.0021895545069128275 0.1770000010728836 253 254 248
0.029555024579167366 0.0021895545069128275 0.1770000010728836 254 255 249
0.029971221461892128 0.0021895545069128275 0.1770000010728836 254 255 249
0.03038741834461689 0.0021895545069128275 0.1770000010728836 254 255 249
0.0309776458889246 0.0022019250318408012 0.17800000309944153 254 255 251
0.03139619529247284 0.0022019250318408012 0.17800000309944153 254 255 251
0.03181474283337593 0.0022019250318408012 0.17800000309944153 254 255 251
0.03223329037427902 0.0022019250318408012 0.17800000309944153 254 255 251
0.032651837915182114 0.0022019250318408012 0.17800000309944153 254 255 251
0.033070385456085205 0.0022019250318408012 0.17800000309944153 254 255 251
0.033488936722278595 0.0022019250318408012 0.17800000309944153 254 255 251
0.033716991543769836 0.0021895545069128275 0.1770000010728836 254 255 251
0.0341331884264946 0.0021895545069128275 0.1770000010728836 254 255 251
0.03454938530921936 0.0021895545069128275 0.1770000010728836 254 255 251
0.03496558219194412 0.0021895545069128275 0.1770000010728836 254 255 251
0.035381779074668884 0.0021895545069128275 0.1770000010728836 254 255 251
0.035797975957393646 0.0021895545069128275 0.1770000010728836 254 255 251
0.03621417284011841 0.0021895545069128275 0.1770000010728836 254 255 251
0.03663036972284317 0.0021895545069128275 0.1770000010728836 254 255 251
0.03704656660556793 0.0021895545069128275 0.1770000010728836 253 254 250
0.037462763488292694 0.0021895545069128275 0.1770000010728836 240 240 236
0.037878960371017456 0.0021895545069128275 0.1770000010728836 255 255 251
0.03829515725374222 0.0021895545069128275 0.1770000010728836 254 255 251
0.03871135413646698 0.0021895545069128275 0.1770000010728836 254 255 251
0.03912755101919174 0.0021895545069128275 0.1770000010728836 254 255 251
0.039543747901916504 0.0021895545069128275 0.1770000010728836 254 255 251
0.040185704827308655 0.0022019250318408012 0.17800000309944153 254 255 251
0.040604252368211746 0.0022019250318408012 0.17800000309944153 254 255 251
0.04102279990911484 0.0022019250318408012 0.17800000309944153 254 255 251
0.0416741669178009 0.0022142953239381313 0.17900000512599945 254 255 251
0.042095065116882324 0.0022142953239381313 0.17900000512599945 254 255 251
0.042515967041254044 0.0022142953239381313 0.17900000512599945 254 255 251
0.042936865240335464 0.0022142953239381313 0.17900000512599945 254 254 250
0.043357763439416885 0.0022142953239381313 0.17900000512599945 241 241 237
0.043778665363788605 0.0022142953239381313 0.17900000512599945 239 236 233
0.044199563562870026 0.0022142953239381313 0.17900000512599945 255 252 249
0.04462046176195145 0.0022142953239381313 0.17900000512599945 255 255 251
0.045292992144823074 0.0022266656160354614 0.18000000715255737 255 255 251
0.045716241002082825 0.0022266656160354614 0.18000000715255737 254 255 251
0.046139493584632874 0.0022266656160354614 0.18000000715255737 254 255 251
0.04682142660021782 0.002239036140963435 0.1809999942779541 254 255 251
0.0472470261156559 0.002239036140963435 0.1809999942779541 254 255 251
0.04767262935638428 0.002239036140963435 0.1809999942779541 254 255 251
0.04836396872997284 0.0022514064330607653 0.18199999630451202 254 255 251
0.04879192262887955 0.0022514064330607653 0.18199999630451202 255 252 254
0.0494903139770031 0.0022637767251580954 0.18299999833106995 255 252 254
0.049920618534088135 0.0022637767251580954 0.18299999833106995 245 205 220
0.05062606558203697 0.002276147250086069 0.18400000035762787 181 141 156
0.00973073486238718 0.0027676906902343035 0.18799999356269836 255 253 208
0.010172797366976738 0.0027676906902343035 0.18799999356269836 255 255 211
0.010558397509157658 0.002752969041466713 0.18700000643730164 254 255 245
0.010939294472336769 0.0027382471598684788 0.1860000044107437 254 255 245
0.011315489187836647 0.0027235255111008883 0.1850000023841858 254 255 249
0.011750496923923492 0.0027235255111008883 0.1850000023841858 254 255 249
0.012119636870920658 0.002708803629502654 0.18400000035762787 254 255 251
0.012552293948829174 0.002708803629502654 0.18400000035762787 254 255 251
0.012984950095415115 0.002708803629502654 0.18400000035762787 254 255 251
0.01334468461573124 0.0026940819807350636 0.18299999833106995 254 255 251
0.013774990104138851 0.0026940819807350636 0.18299999833106995 254 255 251
0.014205295592546463 0.0026940819807350636 0.18299999833106995 254 255 251
0.014555624686181545 0.0026793600991368294 0.18199999630451202 254 255 251
0.014983577653765678 0.0026793600991368294 0.18199999630451202 254 255 251
0.015411531552672386 0.0026793600991368294 0.18199999630451202 254 255 251
0.015839485451579094 0.0026793600991368294 0.18199999630451202 254 255 251
0.016178058460354805 0.002664638450369239 0.1809999942779541 254 255 251
0.016603659838438034 0.002664638450369239 0.1809999942779541 254 255 251
0.016935177147388458 0.0026499165687710047 0.18000000715255737 254 255 251
0.017358429729938507 0.0026499165687710047 0.18000000715255737 254 255 251
0.017781680449843407 0.0026499165687710047 0.18000000715255737 254 255 251
0.018103791400790215 0.002635194920003414 0.17900000512599945 254 255 251
0.018524691462516785 0.002635194920003414 0.17900000512599945 254 255 251
0.018945591524243355 0.002635194920003414 0.17900000512599945 254 255 251
0.019366491585969925 0.002635194920003414 0.17900000512599945 254 255 251
0.019787389785051346 0.002635194920003414 0.17900000512599945 254 255 251
0.020095394924283028 0.00262047303840518 0.17800000309944153 254 255 251
0.02051394246518612 0.00262047303840518 0.17800000309944153 254 255 251
0.02093249000608921 0.00262047303840518 0.17800000309944153 254 255 251
0.02135103940963745 0.00262047303840518 0.17800000309944153 254 255 251
0.021769586950540543 0.00262047303840518 0.17800000309944153 254 255 251
0.022188134491443634 0.00262047303840518 0.17800000309944153 254 255 251
0.022606683894991875 0.00262047303840518 0.17800000309944153 254 255 251
0.023025231435894966 0.00262047303840518 0.17800000309944153 254 255 251
0.023443778976798058 0.00262047303840518 0.17800000309944153 254 255 251
0.02399638667702675 0.002635194920003414 0.17900000512599945 254 255 251
0.02441728487610817 0.002635194920003414 0.17900000512599945 254 255 251
0.02483818493783474 0.002635194920003414 0.17900000512599945 254 255 251
0.02525908499956131 0.002635194920003414 0.17900000512599945 254 255 251
0.025536520406603813 0.00262047303840518 0.17800000309944153 254 255 251
0.025955067947506905 0.00262047303840518 0.17800000309944153 254 255 251
0.026373617351055145 0.00262047303840518 0.17800000309944153 254 255 251
0.026792164891958237 0.00262047303840518 0.17800000309944153 254 255 251
0.027057843282818794 0.0026057513896375895 0.1770000010728836 254 255 251
0.027474040165543556 0.0026057513896375895 0.1770000010728836 254 255 249
0.027890237048268318 0.0026057513896375895 0.1770000010728836 254 255 249
0.02830643393099308 0.0026057513896375895 0.1770000010728836 217 217 211
0.028722630813717842 0.0026057513896375895 0.1770000010728836 226 226 220
0.029138827696442604 0.0026057513896375895 0.1770000010728836 254 255 249
0.029555024579167366 0.0026057513896375895 0.1770000010728836 254 255 249
0.029971221461892128 0.0026057513896375895 0.1770000010728836 254 255 249
0.03038741834461689 0.0026057513896375895 0.1770000010728836 254 255 249
0.030803615227341652 0.0026057513896375895 0.1770000010728836 254 255 249
0.031219812110066414 0.0026057513896375895 0.1770000010728836 254 255 249
0.03181474283337593 0.00262047303840518 0.17800000309944153 254 255 249
0.03223329037427902 0.00262047303840518 0.17800000309944153 254 255 249
0.032651837915182114 0.00262047303840518 0.17800000309944153 254 255 251
0.03288459777832031 0.0026057513896375895 0.1770000010728836 254 255 251
0.033300794661045074 0.0026057513896375895 0.1770000010728836 254 255 251
0.033716991543769836 0.0026057513896375895 0.1770000010728836 254 255 251
0.0341331884264946 0.0026057513896375895 0.1770000010728836 254 255 251
0.03454938530921936 0.0026057513896375895 0.1770000010728836 254 255 251
0.03496558219194412 0.0026057513896375895 0.1770000010728836 254 255 251
0.035381779074668884 0.0026057513896375895 0.1770000010728836 254 255 251
0.03559572622179985 0.0025910295080393553 0.17599999904632568 254 255 251
0.03600957244634628 0.0025910295080393553 0.17599999904632568 254 255 251
0.03663036972284317 0.0026057513896375895 0.1770000010728836 254 255 251
0.03704656660556793 0.0026057513896375895 0.1770000010728836 254 255 251
0.037462763488292694 0.0026057513896375895 0.1770000010728836 250 251 247
0.037878960371017456 0.0026057513896375895 0.1770000010728836 254 255 251
0.03829515725374222 0.0026057513896375895 0.1770000010728836 254 255 251
0.03871135413646698 0.0026057513896375895 0.1770000010728836 254 255 251
0.03912755101919174 0.0026057513896375895 0.1770000010728836 254 255 251
0.039543747901916504 0.0026057513896375895 0.1770000010728836 254 255 251
0.040185704827308655 0.00262047303840518 0.17800000309944153 254 255 251
0.040604252368211746 0.00262047303840518 0.17800000309944153 254 255 251
0.04102279990911484 0.00262047303840518 0.17800000309944153 254 255 251
0.0416741669178009 0.002635194920003414 0.17900000512599945 254 255 251
0.042095065116882324 0.002635194920003414 0.17900000512599945 254 255 251
0.042515967041254044 0.002635194920003414 0.17900000512599945 254 255 251
0.042936865240335464 0.002635194920003414 0.17900000512599945 254 255 251
0.043357763439416885 0.002635194920003414 0.17900000512599945 254 255 251
0.043778665363788605 0.002635194920003414 0.17900000512599945 253 254 250
0.044199563562870026 0.002635194920003414 0.17900000512599945 254 255 251
0.04462046176195145 0.002635194920003414 0.17900000512599945 254 255 251
0.045292992144823074 0.0026499165687710047 0.18000000715255737 254 255 251
0.045716241002082825 0.0026499165687710047 0.18000000715255737 254 255 251
0.046139493584632874 0.0026499165687710047 0.18000000715255737 254 255 251
0.04682142660021782 0.002664638450369239 0.1809999942779541 254 255 251
0.0472470261156559 0.002664638450369239 0.1809999942779541 254 255 251
0.04767262935638428 0.002664638450369239 0.1809999942779541 254 255 251
0.04836396872997284 0.0026793600991368294 0.18199999630451202 254 255 251
0.04879192262887955 0.0026793600991368294 0.18199999630451202 255 253 254
0.0494903139770031 0.0026940819807350636 0.18299999833106995 255 253 254
0.049920618534088135 0.0026940819807350636 0.18299999833106995 233 208 218
0.05062606558203697 0.002708803629502654 0.18400000035762787 207 182 192
0.05105872452259064 0.002708803629502654 0.18400000035762787 255 226 244
0.05177122354507446 0.0027235255111008883 0.1850000023841858 255 230 248
0.05220623314380646 0.0027235255111008883 0.1850000023841858 255 209 230
0.05292578786611557 0.0027382471598684788 0.1860000044107437 255 201 222
0.00973073486238718 0.003209752729162574 0.18799999356269836 255 255 218
0.010118686594069004 0.003192679723724723 0.18700000643730164 255 255 218
0.010558397509157658 0.003192679723724723 0.18700000643730164 254 255 245
0.010939294472336769 0.0031756064854562283 0.1860000044107437 254 255 245
0.011315489187836647 0.0031585332471877337 0.1850000023841858 254 255 249
0.011750496923923492 0.0031585332471877337 0.1850000023841858 254 255 249
0.012119636870920658 0.0031414602417498827 0.18400000035762787 254 255 251
0.012552293948829174 0.0031414602417498827 0.18400000035762787 254 255 251
0.012914380058646202 0.003124387003481388 0.18299999833106995 254 255 251
0.01334468461573124 0.003124387003481388 0.18299999833106995 254 255 251
0.013774990104138851 0.003124387003481388 0.18299999833106995 254 255 251
0.014205295592546463 0.003124387003481388 0.18299999833106995 254 255 251
0.014555624686181545 0.0031073137652128935 0.18199999630451202 254 255 251
0.014983577653765678 0.0031073137652128935 0.18199999630451202 254 255 251
0.015411531552672386 0.0031073137652128935 0.18199999630451202 254 255 251
0.015839485451579094 0.0031073137652128935 0.18199999630451202 254 255 251
0.016178058460354805 0.0030902407597750425 0.1809999942779541 254 255 251
0.01651192642748356 0.003073167521506548 0.18000000715255737 254 255 251
0.016935177147388458 0.003073167521506548 0.18000000715255737 254 255 251
0.017358429729938507 0.003073167521506548 0.18000000715255737 254 255 251
0.017682893201708794 0.0030560942832380533 0.17900000512599945 254 255 251
0.018103791400790215 0.0030560942832380533 0.17900000512599945 254 255 251
0.018524691462516785 0.0030560942832380533 0.17900000512599945 254 255 251
0.018945591524243355 0.0030560942832380533 0.17900000512599945 254 255 251
0.019258297979831696 0.0030390212778002024 0.17800000309944153 254 255 251
0.019676845520734787 0.0030390212778002024 0.17800000309944153 254 255 251
0.020095394924283028 0.0030390212778002024 0.17800000309944153 254 255 251
0.02051394246518612 0.0030390212778002024 0.17800000309944153 254 255 251
0.02093249000608921 0.0030390212778002024 0.17800000309944153 254 255 251
0.02135103940963745 0.0030390212778002024 0.17800000309944153 254 255 251
0.021769586950540543 0.0030390212778002024 0.17800000309944153 254 255 251
0.022188134491443634 0.0030390212778002024 0.17800000309944153 254 255 251
0.022606683894991875 0.0030390212778002024 0.17800000309944153 254 255 251
0.023025231435894966 0.0030390212778002024 0.17800000309944153 254 255 251
0.023443778976798058 0.0030390212778002024 0.17800000309944153 254 255 251
0.02399638667702675 0.0030560942832380533 0.17900000512599945 254 255 251
0.02441728487610817 0.0030560942832380533 0.17900000512599945 254 255 251
0.02483818493783474 0.0030560942832380533 0.17900000512599945 254 255 251
0.025117972865700722 0.0030390212778002024 0.17800000309944153 254 255 251
0.025536520406603813 0.0030390212778002024 0.17800000309944153 254 255 251
0.025955067947506905 0.0030390212778002024 0.17800000309944153 254 255 251
0.026373617351055145 0.0030390212778002024 0.17800000309944153 254 255 251
0.026641646400094032 0.0030219480395317078 0.1770000010728836 254 255 251
0.027057843282818794 0.0030219480395317078 0.1770000010728836 254 255 251
0.027474040165543556 0.0030219480395317078 0.1770000010728836 254 255 251
0.027890237048268318 0.0030219480395317078 0.1770000010728836 254 255 251
0.02814651094377041 0.003004875034093857 0.17599999904632568 248 248 244
0.028560355305671692 0.003004875034093857 0.17599999904632568 227 227 223
0.028974201530218124 0.003004875034093857 0.17599999904632568 254 255 249
0.029388045892119408 0.003004875034093857 0.17599999904632568 254 255 249
0.029971221461892128 0.0030219480395317078 0.1770000010728836 254 255 249
0.03038741834461689 0.0030219480395317078 0.1770000010728836 254 255 249
0.030803615227341652 0.0030219480395317078 0.1770000010728836 254 255 251
0.031219812110066414 0.0030219480395317078 0.1770000010728836 254 255 251
0.03163600713014603 0.0030219480395317078 0.1770000010728836 254 255 251
0.03205220401287079 0.0030219480395317078 0.1770000010728836 254 255 251
0.03246840089559555 0.0030219480395317078 0.1770000010728836 254 255 251
0.03288459777832031 0.0030219480395317078 0.1770000010728836 254 255 251
0.03311265632510185 0.003004875034093857 0.17599999904632568 254 255 251
0.033526498824357986 0.003004875034093857 0.17599999904632568 254 255 251
0.03394034504890442 0.003004875034093857 0.17599999904632568 254 255 251
0.03435419127345085 0.003004875034093857 0.17599999904632568 254 255 251
0.034768037497997284 0.003004875034093857 0.17599999904632568 254 255 251
0.03518187999725342 0.003004875034093857 0.17599999904632568 254 255 251
0.03559572622179985 0.003004875034093857 0.17599999904632568 254 255 251
0.03600957244634628 0.003004875034093857 0.17599999904632568 254 255 251
0.036423418670892715 0.003004875034093857 0.17599999904632568 254 255 251
0.03704656660556793 0.0030219480395317078 0.1770000010728836 254 255 251
0.037462763488292694 0.0030219480395317078 0.1770000010728836 254 255 251
0.037878960371017456 0.0030219480395317078 0.1770000010728836 254 255 251
0.03829515725374222 0.0030219480395317078 0.1770000010728836 254 255 251
0.03871135413646698 0.0030219480395317078 0.1770000010728836 254 255 251
0.03912755101919174 0.0030219480395317078 0.1770000010728836 254 255 251
0.03976715728640556 0.0030390212778002024 0.17800000309944153 254 255 251
0.040185704827308655 0.0030390212778002024 0.17800000309944153 254 255 251
0.040604252368211746 0.0030390212778002024 0.17800000309944153 254 255 251
0.041253264993429184 0.0030560942832380533 0.17900000512599945 254 255 251
0.0416741669178009 0.0030560942832380533 0.17900000512599945 254 255 251
0.042095065116882324 0.0030560942832380533 0.17900000512599945 254 255 251
0.042515967041254044 0.0030560942832380533 0.17900000512599945 254 255 251
0.042936865240335464 0.0030560942832380533 0.17900000512599945 254 255 251
0.043357763439416885 0.0030560942832380533 0.17900000512599945 254 255 251
0.043778665363788605 0.0030560942832380533 0.17900000512599945 254 255 251
0.044199563562870026 0.0030560942832380533 0.17900000512599945 254 255 251
