0.07089836150407791 -0.01252127718180418 0.1340000033378601 253 254 248
0.07121344655752182 -0.01252127718180418 0.1340000033378601 252 234 240
0.07152853161096573 -0.01252127718180418 0.1340000033378601 236 218 224
0.07184361666440964 -0.01252127718180418 0.1340000033378601 222 189 202
0.07215870171785355 -0.01252127718180418 0.1340000033378601 224 191 204
0.07193294167518616 -0.012427834793925285 0.13300000131130219 196 169 161
0.07224567979574203 -0.012427834793925285 0.13300000131130219 244 217 209
0.07255841046571732 -0.012427834793925285 0.13300000131130219 255 255 235
0.0728711485862732 -0.012427834793925285 0.13300000131130219 255 255 235
0.07318388670682907 -0.012427834793925285 0.13300000131130219 254 255 245
0.07349661737680435 -0.012427834793925285 0.13300000131130219 254 255 245
0.07380935549736023 -0.012427834793925285 0.13300000131130219 255 251 255
0.07356478273868561 -0.01233439240604639 0.13199999928474426 235 229 233
0.07387516647577286 -0.01233439240604639 0.13199999928474426 235 211 228
0.07418555021286011 -0.01233439240604639 0.13199999928474426 222 198 215
0.07449593394994736 -0.01233439240604639 0.13199999928474426 233 202 219
0.0748063176870346 -0.01233439240604639 0.13199999928474426 236 205 222
0.07454763352870941 -0.012240950018167496 0.13099999725818634 255 230 239
0.07485567033290863 -0.012240950018167496 0.13099999725818634 255 236 245
0.07516369968652725 -0.012240950018167496 0.13099999725818634 255 247 249
0.07547173649072647 -0.012240950018167496 0.13099999725818634 255 248 250
0.07577976584434509 -0.012240950018167496 0.13099999725818634 244 234 244
0.07608779519796371 -0.012240950018167496 0.13099999725818634 230 220 230
0.07639583200216293 -0.012240950018167496 0.13099999725818634 217 193 219
0.0761183351278305 -0.012147507630288601 0.12999999523162842 207 183 209
0.0764240175485611 -0.012147507630288601 0.12999999523162842 209 175 195
0.07672969996929169 -0.012147507630288601 0.12999999523162842 207 173 193
0.07703538239002228 -0.012147507630288601 0.12999999523162842 201 166 180
0.07734106481075287 -0.012147507630288601 0.12999999523162842 206 171 185
0.07764674723148346 -0.012147507630288601 0.12999999523162842 196 161 173
0.07795242220163345 -0.012147507630288601 0.12999999523162842 212 177 189
0.07825810462236404 -0.012147507630288601 0.12999999523162842 205 172 183
0.07856378704309464 -0.012147507630288601 0.12999999523162842 216 183 194
0.07886946946382523 -0.012147507630288601 0.12999999523162842 206 180 195
0.07917515188455582 -0.012147507630288601 0.12999999523162842 203 177 192
0.07948083430528641 -0.012147507630288601 0.12999999523162842 205 180 190
0.079786516726017 -0.012147507630288601 0.12999999523162842 191 166 176
0.08253764361143112 -0.012147507630288601 0.12999999523162842 209 179 191
0.08284332603216171 -0.012147507630288601 0.12999999523162842 199 169 181
0.0831490084528923 -0.012147507630288601 0.12999999523162842 174 146 157
0.0834546908736229 -0.012147507630288601 0.12999999523162842 184 156 167
0.08376036584377289 -0.012147507630288601 0.12999999523162842 178 151 156
0.08406604826450348 -0.012147507630288601 0.12999999523162842 176 149 154
0.08437173068523407 -0.012147507630288601 0.12999999523162842 178 152 152
0.08467741310596466 -0.012147507630288601 0.12999999523162842 178 152 152
0.08498309552669525 -0.012147507630288601 0.12999999523162842 177 149 146
0.08528877794742584 -0.012147507630288601 0.12999999523162842 179 151 148
0.08559445291757584 -0.012147507630288601 0.12999999523162842 181 153 150
0.08590013533830643 -0.012147507630288601 0.12999999523162842 181 153 150
0.08620581775903702 -0.012147507630288601 0.12999999523162842 182 151 151
0.08651150017976761 -0.012147507630288601 0.12999999523162842 179 148 148
0.0868171826004982 -0.012147507630288601 0.12999999523162842 174 137 144
0.08779303729534149 -0.012240950018167496 0.13099999725818634 169 132 139
0.08810107409954071 -0.012240950018167496 0.13099999725818634 167 134 137
0.08840910345315933 -0.012240950018167496 0.13099999725818634 168 135 138
0.08871713280677795 -0.012240950018167496 0.13099999725818634 170 141 145
0.08902516961097717 -0.012240950018167496 0.13099999725818634 165 136 140
0.0893331989645958 -0.012240950018167496 0.13099999725818634 159 131 140
0.08964123576879501 -0.012240950018167496 0.13099999725818634 149 121 130
0.08994926512241364 -0.012240950018167496 0.13099999725818634 148 121 124
0.09025730192661285 -0.012240950018167496 0.13099999725818634 152 125 128
0.09056533128023148 -0.012240950018167496 0.13099999725818634 158 132 132
0.0908733680844307 -0.012240950018167496 0.13099999725818634 159 133 133
0.09118139743804932 -0.012240950018167496 0.13099999725818634 156 133 132
0.09148942679166794 -0.012240950018167496 0.13099999725818634 161 138 137
0.09179746359586716 -0.012240950018167496 0.13099999725818634 157 134 131
0.09210549294948578 -0.012240950018167496 0.13099999725818634 160 137 134
0.092413529753685 -0.012240950018167496 0.13099999725818634 166 143 140
0.09272155910730362 -0.012240950018167496 0.13099999725818634 160 137 134
0.09302959591150284 -0.012240950018167496 0.13099999725818634 159 130 134
0.09405012428760529 -0.01233439240604639 0.13199999928474426 152 123 127
0.09436050802469254 -0.01233439240604639 0.13199999928474426 146 117 123
0.09467089176177979 -0.01233439240604639 0.13199999928474426 146 117 123
0.09570083022117615 -0.012427834793925285 0.13300000131130219 150 119 121
0.09601356834173203 -0.012427834793925285 0.13300000131130219 152 121 123
0.0963263064622879 -0.012427834793925285 0.13300000131130219 152 121 123
0.09663903713226318 -0.012427834793925285 0.13300000131130219 153 122 124
0.09768073260784149 -0.01252127718180418 0.1340000033378601 149 122 125
0.097995825111866 -0.01252127718180418 0.1340000033378601 152 125 128
0.0983109101653099 -0.01252127718180418 0.1340000033378601 149 129 132
0.09862599521875381 -0.01252127718180418 0.1340000033378601 159 139 142
0.09894108027219772 -0.01252127718180418 0.1340000033378601 155 140 141
0.09925617277622223 -0.01252127718180418 0.1340000033378601 153 138 139
0.09957125782966614 -0.01252127718180418 0.1340000033378601 153 138 139
0.09988634288311005 -0.01252127718180418 0.1340000033378601 150 135 136
0.10020142793655396 -0.01252127718180418 0.1340000033378601 154 123 121
0.10051652044057846 -0.01252127718180418 0.1340000033378601 151 120 118
0.06355521082878113 -0.013026009313762188 0.14300000667572021 255 241 230
0.06344466656446457 -0.012934918515384197 0.1420000046491623 255 255 247
0.06377856433391571 -0.012934918515384197 0.1420000046491623 255 255 247
0.06411246210336685 -0.012934918515384197 0.1420000046491623 254 255 249
0.06399251520633698 -0.012843827717006207 0.14100000262260437 254 255 249
0.06432405859231949 -0.012843827717006207 0.14100000262260437 254 255 249
0.0646556094288826 -0.012843827717006207 0.14100000262260437 254 255 249
0.06498715281486511 -0.012843827717006207 0.14100000262260437 254 255 249
0.06531869620084763 -0.012843827717006207 0.14100000262260437 254 255 249
0.06565024703741074 -0.012843827717006207 0.14100000262260437 254 255 249
0.06551383435726166 -0.012752735987305641 0.14000000059604645 254 255 249
0.06584303081035614 -0.012752735987305641 0.14000000059604645 255 247 247
0.06617222726345062 -0.012752735987305641 0.14000000059604645 235 218 218
0.0674983561038971 -0.01257055439054966 0.1379999965429306 255 253 239
0.06782285124063492 -0.01257055439054966 0.1379999965429306 255 253 239
0.06814733892679214 -0.01257055439054966 0.1379999965429306 254 255 247
0.06847183406352997 -0.01257055439054966 0.1379999965429306 254 255 247
0.06829780340194702 -0.012479463592171669 0.13699999451637268 254 255 249
0.06861994415521622 -0.012479463592171669 0.13699999451637268 254 255 249
0.06894208490848541 -0.012479463592171669 0.13699999451637268 254 255 249
0.06875864416360855 -0.012388372793793678 0.13600000739097595 254 255 249
0.06907843798398972 -0.012388372793793678 0.13600000739097595 254 255 249
0.06939822435379028 -0.012388372793793678 0.13600000739097595 254 255 249
0.06971801817417145 -0.012388372793793678 0.13600000739097595 254 255 249
0.07003780454397202 -0.012388372793793678 0.13600000739097595 254 255 249
0.07035759091377258 -0.012388372793793678 0.13600000739097595 254 255 249
0.07015769928693771 -0.012297281064093113 0.13500000536441803 254 255 249
0.07047513872385025 -0.012297281064093113 0.13500000536441803 254 255 249
0.07079257071018219 -0.012297281064093113 0.13500000536441803 254 255 249
0.07111001014709473 -0.012297281064093113 0.13500000536441803 254 255 251
0.07089836150407791 -0.012206190265715122 0.1340000033378601 254 255 251
0.07121344655752182 -0.012206190265715122 0.1340000033378601 255 247 254
0.07152853161096573 -0.012206190265715122 0.1340000033378601 244 228 235
0.07184361666440964 -0.012206190265715122 0.1340000033378601 223 192 209
0.07215870171785355 -0.012206190265715122 0.1340000033378601 207 176 193
0.07193294167518616 -0.012115099467337132 0.13300000131130219 187 160 152
0.07224567979574203 -0.012115099467337132 0.13300000131130219 226 199 191
0.07255841046571732 -0.012115099467337132 0.13300000131130219 255 252 229
0.0728711485862732 -0.012115099467337132 0.13300000131130219 255 254 231
0.07318388670682907 -0.012115099467337132 0.13300000131130219 254 255 241
0.07349661737680435 -0.012115099467337132 0.13300000131130219 254 255 241
0.07380935549736023 -0.012115099467337132 0.13300000131130219 255 254 254
0.07356478273868561 -0.01202400866895914 0.13199999928474426 250 249 249
0.07387516647577286 -0.01202400866895914 0.13199999928474426 243 224 237
0.07418555021286011 -0.01202400866895914 0.13199999928474426 222 203 216
0.07449593394994736 -0.01202400866895914 0.13199999928474426 226 202 217
0.0748063176870346 -0.01202400866895914 0.13199999928474426 241 217 232
0.07454763352870941 -0.01193291787058115 0.13099999725818634 245 220 228
0.07485567033290863 -0.01193291787058115 0.13099999725818634 255 232 240
0.07516369968652725 -0.01193291787058115 0.13099999725818634 255 249 249
0.07547173649072647 -0.01193291787058115 0.13099999725818634 255 251 251
0.07577976584434509 -0.01193291787058115 0.13099999725818634 248 243 253
0.07608779519796371 -0.01193291787058115 0.13099999725818634 240 235 245
0.07639583200216293 -0.01193291787058115 0.13099999725818634 211 195 220
0.0761183351278305 -0.011841826140880585 0.12999999523162842 202 186 211
0.0764240175485611 -0.011841826140880585 0.12999999523162842 195 171 190
0.07672969996929169 -0.011841826140880585 0.12999999523162842 197 173 192
0.07703538239002228 -0.011841826140880585 0.12999999523162842 200 170 182
0.07734106481075287 -0.011841826140880585 0.12999999523162842 203 173 185
0.07764674723148346 -0.011841826140880585 0.12999999523162842 204 172 179
0.07795242220163345 -0.011841826140880585 0.12999999523162842 211 179 186
0.07825810462236404 -0.011841826140880585 0.12999999523162842 212 180 187
0.07856378704309464 -0.011841826140880585 0.12999999523162842 215 183 190
0.07886946946382523 -0.011841826140880585 0.12999999523162842 203 178 190
0.07917515188455582 -0.011841826140880585 0.12999999523162842 196 171 183
0.07948083430528641 -0.011841826140880585 0.12999999523162842 193 169 184
0.079786516726017 -0.011841826140880585 0.12999999523162842 190 166 181
0.08009219169616699 -0.011841826140880585 0.12999999523162842 190 157 156
0.08039787411689758 -0.011841826140880585 0.12999999523162842 154 121 120
0.08253764361143112 -0.011841826140880585 0.12999999523162842 187 160 165
0.08284332603216171 -0.011841826140880585 0.12999999523162842 190 163 168
0.0831490084528923 -0.011841826140880585 0.12999999523162842 183 158 168
0.0834546908736229 -0.011841826140880585 0.12999999523162842 182 157 167
0.08376036584377289 -0.011841826140880585 0.12999999523162842 171 146 154
0.08406604826450348 -0.011841826140880585 0.12999999523162842 169 144 152
0.08437173068523407 -0.011841826140880585 0.12999999523162842 171 144 147
0.08467741310596466 -0.011841826140880585 0.12999999523162842 181 154 157
0.08498309552669525 -0.011841826140880585 0.12999999523162842 178 152 150
0.08528877794742584 -0.011841826140880585 0.12999999523162842 179 153 151
0.08559445291757584 -0.011841826140880585 0.12999999523162842 179 153 151
0.08590013533830643 -0.011841826140880585 0.12999999523162842 179 153 151
0.08620581775903702 -0.011841826140880585 0.12999999523162842 179 150 156
0.08651150017976761 -0.011841826140880585 0.12999999523162842 169 140 146
0.0868171826004982 -0.011841826140880585 0.12999999523162842 167 134 145
0.08779303729534149 -0.01193291787058115 0.13099999725818634 161 128 139
0.08810107409954071 -0.01193291787058115 0.13099999725818634 164 132 139
0.08840910345315933 -0.01193291787058115 0.13099999725818634 167 135 142
0.08871713280677795 -0.01193291787058115 0.13099999725818634 170 141 147
0.08902516961097717 -0.01193291787058115 0.13099999725818634 167 138 144
0.0893331989645958 -0.01193291787058115 0.13099999725818634 163 135 144
0.08964123576879501 -0.01193291787058115 0.13099999725818634 148 120 129
0.08994926512241364 -0.01193291787058115 0.13099999725818634 149 122 127
0.09025730192661285 -0.01193291787058115 0.13099999725818634 145 118 123
0.09056533128023148 -0.01193291787058115 0.13099999725818634 153 125 126
0.0908733680844307 -0.01193291787058115 0.13099999725818634 155 127 128
0.09118139743804932 -0.01193291787058115 0.13099999725818634 156 130 128
0.09148942679166794 -0.01193291787058115 0.13099999725818634 156 130 128
0.09179746359586716 -0.01193291787058115 0.13099999725818634 153 130 127
0.09210549294948578 -0.01193291787058115 0.13099999725818634 160 137 134
0.092413529753685 -0.01193291787058115 0.13099999725818634 162 139 136
0.09272155910730362 -0.01193291787058115 0.13099999725818634 157 134 131
0.09373974055051804 -0.01202400866895914 0.13199999928474426 155 126 130
0.09405012428760529 -0.01202400866895914 0.13199999928474426 146 117 121
0.09436050802469254 -0.01202400866895914 0.13199999928474426 146 114 121
0.09538809955120087 -0.012115099467337132 0.13300000131130219 147 115 122
0.09570083022117615 -0.012115099467337132 0.13300000131130219 148 115 114
0.09601356834173203 -0.012115099467337132 0.13300000131130219 153 120 119
0.0963263064622879 -0.012115099467337132 0.13300000131130219 159 126 125
0.09736564755439758 -0.012206190265715122 0.1340000033378601 155 122 121
0.09768073260784149 -0.012206190265715122 0.1340000033378601 155 124 126
0.097995825111866 -0.012206190265715122 0.1340000033378601 162 131 133
0.0983109101653099 -0.012206190265715122 0.1340000033378601 159 134 142
0.09862599521875381 -0.012206190265715122 0.1340000033378601 162 137 145
0.09894108027219772 -0.012206190265715122 0.1340000033378601 159 138 147
0.09925617277622223 -0.012206190265715122 0.1340000033378601 158 137 146
0.09957125782966614 -0.012206190265715122 0.1340000033378601 155 137 143
0.09988634288311005 -0.012206190265715122 0.1340000033378601 157 139 145
0.10020142793655396 -0.012206190265715122 0.1340000033378601 158 122 126
0.10051652044057846 -0.012206190265715122 0.1340000033378601 155 119 123
0.06321895867586136 -0.012689759954810143 0.14300000667572021 255 232 221
0.06355521082878113 -0.012689759954810143 0.14300000667572021 255 242 231
0.06344466656446457 -0.012601020745933056 0.1420000046491623 255 254 247
0.06377856433391571 -0.012601020745933056 0.1420000046491623 255 254 247
0.06411246210336685 -0.012601020745933056 0.1420000046491623 254 255 249
0.06399251520633698 -0.012512280605733395 0.14100000262260437 254 255 249
0.06432405859231949 -0.012512280605733395 0.14100000262260437 254 255 249
0.0646556094288826 -0.012512280605733395 0.14100000262260437 254 255 249
0.06498715281486511 -0.012512280605733395 0.14100000262260437 254 255 249
0.06531869620084763 -0.012512280605733395 0.14100000262260437 254 255 249
0.06565024703741074 -0.012512280605733395 0.14100000262260437 254 255 249
0.06551383435726166 -0.012423541396856308 0.14000000059604645 254 255 249
0.06584303081035614 -0.012423541396856308 0.14000000059604645 255 251 251
0.06617222726345062 -0.012423541396856308 0.14000000059604645 253 241 241
0.0665014237165451 -0.012423541396856308 0.14000000059604645 240 201 210
0.06635325402021408 -0.012334801256656647 0.13899999856948853 228 189 198
0.0674983561038971 -0.01224606204777956 0.1379999965429306 255 251 237
0.06782285124063492 -0.01224606204777956 0.1379999965429306 255 252 238
0.06814733892679214 -0.01224606204777956 0.1379999965429306 254 255 247
0.06847183406352997 -0.01224606204777956 0.1379999965429306 254 255 247
0.06829780340194702 -0.012157322838902473 0.13699999451637268 254 255 249
0.06861994415521622 -0.012157322838902473 0.13699999451637268 254 255 249
0.06894208490848541 -0.012157322838902473 0.13699999451637268 254 255 249
0.06926422566175461 -0.012157322838902473 0.13699999451637268 254 255 249
0.06907843798398972 -0.012068582698702812 0.13600000739097595 254 255 249
0.06939822435379028 -0.012068582698702812 0.13600000739097595 254 255 249
0.06971801817417145 -0.012068582698702812 0.13600000739097595 254 255 249
0.07003780454397202 -0.012068582698702812 0.13600000739097595 254 255 249
0.07035759091377258 -0.012068582698702812 0.13600000739097595 254 255 249
0.07067738473415375 -0.012068582698702812 0.13600000739097595 254 255 249
0.07047513872385025 -0.011979843489825726 0.13500000536441803 254 255 249
0.07079257071018219 -0.011979843489825726 0.13500000536441803 254 255 249
0.07111001014709473 -0.011979843489825726 0.13500000536441803 255 255 251
0.07089836150407791 -0.011891103349626064 0.1340000033378601 255 255 251
0.07121344655752182 -0.011891103349626064 0.1340000033378601 255 245 255
0.07152853161096573 -0.011891103349626064 0.1340000033378601 252 233 248
0.07184361666440964 -0.011891103349626064 0.1340000033378601 229 196 211
0.07215870171785355 -0.011891103349626064 0.1340000033378601 215 182 197
0.07193294167518616 -0.011802364140748978 0.13300000131130219 180 148 142
0.07224567979574203 -0.011802364140748978 0.13300000131130219 185 153 147
0.0728711485862732 -0.011802364140748978 0.13300000131130219 255 252 225
0.07318388670682907 -0.011802364140748978 0.13300000131130219 255 255 239
0.07349661737680435 -0.011802364140748978 0.13300000131130219 255 255 239
0.07380935549736023 -0.011802364140748978 0.13300000131130219 255 255 251
0.07356478273868561 -0.011713624931871891 0.13199999928474426 254 254 250
0.07387516647577286 -0.011713624931871891 0.13199999928474426 233 220 228
0.07418555021286011 -0.011713624931871891 0.13199999928474426 222 209 217
0.07449593394994736 -0.011713624931871891 0.13199999928474426 226 203 215
0.0748063176870346 -0.011713624931871891 0.13199999928474426 226 203 215
0.07454763352870941 -0.01162488479167223 0.13099999725818634 222 201 212
0.07485567033290863 -0.01162488479167223 0.13099999725818634 253 232 243
0.07516369968652725 -0.01162488479167223 0.13099999725818634 255 248 254
0.07547173649072647 -0.01162488479167223 0.13099999725818634 255 250 255
0.07577976584434509 -0.01162488479167223 0.13099999725818634 255 250 255
0.07608779519796371 -0.01162488479167223 0.13099999725818634 238 233 245
0.07639583200216293 -0.01162488479167223 0.13099999725818634 207 198 221
0.07670386135578156 -0.01162488479167223 0.13099999725818634 193 184 207
0.0764240175485611 -0.011536145582795143 0.12999999523162842 203 185 204
0.07672969996929169 -0.011536145582795143 0.12999999523162842 198 180 199
0.07703538239002228 -0.011536145582795143 0.12999999523162842 199 174 184
0.07734106481075287 -0.011536145582795143 0.12999999523162842 199 174 184
0.07764674723148346 -0.011536145582795143 0.12999999523162842 203 174 178
0.07795242220163345 -0.011536145582795143 0.12999999523162842 203 174 178
0.07825810462236404 -0.011536145582795143 0.12999999523162842 210 178 183
0.07856378704309464 -0.011536145582795143 0.12999999523162842 211 179 184
0.07886946946382523 -0.011536145582795143 0.12999999523162842 190 165 175
0.07917515188455582 -0.011536145582795143 0.12999999523162842 186 161 171
0.07948083430528641 -0.011536145582795143 0.12999999523162842 184 161 173
0.079786516726017 -0.011536145582795143 0.12999999523162842 187 164 176
0.08009219169616699 -0.011536145582795143 0.12999999523162842 172 141 139
0.08039787411689758 -0.011536145582795143 0.12999999523162842 131 100 98
0.08253764361143112 -0.011536145582795143 0.12999999523162842 191 164 167
0.08284332603216171 -0.011536145582795143 0.12999999523162842 187 160 163
0.0831490084528923 -0.011536145582795143 0.12999999523162842 179 158 167
0.0834546908736229 -0.011536145582795143 0.12999999523162842 173 152 161
0.08376036584377289 -0.011536145582795143 0.12999999523162842 170 147 157
0.08406604826450348 -0.011536145582795143 0.12999999523162842 168 145 155
0.08437173068523407 -0.011536145582795143 0.12999999523162842 160 136 140
0.08467741310596466 -0.011536145582795143 0.12999999523162842 181 157 161
0.08498309552669525 -0.011536145582795143 0.12999999523162842 179 156 153
0.08528877794742584 -0.011536145582795143 0.12999999523162842 174 151 148
0.08625287562608719 -0.01162488479167223 0.13099999725818634 169 143 139
0.08656090497970581 -0.01162488479167223 0.13099999725818634 174 148 144
0.08686894178390503 -0.01162488479167223 0.13099999725818634 185 155 165
0.08717697113752365 -0.01162488479167223 0.13099999725818634 175 145 155
0.08748500794172287 -0.01162488479167223 0.13099999725818634 163 135 148
0.08779303729534149 -0.01162488479167223 0.13099999725818634 158 130 143
0.08810107409954071 -0.01162488479167223 0.13099999725818634 157 132 144
0.08840910345315933 -0.01162488479167223 0.13099999725818634 161 136 148
0.08871713280677795 -0.01162488479167223 0.13099999725818634 157 132 142
0.08902516961097717 -0.01162488479167223 0.13099999725818634 156 131 141
0.0893331989645958 -0.01162488479167223 0.13099999725818634 152 124 133
0.08964123576879501 -0.01162488479167223 0.13099999725818634 145 117 126
0.08994926512241364 -0.01162488479167223 0.13099999725818634 143 118 126
0.09025730192661285 -0.01162488479167223 0.13099999725818634 140 115 123
0.09056533128023148 -0.01162488479167223 0.13099999725818634 140 116 118
0.0908733680844307 -0.01162488479167223 0.13099999725818634 140 116 118
0.09118139743804932 -0.01162488479167223 0.13099999725818634 143 120 119
0.09148942679166794 -0.01162488479167223 0.13099999725818634 147 124 123
0.09179746359586716 -0.01162488479167223 0.13099999725818634 152 126 124
0.09280858933925629 -0.011713624931871891 0.13199999928474426 149 123 121
0.09311897307634354 -0.011713624931871891 0.13199999928474426 151 125 123
0.09342935681343079 -0.011713624931871891 0.13199999928474426 148 122 120
0.09373974055051804 -0.011713624931871891 0.13199999928474426 151 123 124
0.09476263076066971 -0.011802364140748978 0.13300000131130219 144 116 117
0.09507536143064499 -0.011802364140748978 0.13300000131130219 147 115 120
0.09538809955120087 -0.011802364140748978 0.13300000131130219 146 114 119
0.09768073260784149 -0.011891103349626064 0.1340000033378601 161 128 131
0.097995825111866 -0.011891103349626064 0.1340000033378601 165 132 135
0.0983109101653099 -0.011891103349626064 0.1340000033378601 164 134 144
0.09862599521875381 -0.011891103349626064 0.1340000033378601 163 133 143
0.09894108027219772 -0.011891103349626064 0.1340000033378601 155 130 142
0.09925617277622223 -0.011891103349626064 0.1340000033378601 161 136 148
0.09957125782966614 -0.011891103349626064 0.1340000033378601 157 136 147
0.09988634288311005 -0.011891103349626064 0.1340000033378601 154 133 144
0.10020142793655396 -0.011891103349626064 0.1340000033378601 157 118 125
0.10126663744449615 -0.011979843489825726 0.13500000536441803 152 113 120
0.06321895867586136 -0.012353510595858097 0.14300000667572021 255 228 216
0.06355521082878113 -0.012353510595858097 0.14300000667572021 255 237 225
0.06344466656446457 -0.01226712204515934 0.1420000046491623 255 254 246
0.06377856433391571 -0.01226712204515934 0.1420000046491623 255 255 247
0.06411246210336685 -0.01226712204515934 0.1420000046491623 254 255 249
0.06399251520633698 -0.012180734425783157 0.14100000262260437 254 255 249
0.06432405859231949 -0.012180734425783157 0.14100000262260437 254 255 249
0.0646556094288826 -0.012180734425783157 0.14100000262260437 254 255 249
0.06498715281486511 -0.012180734425783157 0.14100000262260437 254 255 249
0.06531869620084763 -0.012180734425783157 0.14100000262260437 254 255 249
0.06565024703741074 -0.012180734425783157 0.14100000262260437 254 255 249
0.06551383435726166 -0.0120943458750844 0.14000000059604645 254 255 249
0.06584303081035614 -0.0120943458750844 0.14000000059604645 255 251 249
0.06617222726345062 -0.0120943458750844 0.14000000059604645 248 243 241
0.0665014237165451 -0.0120943458750844 0.14000000059604645 230 197 210
0.06635325402021408 -0.012007957324385643 0.13899999856948853 225 192 205
0.0674983561038971 -0.01192156970500946 0.1379999965429306 255 248 233
0.06782285124063492 -0.01192156970500946 0.1379999965429306 255 252 237
0.06814733892679214 -0.01192156970500946 0.1379999965429306 254 255 243
0.06847183406352997 -0.01192156970500946 0.1379999965429306 254 255 243
0.06829780340194702 -0.011835181154310703 0.13699999451637268 254 255 249
0.06861994415521622 -0.011835181154310703 0.13699999451637268 254 255 249
0.06894208490848541 -0.011835181154310703 0.13699999451637268 254 255 249
0.06926422566175461 -0.011835181154310703 0.13699999451637268 254 255 249
0.0695863664150238 -0.011835181154310703 0.13699999451637268 254 255 249
0.069908507168293 -0.011835181154310703 0.13699999451637268 254 255 249
0.06971801817417145 -0.01174879353493452 0.13600000739097595 254 255 249
0.07003780454397202 -0.01174879353493452 0.13600000739097595 254 255 249
0.07035759091377258 -0.01174879353493452 0.13600000739097595 254 255 249
0.07067738473415375 -0.01174879353493452 0.13600000739097595 254 255 249
0.07047513872385025 -0.011662404984235764 0.13500000536441803 254 255 249
0.07079257071018219 -0.011662404984235764 0.13500000536441803 254 255 249
0.07111001014709473 -0.011662404984235764 0.13500000536441803 255 255 251
0.07089836150407791 -0.011576016433537006 0.1340000033378601 252 252 248
0.07121344655752182 -0.011576016433537006 0.1340000033378601 251 227 242
0.07152853161096573 -0.011576016433537006 0.1340000033378601 241 217 232
0.07184361666440964 -0.011576016433537006 0.1340000033378601 217 179 194
0.07215870171785355 -0.011576016433537006 0.1340000033378601 211 173 188
0.0728711485862732 -0.011489628814160824 0.13300000131130219 255 248 223
0.07318388670682907 -0.011489628814160824 0.13300000131130219 255 255 235
0.07349661737680435 -0.011489628814160824 0.13300000131130219 255 255 235
0.07380935549736023 -0.011489628814160824 0.13300000131130219 255 255 247
0.07356478273868561 -0.011403240263462067 0.13199999928474426 255 255 247
0.07387516647577286 -0.011403240263462067 0.13199999928474426 247 234 240
0.07418555021286011 -0.011403240263462067 0.13199999928474426 230 217 223
0.07449593394994736 -0.011403240263462067 0.13199999928474426 229 208 219
0.0748063176870346 -0.011403240263462067 0.13199999928474426 227 206 217
0.07454763352870941 -0.011316852644085884 0.13099999725818634 232 211 220
0.07485567033290863 -0.011316852644085884 0.13099999725818634 249 228 237
0.07516369968652725 -0.011316852644085884 0.13099999725818634 252 243 250
0.07547173649072647 -0.011316852644085884 0.13099999725818634 255 251 255
0.07577976584434509 -0.011316852644085884 0.13099999725818634 238 235 251
0.07608779519796371 -0.011316852644085884 0.13099999725818634 234 231 247
0.07639583200216293 -0.011316852644085884 0.13099999725818634 212 205 227
0.07670386135578156 -0.011316852644085884 0.13099999725818634 192 185 207
0.0764240175485611 -0.011230464093387127 0.12999999523162842 186 175 192
0.07672969996929169 -0.011230464093387127 0.12999999523162842 185 174 191
0.07703538239002228 -0.011230464093387127 0.12999999523162842 188 170 178
0.07734106481075287 -0.011230464093387127 0.12999999523162842 187 169 177
0.07764674723148346 -0.011230464093387127 0.12999999523162842 192 168 170
0.07795242220163345 -0.011230464093387127 0.12999999523162842 197 173 175
0.07825810462236404 -0.011230464093387127 0.12999999523162842 204 177 180
0.07856378704309464 -0.011230464093387127 0.12999999523162842 205 178 181
0.07886946946382523 -0.011230464093387127 0.12999999523162842 201 173 182
0.07917515188455582 -0.011230464093387127 0.12999999523162842 195 167 176
0.07948083430528641 -0.011230464093387127 0.12999999523162842 178 153 163
0.079786516726017 -0.011230464093387127 0.12999999523162842 183 158 168
0.08009219169616699 -0.011230464093387127 0.12999999523162842 164 128 130
0.08039787411689758 -0.011230464093387127 0.12999999523162842 134 98 100
0.08253764361143112 -0.011230464093387127 0.12999999523162842 189 158 160
0.08284332603216171 -0.011230464093387127 0.12999999523162842 191 160 162
0.0831490084528923 -0.011230464093387127 0.12999999523162842 180 157 165
0.0834546908736229 -0.011230464093387127 0.12999999523162842 174 151 159
0.08376036584377289 -0.011230464093387127 0.12999999523162842 172 151 160
0.08406604826450348 -0.011230464093387127 0.12999999523162842 169 148 157
0.08437173068523407 -0.011230464093387127 0.12999999523162842 164 142 146
0.08467741310596466 -0.011230464093387127 0.12999999523162842 170 148 152
0.08563680946826935 -0.011316852644085884 0.13099999725818634 181 155 153
0.08594484627246857 -0.011316852644085884 0.13099999725818634 169 143 141
0.08625287562608719 -0.011316852644085884 0.13099999725818634 165 139 135
0.08656090497970581 -0.011316852644085884 0.13099999725818634 166 140 136
0.08686894178390503 -0.011316852644085884 0.13099999725818634 169 142 147
0.08717697113752365 -0.011316852644085884 0.13099999725818634 161 134 139
0.08748500794172287 -0.011316852644085884 0.13099999725818634 155 131 148
0.08779303729534149 -0.011316852644085884 0.13099999725818634 155 131 148
0.08810107409954071 -0.011316852644085884 0.13099999725818634 154 132 148
0.08840910345315933 -0.011316852644085884 0.13099999725818634 152 130 146
0.08871713280677795 -0.011316852644085884 0.13099999725818634 146 121 131
0.08902516961097717 -0.011316852644085884 0.13099999725818634 147 122 132
0.0893331989645958 -0.011316852644085884 0.13099999725818634 137 107 117
0.08964123576879501 -0.011316852644085884 0.13099999725818634 151 121 131
0.08994926512241364 -0.011316852644085884 0.13099999725818634 150 123 128
0.09025730192661285 -0.011316852644085884 0.13099999725818634 150 123 128
0.09056533128023148 -0.011316852644085884 0.13099999725818634 152 125 130
0.0908733680844307 -0.011316852644085884 0.13099999725818634 142 115 120
0.09118139743804932 -0.011316852644085884 0.13099999725818634 142 113 117
0.09218782186508179 -0.011403240263462067 0.13199999928474426 145 116 120
0.09249820560216904 -0.011403240263462067 0.13199999928474426 145 114 116
0.09280858933925629 -0.011403240263462067 0.13199999928474426 144 113 115
0.09382442384958267 -0.011489628814160824 0.13300000131130219 141 110 110
0.09413715451955795 -0.011489628814160824 0.13300000131130219 138 107 107
0.09516004472970963 -0.011576016433537006 0.1340000033378601 141 110 110
0.09547512978315353 -0.011576016433537006 0.1340000033378601 140 109 109
0.09579021483659744 -0.011576016433537006 0.1340000033378601 145 112 113
0.09610529989004135 -0.011576016433537006 0.1340000033378601 144 111 112
0.09768073260784149 -0.011576016433537006 0.1340000033378601 167 129 133
0.097995825111866 -0.011576016433537006 0.1340000033378601 166 128 132
0.0983109101653099 -0.011576016433537006 0.1340000033378601 163 128 140
0.09862599521875381 -0.011576016433537006 0.1340000033378601 165 130 142
0.09894108027219772 -0.011576016433537006 0.1340000033378601 160 130 142
0.09925617277622223 -0.011576016433537006 0.1340000033378601 158 128 140
0.09957125782966614 -0.011576016433537006 0.1340000033378601 159 134 144
0.09988634288311005 -0.011576016433537006 0.1340000033378601 157 132 142
0.06355521082878113 -0.012017261236906052 0.14300000667572021 255 244 232
0.06344466656446457 -0.011933224275708199 0.1420000046491623 255 255 245
0.06377856433391571 -0.011933224275708199 0.1420000046491623 255 255 245
0.06411246210336685 -0.011933224275708199 0.1420000046491623 254 255 249
0.06399251520633698 -0.011849187314510345 0.14100000262260437 254 255 249
0.06432405859231949 -0.011849187314510345 0.14100000262260437 254 255 249
0.0646556094288826 -0.011849187314510345 0.14100000262260437 254 255 249
0.06498715281486511 -0.011849187314510345 0.14100000262260437 254 255 249
0.06531869620084763 -0.011849187314510345 0.14100000262260437 254 255 249
0.06565024703741074 -0.011849187314510345 0.14100000262260437 254 255 249
0.06551383435726166 -0.011765150353312492 0.14000000059604645 254 255 249
0.06584303081035614 -0.011765150353312492 0.14000000059604645 255 252 253
0.06617222726345062 -0.011765150353312492 0.14000000059604645 254 250 251
0.0665014237165451 -0.011765150353312492 0.14000000059604645 237 209 222
0.06635325402021408 -0.011681114323437214 0.13899999856948853 219 191 204
0.0674983561038971 -0.01159707736223936 0.1379999965429306 255 239 227
0.06782285124063492 -0.01159707736223936 0.1379999965429306 255 249 237
0.06814733892679214 -0.01159707736223936 0.1379999965429306 255 255 243
0.06847183406352997 -0.01159707736223936 0.1379999965429306 255 255 243
0.06829780340194702 -0.011513040401041508 0.13699999451637268 254 255 249
0.06861994415521622 -0.011513040401041508 0.13699999451637268 254 255 249
0.06894208490848541 -0.011513040401041508 0.13699999451637268 254 255 249
0.06926422566175461 -0.011513040401041508 0.13699999451637268 254 255 249
0.0695863664150238 -0.011513040401041508 0.13699999451637268 254 255 249
0.069908507168293 -0.011513040401041508 0.13699999451637268 254 255 249
0.0702306479215622 -0.011513040401041508 0.13699999451637268 254 255 249
0.07003780454397202 -0.011429003439843655 0.13600000739097595 254 255 249
0.07035759091377258 -0.011429003439843655 0.13600000739097595 254 255 249
0.07067738473415375 -0.011429003439843655 0.13600000739097595 254 255 249
0.07099717110395432 -0.011429003439843655 0.13600000739097595 254 255 251
0.07079257071018219 -0.011344966478645802 0.13500000536441803 254 255 251
0.07111001014709473 -0.011344966478645802 0.13500000536441803 255 250 255
0.07142744958400726 -0.011344966478645802 0.13500000536441803 253 242 248
0.07121344655752182 -0.011260930448770523 0.1340000033378601 255 227 240
0.07152853161096573 -0.011260930448770523 0.1340000033378601 229 196 209
0.07318388670682907 -0.01117689348757267 0.13300000131130219 255 252 231
0.07349661737680435 -0.01117689348757267 0.13300000131130219 255 252 231
0.07380935549736023 -0.01117689348757267 0.13300000131130219 255 252 244
0.07356478273868561 -0.011092856526374817 0.13199999928474426 255 249 241
0.07387516647577286 -0.011092856526374817 0.13199999928474426 255 240 247
0.07418555021286011 -0.011092856526374817 0.13199999928474426 246 230 237
0.07449593394994736 -0.011092856526374817 0.13199999928474426 234 216 226
0.0748063176870346 -0.011092856526374817 0.13199999928474426 234 216 226
0.07511670142412186 -0.011092856526374817 0.13199999928474426 228 210 218
0.07485567033290863 -0.011008819565176964 0.13099999725818634 244 226 234
0.07516369968652725 -0.011008819565176964 0.13099999725818634 249 235 246
0.07547173649072647 -0.011008819565176964 0.13099999725818634 255 241 252
0.07577976584434509 -0.011008819565176964 0.13099999725818634 219 213 228
0.07608779519796371 -0.011008819565176964 0.13099999725818634 214 208 223
0.07639583200216293 -0.011008819565176964 0.13099999725818634 206 199 219
0.07670386135578156 -0.011008819565176964 0.13099999725818634 200 193 213
0.0764240175485611 -0.01092478260397911 0.12999999523162842 199 191 207
0.07672969996929169 -0.01092478260397911 0.12999999523162842 179 171 187
0.07703538239002228 -0.01092478260397911 0.12999999523162842 180 167 171
0.07734106481075287 -0.01092478260397911 0.12999999523162842 176 163 167
0.07764674723148346 -0.01092478260397911 0.12999999523162842 180 160 161
0.07795242220163345 -0.01092478260397911 0.12999999523162842 186 166 167
0.07825810462236404 -0.01092478260397911 0.12999999523162842 186 164 166
0.07856378704309464 -0.01092478260397911 0.12999999523162842 186 164 166
0.07886946946382523 -0.01092478260397911 0.12999999523162842 187 160 163
0.07917515188455582 -0.01092478260397911 0.12999999523162842 177 150 153
0.07948083430528641 -0.01092478260397911 0.12999999523162842 180 143 152
0.079786516726017 -0.01092478260397911 0.12999999523162842 177 140 149
0.0831490084528923 -0.01092478260397911 0.12999999523162842 183 150 153
0.0834546908736229 -0.01092478260397911 0.12999999523162842 176 143 146
0.08376036584377289 -0.01092478260397911 0.12999999523162842 173 144 148
0.08406604826450348 -0.01092478260397911 0.12999999523162842 172 143 147
0.08437173068523407 -0.01092478260397911 0.12999999523162842 165 137 138
0.08532878011465073 -0.011008819565176964 0.13099999725818634 159 131 132
0.08563680946826935 -0.011008819565176964 0.13099999725818634 165 139 135
0.08594484627246857 -0.011008819565176964 0.13099999725818634 166 140 136
0.08625287562608719 -0.011008819565176964 0.13099999725818634 165 139 135
0.08656090497970581 -0.011008819565176964 0.13099999725818634 161 135 131
0.08686894178390503 -0.011008819565176964 0.13099999725818634 160 131 135
0.08717697113752365 -0.011008819565176964 0.13099999725818634 160 131 135
0.08748500794172287 -0.011008819565176964 0.13099999725818634 150 122 135
0.08779303729534149 -0.011008819565176964 0.13099999725818634 159 131 144
0.08810107409954071 -0.011008819565176964 0.13099999725818634 145 119 134
0.08840910345315933 -0.011008819565176964 0.13099999725818634 145 119 134
0.08871713280677795 -0.011008819565176964 0.13099999725818634 150 122 133
0.08902516961097717 -0.011008819565176964 0.13099999725818634 142 114 125
0.0893331989645958 -0.011008819565176964 0.13099999725818634 144 106 119
0.08964123576879501 -0.011008819565176964 0.13099999725818634 162 124 137
0.08994926512241364 -0.011008819565176964 0.13099999725818634 155 121 129
0.09025730192661285 -0.011008819565176964 0.13099999725818634 159 125 133
0.09056533128023148 -0.011008819565176964 0.13099999725818634 160 125 137
0.09156705439090729 -0.011092856526374817 0.13199999928474426 148 113 125
0.09187743812799454 -0.011092856526374817 0.13199999928474426 144 110 118
0.09218782186508179 -0.011092856526374817 0.13199999928474426 146 112 120
0.09249820560216904 -0.011092856526374817 0.13199999928474426 142 106 110
0.0935116857290268 -0.01117689348757267 0.13300000131130219 135 99 103
0.0965050682425499 -0.011344966478645802 0.13500000536441803 145 107 107
0.09682250767946243 -0.011344966478645802 0.13500000536441803 142 104 104
0.0983109101653099 -0.011260930448770523 0.1340000033378601 167 133 139
0.09862599521875381 -0.011260930448770523 0.1340000033378601 170 136 142
0.09894108027219772 -0.011260930448770523 0.1340000033378601 169 139 149
0.09925617277622223 -0.011260930448770523 0.1340000033378601 164 134 144
0.10031432658433914 -0.011344966478645802 0.13500000536441803 163 138 148
0.10063176602125168 -0.011344966478645802 0.13500000536441803 161 136 146
0.06321895867586136 -0.011681011877954006 0.14300000667572021 248 222 211
0.06355521082878113 -0.011681011877954006 0.14300000667572021 255 247 236
0.06344466656446457 -0.011599326506257057 0.1420000046491623 255 255 247
0.06377856433391571 -0.011599326506257057 0.1420000046491623 255 255 247
0.06411246210336685 -0.011599326506257057 0.1420000046491623 254 255 249
0.06399251520633698 -0.011517641134560108 0.14100000262260437 254 255 249
0.06432405859231949 -0.011517641134560108 0.14100000262260437 254 255 249
0.0646556094288826 -0.011517641134560108 0.14100000262260437 254 255 249
0.06498715281486511 -0.011517641134560108 0.14100000262260437 252 253 247
0.06531869620084763 -0.011517641134560108 0.14100000262260437 253 254 248
0.06565024703741074 -0.011517641134560108 0.14100000262260437 254 255 249
0.06551383435726166 -0.01143595576286316 0.14000000059604645 254 255 249
0.06584303081035614 -0.01143595576286316 0.14000000059604645 255 252 255
0.06617222726345062 -0.01143595576286316 0.14000000059604645 249 243 247
0.0665014237165451 -0.01143595576286316 0.14000000059604645 234 204 216
0.06635325402021408 -0.01135427039116621 0.13899999856948853 214 184 196
0.06782285124063492 -0.011272585019469261 0.1379999965429306 255 244 232
0.06814733892679214 -0.011272585019469261 0.1379999965429306 255 255 241
0.06847183406352997 -0.011272585019469261 0.1379999965429306 255 255 241
0.06879632920026779 -0.011272585019469261 0.1379999965429306 254 255 247
0.06861994415521622 -0.011190899647772312 0.13699999451637268 254 255 247
0.06894208490848541 -0.011190899647772312 0.13699999451637268 254 255 249
0.06926422566175461 -0.011190899647772312 0.13699999451637268 254 255 249
0.0695863664150238 -0.011190899647772312 0.13699999451637268 254 255 249
0.069908507168293 -0.011190899647772312 0.13699999451637268 254 255 249
0.0702306479215622 -0.011190899647772312 0.13699999451637268 254 255 249
0.07003780454397202 -0.011109214276075363 0.13600000739097595 254 255 249
0.07035759091377258 -0.011109214276075363 0.13600000739097595 254 255 251
0.07067738473415375 -0.011109214276075363 0.13600000739097595 254 255 251
0.07099717110395432 -0.011109214276075363 0.13600000739097595 255 252 254
0.07079257071018219 -0.011027528904378414 0.13500000536441803 255 251 253
0.07111001014709473 -0.011027528904378414 0.13500000536441803 255 238 245
0.07142744958400726 -0.011027528904378414 0.13500000536441803 242 221 228
0.07349661737680435 -0.010864158160984516 0.13300000131130219 255 240 231
0.07380935549736023 -0.010864158160984516 0.13300000131130219 255 247 242
0.07356478273868561 -0.010782472789287567 0.13199999928474426 255 243 238
0.07387516647577286 -0.010782472789287567 0.13199999928474426 255 234 242
0.07418555021286011 -0.010782472789287567 0.13199999928474426 237 214 222
0.07449593394994736 -0.010782472789287567 0.13199999928474426 226 199 202
0.0748063176870346 -0.010782472789287567 0.13199999928474426 229 202 205
0.07511670142412186 -0.010782472789287567 0.13199999928474426 209 185 187
0.07485567033290863 -0.010700787417590618 0.13099999725818634 211 187 189
0.07516369968652725 -0.010700787417590618 0.13099999725818634 219 197 201
0.07547173649072647 -0.010700787417590618 0.13099999725818634 230 208 212
0.07577976584434509 -0.010700787417590618 0.13099999725818634 209 191 201
0.07608779519796371 -0.010700787417590618 0.13099999725818634 202 184 194
0.07639583200216293 -0.010700787417590618 0.13099999725818634 196 179 195
0.0761183351278305 -0.010619102045893669 0.12999999523162842 180 163 179
0.0764240175485611 -0.010619102045893669 0.12999999523162842 194 176 186
0.07672969996929169 -0.010619102045893669 0.12999999523162842 187 169 179
0.07703538239002228 -0.010619102045893669 0.12999999523162842 186 166 167
0.07734106481075287 -0.010619102045893669 0.12999999523162842 180 160 161
0.07764674723148346 -0.010619102045893669 0.12999999523162842 175 154 153
0.07795242220163345 -0.010619102045893669 0.12999999523162842 176 155 154
0.07765612006187439 -0.01053741667419672 0.1289999932050705 188 162 162
0.07795944809913635 -0.01053741667419672 0.1289999932050705 185 159 159
0.08625287562608719 -0.010700787417590618 0.13099999725818634 159 127 121
0.08656090497970581 -0.010700787417590618 0.13099999725818634 154 122 116
0.08686894178390503 -0.010700787417590618 0.13099999725818634 151 115 117
0.08717697113752365 -0.010700787417590618 0.13099999725818634 153 117 119
0.08748500794172287 -0.010700787417590618 0.13099999725818634 149 111 124
0.08779303729534149 -0.010700787417590618 0.13099999725818634 144 106 119
0.08810107409954071 -0.010700787417590618 0.13099999725818634 135 100 112
0.08840910345315933 -0.010700787417590618 0.13099999725818634 141 106 118
0.08871713280677795 -0.010700787417590618 0.13099999725818634 139 102 111
0.08902516961097717 -0.010700787417590618 0.13099999725818634 146 109 118
0.09967944771051407 -0.011027528904378414 0.13500000536441803 166 134 139
0.0999968871474266 -0.011027528904378414 0.13500000536441803 164 132 137
0.10031432658433914 -0.011027528904378414 0.13500000536441803 162 135 140
0.10063176602125168 -0.011027528904378414 0.13500000536441803 161 134 139
0.06321895867586136 -0.01134476251900196 0.14300000667572021 247 223 211
0.06355521082878113 -0.01134476251900196 0.14300000667572021 255 246 234
0.06344466656446457 -0.011265428736805916 0.1420000046491623 255 255 247
0.06377856433391571 -0.011265428736805916 0.1420000046491623 255 255 247
0.06411246210336685 -0.011265428736805916 0.1420000046491623 254 255 249
0.06399251520633698 -0.011186094023287296 0.14100000262260437 254 255 249
0.06432405859231949 -0.011186094023287296 0.14100000262260437 254 255 249
0.0646556094288826 -0.011186094023287296 0.14100000262260437 254 255 249
0.06498715281486511 -0.011186094023287296 0.14100000262260437 252 253 247
0.06531869620084763 -0.011186094023287296 0.14100000262260437 253 254 248
0.06565024703741074 -0.011186094023287296 0.14100000262260437 253 253 253
0.06551383435726166 -0.011106760241091251 0.14000000059604645 254 254 254
0.06584303081035614 -0.011106760241091251 0.14000000059604645 255 246 255
0.06617222726345062 -0.011106760241091251 0.14000000059604645 215 203 214
0.0665014237165451 -0.011106760241091251 0.14000000059604645 211 173 188
0.06635325402021408 -0.011027426458895206 0.13899999856948853 203 165 180
0.06782285124063492 -0.010948092676699162 0.1379999965429306 255 233 217
0.06814733892679214 -0.010948092676699162 0.1379999965429306 255 255 233
0.06847183406352997 -0.010948092676699162 0.1379999965429306 255 255 233
0.06879632920026779 -0.010948092676699162 0.1379999965429306 254 255 243
0.06861994415521622 -0.010868758894503117 0.13699999451637268 254 255 243
0.06894208490848541 -0.010868758894503117 0.13699999451637268 254 255 247
0.06926422566175461 -0.010868758894503117 0.13699999451637268 254 255 247
0.0695863664150238 -0.010868758894503117 0.13699999451637268 254 255 247
0.069908507168293 -0.010868758894503117 0.13699999451637268 254 255 247
0.0702306479215622 -0.010868758894503117 0.13699999451637268 254 255 249
0.07055278867483139 -0.010868758894503117 0.13699999451637268 254 255 249
0.07035759091377258 -0.010789424180984497 0.13600000739097595 255 251 254
0.07067738473415375 -0.010789424180984497 0.13600000739097595 255 249 252
0.07099717110395432 -0.010789424180984497 0.13600000739097595 252 234 242
0.07079257071018219 -0.010710090398788452 0.13500000536441803 229 211 219
0.07111001014709473 -0.010710090398788452 0.13500000536441803 234 197 204
0.07142744958400726 -0.010710090398788452 0.13500000536441803 211 174 181
0.07577976584434509 -0.010392754338681698 0.13099999725818634 198 160 164
0.07608779519796371 -0.010392754338681698 0.13099999725818634 208 170 174
0.07703538239002228 -0.010313420556485653 0.12999999523162842 172 134 134
0.07734106481075287 -0.010313420556485653 0.12999999523162842 170 132 132
0.07764674723148346 -0.010313420556485653 0.12999999523162842 166 128 128
0.07795242220163345 -0.010313420556485653 0.12999999523162842 158 120 120
0.09967944771051407 -0.010710090398788452 0.13500000536441803 162 129 132
0.0999968871474266 -0.010710090398788452 0.13500000536441803 158 125 128
0.10031432658433914 -0.010710090398788452 0.13500000536441803 154 120 128
0.10063176602125168 -0.010710090398788452 0.13500000536441803 155 121 129
0.06321895867586136 -0.011008513160049915 0.14300000667572021 255 239 229
0.06355521082878113 -0.011008513160049915 0.14300000667572021 255 246 236
0.0638914629817009 -0.011008513160049915 0.14300000667572021 255 255 245
0.06377856433391571 -0.010931530967354774 0.1420000046491623 255 255 245
0.06411246210336685 -0.010931530967354774 0.1420000046491623 254 255 249
