0.09464336186647415 -0.012742921710014343 0.15600000321865082 161 94 106
0.09561922401189804 -0.012824607081711292 0.15700000524520874 157 90 102
0.055431801825761795 -0.013169444166123867 0.16599999368190765 251 208 212
0.055822134017944336 -0.013169444166123867 0.16599999368190765 255 241 245
0.05587383359670639 -0.013090110383927822 0.16500000655651093 255 255 249
0.0562618151307106 -0.013090110383927822 0.16500000655651093 255 255 249
0.05664979666471481 -0.013090110383927822 0.16500000655651093 254 255 249
0.05669208988547325 -0.013010776601731777 0.164000004529953 254 255 249
0.05707772076129913 -0.013010776601731777 0.164000004529953 254 255 251
0.05711296200752258 -0.012931442819535732 0.16300000250339508 254 255 251
0.05749623849987984 -0.012931442819535732 0.16300000250339508 254 255 251
0.05787951871752739 -0.012931442819535732 0.16300000250339508 254 255 251
0.05790535360574722 -0.012852108106017113 0.16200000047683716 255 255 251
0.05828627943992615 -0.012852108106017113 0.16200000047683716 255 255 251
0.05866720527410507 -0.012852108106017113 0.16200000047683716 255 230 230
0.05868363752961159 -0.012772774323821068 0.16099999845027924 243 217 217
0.05906221270561218 -0.012772774323821068 0.16099999845027924 249 201 197
0.05944078415632248 -0.012772774323821068 0.16099999845027924 217 169 165
0.059819359332323074 -0.012772774323821068 0.16099999845027924 199 168 157
0.06019793450832367 -0.012772774323821068 0.16099999845027924 255 246 235
0.060576509684324265 -0.012772774323821068 0.16099999845027924 255 255 243
0.06095508486032486 -0.012772774323821068 0.16099999845027924 255 255 243
0.061333656311035156 -0.012772774323821068 0.16099999845027924 254 255 249
0.06171223148703575 -0.012772774323821068 0.16099999845027924 254 255 249
0.062090806663036346 -0.012772774323821068 0.16099999845027924 254 255 249
0.06208137422800064 -0.012693440541625023 0.1599999964237213 254 255 249
0.06245759502053261 -0.012693440541625023 0.1599999964237213 254 255 249
0.06283381581306458 -0.012693440541625023 0.1599999964237213 254 255 249
0.06281498074531555 -0.012614106759428978 0.1589999943971634 254 255 249
0.06279143691062927 -0.012534772045910358 0.15800000727176666 254 255 249
0.06316296011209488 -0.012534772045910358 0.15800000727176666 254 255 249
0.06313236057758331 -0.012455438263714314 0.15700000524520874 254 255 249
0.06350152939558029 -0.012455438263714314 0.15700000524520874 255 250 245
0.06387069821357727 -0.012455438263714314 0.15700000524520874 255 242 237
0.06383069604635239 -0.012376104481518269 0.15600000321865082 231 193 184
0.06419751048088074 -0.012376104481518269 0.15600000321865082 207 169 160
0.06456433236598969 -0.012376104481518269 0.15600000321865082 182 137 114
0.06493114680051804 -0.012376104481518269 0.15600000321865082 228 183 160
0.0648793876171112 -0.012296770699322224 0.1550000011920929 255 247 220
0.06524385511875153 -0.012296770699322224 0.1550000011920929 255 252 225
0.06560832262039185 -0.012296770699322224 0.1550000011920929 255 255 239
0.06597279012203217 -0.012296770699322224 0.1550000011920929 255 255 239
0.06633725017309189 -0.012296770699322224 0.1550000011920929 254 255 247
0.06627138704061508 -0.012217436917126179 0.15399999916553497 254 255 247
0.06663350015878677 -0.012217436917126179 0.15399999916553497 255 255 247
0.06699561327695847 -0.012217436917126179 0.15399999916553497 255 255 247
0.06692034006118774 -0.01213810220360756 0.15299999713897705 255 255 247
0.0672801062464714 -0.01213810220360756 0.15299999713897705 255 255 247
0.06763986498117447 -0.01213810220360756 0.15299999713897705 255 248 253
0.06755518913269043 -0.012058768421411514 0.15199999511241913 255 245 250
0.06791260093450546 -0.012058768421411514 0.15199999511241913 255 229 234
0.0682700127363205 -0.012058768421411514 0.15199999511241913 230 198 203
0.06862742453813553 -0.012058768421411514 0.15199999511241913 218 181 188
0.06898483633995056 -0.012058768421411514 0.15199999511241913 224 187 194
0.06888604909181595 -0.01197943463921547 0.1509999930858612 212 175 184
0.06924111396074295 -0.01197943463921547 0.1509999930858612 215 178 187
0.06959617137908936 -0.01197943463921547 0.1509999930858612 211 176 192
0.06995122879743576 -0.01197943463921547 0.1509999930858612 217 182 198
0.07030629366636276 -0.01197943463921547 0.1509999930858612 203 165 180
0.07066135108470917 -0.01197943463921547 0.1509999930858612 192 154 169
0.07101641595363617 -0.01197943463921547 0.1509999930858612 198 146 153
0.07137147337198257 -0.01197943463921547 0.1509999930858612 183 131 138
0.07172653079032898 -0.01197943463921547 0.1509999930858612 163 90 91
0.07208159565925598 -0.01197943463921547 0.1509999930858612 146 73 74
0.0738568976521492 -0.01197943463921547 0.1509999930858612 228 175 171
0.0742119550704956 -0.01197943463921547 0.1509999930858612 207 154 150
0.07456701993942261 -0.01197943463921547 0.1509999930858612 193 152 160
0.07492207735776901 -0.01197943463921547 0.1509999930858612 185 144 152
0.07527714222669601 -0.01197943463921547 0.1509999930858612 176 142 148
0.07563219964504242 -0.01197943463921547 0.1509999930858612 174 140 146
0.07649048417806625 -0.012058768421411514 0.15199999511241913 167 139 140
0.07684789597988129 -0.012058768421411514 0.15199999511241913 164 136 137
0.07720530778169632 -0.012058768421411514 0.15199999511241913 165 139 139
0.07756271958351135 -0.012058768421411514 0.15199999511241913 168 142 142
0.07792013138532639 -0.012058768421411514 0.15199999511241913 169 137 144
0.07827754318714142 -0.012058768421411514 0.15199999511241913 158 126 133
0.07863495498895645 -0.012058768421411514 0.15199999511241913 158 121 130
0.07899236679077148 -0.012058768421411514 0.15199999511241913 157 120 129
0.07934977859258652 -0.012058768421411514 0.15199999511241913 161 124 133
0.07970719039440155 -0.012058768421411514 0.15199999511241913 160 123 132
0.08006460964679718 -0.012058768421411514 0.15199999511241913 158 121 128
0.08042202144861221 -0.012058768421411514 0.15199999511241913 158 121 128
0.08077943325042725 -0.012058768421411514 0.15199999511241913 152 104 112
0.08113684505224228 -0.012058768421411514 0.15199999511241913 121 73 81
0.08149425685405731 -0.012058768421411514 0.15199999511241913 118 67 67
0.08185166865587234 -0.012058768421411514 0.15199999511241913 116 65 65
0.08220908045768738 -0.012058768421411514 0.15199999511241913 127 72 71
0.08310969173908234 -0.01213810220360756 0.15299999713897705 130 75 74
0.08401500433683395 -0.012217436917126179 0.15399999916553497 128 74 66
0.08492502570152283 -0.012296770699322224 0.1550000011920929 147 93 85
0.08528948575258255 -0.012296770699322224 0.1550000011920929 155 112 107
0.08620656281709671 -0.012376104481518269 0.15600000321865082 157 114 109
0.08657337725162506 -0.012376104481518269 0.15600000321865082 153 115 117
0.08749750256538391 -0.012455438263714314 0.15700000524520874 152 114 116
0.08786667138338089 -0.012455438263714314 0.15700000524520874 157 116 124
0.08879785239696503 -0.012534772045910358 0.15800000727176666 156 115 123
0.08916937559843063 -0.012534772045910358 0.15800000727176666 157 106 119
0.09010761231184006 -0.012614106759428978 0.1589999943971634 150 99 112
0.0904814824461937 -0.012614106759428978 0.1589999943971634 152 100 105
0.09085535258054733 -0.012614106759428978 0.1589999943971634 141 89 94
0.09122922271490097 -0.012614106759428978 0.1589999943971634 146 91 88
0.09160309284925461 -0.012614106759428978 0.1589999943971634 165 110 107
0.09197697043418884 -0.012614106759428978 0.1589999943971634 182 138 138
0.09177001565694809 -0.012534772045910358 0.15800000727176666 177 133 133
0.0921415388584137 -0.012534772045910358 0.15800000727176666 178 152 148
0.0925130546092987 -0.012534772045910358 0.15800000727176666 176 150 146
0.09288457781076431 -0.012534772045910358 0.15800000727176666 169 150 144
0.09325610101222992 -0.012534772045910358 0.15800000727176666 163 144 138
0.09303503483533859 -0.012455438263714314 0.15700000524520874 160 139 136
0.09340420365333557 -0.012455438263714314 0.15700000524520874 153 132 129
0.09377337247133255 -0.012455438263714314 0.15700000524520874 153 119 127
0.09414254128932953 -0.012455438263714314 0.15700000524520874 145 111 119
0.09451171010732651 -0.012455438263714314 0.15700000524520874 154 103 116
0.09488088637590408 -0.012455438263714314 0.15700000524520874 152 101 114
0.09525005519390106 -0.012455438263714314 0.15700000524520874 159 95 106
0.055431801825761795 -0.0127791129052639 0.16599999368190765 232 189 191
0.055822134017944336 -0.0127791129052639 0.16599999368190765 255 241 243
0.05587383359670639 -0.01270213071256876 0.16500000655651093 255 255 247
0.0562618151307106 -0.01270213071256876 0.16500000655651093 255 255 247
0.05664979666471481 -0.01270213071256876 0.16500000655651093 254 255 249
0.05669208988547325 -0.012625147588551044 0.164000004529953 254 255 249
0.05707772076129913 -0.012625147588551044 0.164000004529953 254 255 249
0.05711296200752258 -0.012548165395855904 0.16300000250339508 254 255 249
0.05749623849987984 -0.012548165395855904 0.16300000250339508 254 255 251
0.05787951871752739 -0.012548165395855904 0.16300000250339508 254 255 251
0.05790535360574722 -0.012471182271838188 0.16200000047683716 255 255 251
0.05828627943992615 -0.012471182271838188 0.16200000047683716 255 255 251
0.05866720527410507 -0.012471182271838188 0.16200000047683716 248 215 216
0.05868363752961159 -0.012394200079143047 0.16099999845027924 232 199 200
0.05906221270561218 -0.012394200079143047 0.16099999845027924 205 145 145
0.05944078415632248 -0.012394200079143047 0.16099999845027924 178 118 118
0.059819359332323074 -0.012394200079143047 0.16099999845027924 177 129 123
0.06019793450832367 -0.012394200079143047 0.16099999845027924 255 229 223
0.060576509684324265 -0.012394200079143047 0.16099999845027924 255 254 241
0.06095508486032486 -0.012394200079143047 0.16099999845027924 255 254 241
0.061333656311035156 -0.012394200079143047 0.16099999845027924 254 255 245
0.06171223148703575 -0.012394200079143047 0.16099999845027924 254 255 245
0.062090806663036346 -0.012394200079143047 0.16099999845027924 254 255 247
0.06208137422800064 -0.012317217886447906 0.1599999964237213 254 255 247
0.06245759502053261 -0.012317217886447906 0.1599999964237213 254 255 249
0.06283381581306458 -0.012317217886447906 0.1599999964237213 254 255 249
0.06281498074531555 -0.012240234762430191 0.1589999943971634 254 255 249
0.06279143691062927 -0.01216325256973505 0.15800000727176666 254 255 249
0.06316296011209488 -0.01216325256973505 0.15800000727176666 255 252 247
0.06313236057758331 -0.012086269445717335 0.15700000524520874 255 250 245
0.06350152939558029 -0.012086269445717335 0.15700000524520874 255 234 236
0.06387069821357727 -0.012086269445717335 0.15700000524520874 229 191 193
0.06383069604635239 -0.012009287253022194 0.15600000321865082 212 147 145
0.06419751048088074 -0.012009287253022194 0.15600000321865082 181 116 114
0.06529796868562698 -0.012009287253022194 0.15600000321865082 211 160 146
0.06524385511875153 -0.011932304129004478 0.1550000011920929 255 231 217
0.06560832262039185 -0.011932304129004478 0.1550000011920929 255 248 237
0.06597279012203217 -0.011932304129004478 0.1550000011920929 255 247 236
0.06633725017309189 -0.011932304129004478 0.1550000011920929 255 248 238
0.06627138704061508 -0.011855321936309338 0.15399999916553497 255 246 236
0.06663350015878677 -0.011855321936309338 0.15399999916553497 255 239 235
0.06699561327695847 -0.011855321936309338 0.15399999916553497 254 235 231
0.06692034006118774 -0.011778338812291622 0.15299999713897705 255 237 233
0.0672801062464714 -0.011778338812291622 0.15299999713897705 255 237 233
0.0671977773308754 -0.011701356619596481 0.15199999511241913 255 218 225
0.06755518913269043 -0.011701356619596481 0.15199999511241913 234 197 204
0.06791260093450546 -0.011701356619596481 0.15199999511241913 234 188 198
0.0682700127363205 -0.011701356619596481 0.15199999511241913 224 178 188
0.06862742453813553 -0.011701356619596481 0.15199999511241913 214 168 178
0.06853099167346954 -0.01162437442690134 0.1509999930858612 216 170 180
0.06888604909181595 -0.01162437442690134 0.1509999930858612 212 168 177
0.06924111396074295 -0.01162437442690134 0.1509999930858612 212 168 177
0.06959617137908936 -0.01162437442690134 0.1509999930858612 211 167 178
0.06995122879743576 -0.01162437442690134 0.1509999930858612 206 162 173
0.07030629366636276 -0.01162437442690134 0.1509999930858612 203 145 161
0.07066135108470917 -0.01162437442690134 0.1509999930858612 196 138 154
0.07101641595363617 -0.01162437442690134 0.1509999930858612 194 119 129
0.07137147337198257 -0.01162437442690134 0.1509999930858612 173 98 108
0.07456701993942261 -0.01162437442690134 0.1509999930858612 194 134 134
0.07492207735776901 -0.01162437442690134 0.1509999930858612 193 133 133
0.07527714222669601 -0.01162437442690134 0.1509999930858612 179 129 133
0.07563219964504242 -0.01162437442690134 0.1509999930858612 178 128 132
0.07649048417806625 -0.011701356619596481 0.15199999511241913 175 135 136
0.07684789597988129 -0.011701356619596481 0.15199999511241913 175 135 136
0.07720530778169632 -0.011701356619596481 0.15199999511241913 171 133 135
0.07756271958351135 -0.011701356619596481 0.15199999511241913 167 129 131
0.07792013138532639 -0.011701356619596481 0.15199999511241913 170 124 134
0.07827754318714142 -0.011701356619596481 0.15199999511241913 163 117 127
0.07863495498895645 -0.011701356619596481 0.15199999511241913 152 99 111
0.07899236679077148 -0.011701356619596481 0.15199999511241913 154 101 113
0.07934977859258652 -0.011701356619596481 0.15199999511241913 159 107 114
0.07970719039440155 -0.011701356619596481 0.15199999511241913 145 93 100
0.08006460964679718 -0.011701356619596481 0.15199999511241913 141 82 87
0.08042202144861221 -0.011701356619596481 0.15199999511241913 127 68 73
0.08077943325042725 -0.011701356619596481 0.15199999511241913 114 49 47
0.08113684505224228 -0.011701356619596481 0.15199999511241913 105 40 38
0.08149425685405731 -0.011701356619596481 0.15199999511241913 120 54 48
0.08185166865587234 -0.011701356619596481 0.15199999511241913 127 61 55
0.08220908045768738 -0.011701356619596481 0.15199999511241913 137 79 67
0.08310969173908234 -0.011778338812291622 0.15299999713897705 150 92 80
0.08401500433683395 -0.011855321936309338 0.15399999916553497 145 89 75
0.08492502570152283 -0.011932304129004478 0.1550000011920929 144 88 74
0.08528948575258255 -0.011932304129004478 0.1550000011920929 160 112 104
0.08620656281709671 -0.012009287253022194 0.15600000321865082 173 125 117
0.08657337725162506 -0.012009287253022194 0.15600000321865082 166 123 125
0.08749750256538391 -0.012086269445717335 0.15700000524520874 163 120 122
0.08786667138338089 -0.012086269445717335 0.15700000524520874 169 126 132
0.08879785239696503 -0.01216325256973505 0.15800000727176666 160 117 123
0.08916937559843063 -0.01216325256973505 0.15800000727176666 169 117 126
0.09010761231184006 -0.012240234762430191 0.1589999943971634 151 99 108
0.09105055034160614 -0.012317217886447906 0.1599999964237213 151 93 91
0.09142676740884781 -0.012317217886447906 0.1599999964237213 145 87 85
0.09180299192667007 -0.012317217886447906 0.1599999964237213 150 93 86
0.09217921644449234 -0.012317217886447906 0.1599999964237213 151 94 87
0.0925554409623146 -0.012317217886447906 0.1599999964237213 144 96 92
0.09293166548013687 -0.012317217886447906 0.1599999964237213 175 127 123
0.09330788254737854 -0.012317217886447906 0.1599999964237213 186 150 150
0.09309858083724976 -0.012240234762430191 0.1589999943971634 184 148 148
0.09347245842218399 -0.012240234762430191 0.1589999943971634 173 152 147
0.09384632855653763 -0.012240234762430191 0.1589999943971634 165 144 139
0.09422019869089127 -0.012240234762430191 0.1589999943971634 162 139 134
0.09399913996458054 -0.01216325256973505 0.15800000727176666 154 131 126
0.09437065571546555 -0.01216325256973505 0.15800000727176666 157 118 125
0.09474217891693115 -0.01216325256973505 0.15800000727176666 155 116 123
0.05444665253162384 -0.012612675316631794 0.16899999976158142 255 177 178
0.054519519209861755 -0.012538043782114983 0.1679999977350235 255 182 184
0.05458768084645271 -0.012463413178920746 0.16699999570846558 255 178 180
0.055431801825761795 -0.012388781644403934 0.16599999368190765 228 181 180
0.055822134017944336 -0.012388781644403934 0.16599999368190765 255 240 239
0.05621246621012688 -0.012388781644403934 0.16599999368190765 255 254 247
0.0562618151307106 -0.012314150109887123 0.16500000655651093 255 254 247
0.05664979666471481 -0.012314150109887123 0.16500000655651093 254 255 249
0.05669208988547325 -0.012239519506692886 0.164000004529953 254 255 249
0.05707772076129913 -0.012239519506692886 0.164000004529953 254 255 249
0.05711296200752258 -0.012164887972176075 0.16300000250339508 254 255 249
0.05749623849987984 -0.012164887972176075 0.16300000250339508 254 255 249
0.05787951871752739 -0.012164887972176075 0.16300000250339508 254 255 249
0.058262795209884644 -0.012164887972176075 0.16300000250339508 255 252 249
0.05828627943992615 -0.012090256437659264 0.16200000047683716 255 247 244
0.05866720527410507 -0.012090256437659264 0.16200000047683716 245 196 197
0.05868363752961159 -0.012015625834465027 0.16099999845027924 211 162 163
0.05906221270561218 -0.012015625834465027 0.16099999845027924 170 91 94
0.05944078415632248 -0.012015625834465027 0.16099999845027924 155 76 79
0.059819359332323074 -0.012015625834465027 0.16099999845027924 161 88 89
0.06019793450832367 -0.012015625834465027 0.16099999845027924 239 166 167
0.060576509684324265 -0.012015625834465027 0.16099999845027924 255 249 234
0.06095508486032486 -0.012015625834465027 0.16099999845027924 255 250 235
0.061333656311035156 -0.012015625834465027 0.16099999845027924 255 255 245
0.06171223148703575 -0.012015625834465027 0.16099999845027924 255 255 245
0.062090806663036346 -0.012015625834465027 0.16099999845027924 254 255 249
0.06208137422800064 -0.011940994299948215 0.1599999964237213 254 255 249
0.06245759502053261 -0.011940994299948215 0.1599999964237213 254 255 249
0.06283381581306458 -0.011940994299948215 0.1599999964237213 254 255 249
0.06281498074531555 -0.011866362765431404 0.1589999943971634 255 253 247
0.06279143691062927 -0.011791732162237167 0.15800000727176666 255 251 245
0.06316296011209488 -0.011791732162237167 0.15800000727176666 255 225 226
0.06313236057758331 -0.011717100627720356 0.15700000524520874 227 194 195
0.06350152939558029 -0.011717100627720356 0.15700000524520874 227 159 165
0.06346388161182404 -0.011642469093203545 0.15600000321865082 189 121 127
0.06560832262039185 -0.011567838490009308 0.1550000011920929 253 179 180
0.06597279012203217 -0.011567838490009308 0.1550000011920929 255 187 188
0.06633725017309189 -0.011567838490009308 0.1550000011920929 241 194 183
0.06627138704061508 -0.011493206955492496 0.15399999916553497 238 191 180
0.06663350015878677 -0.011493206955492496 0.15399999916553497 228 185 178
0.06699561327695847 -0.011493206955492496 0.15399999916553497 230 187 180
0.06692034006118774 -0.01141857635229826 0.15299999713897705 236 188 184
0.0672801062464714 -0.01141857635229826 0.15299999713897705 234 186 182
0.0671977773308754 -0.011343944817781448 0.15199999511241913 238 172 177
0.06755518913269043 -0.011343944817781448 0.15199999511241913 228 162 167
0.06791260093450546 -0.011343944817781448 0.15199999511241913 226 150 165
0.0682700127363205 -0.011343944817781448 0.15199999511241913 216 140 155
0.06862742453813553 -0.011343944817781448 0.15199999511241913 190 127 133
0.06853099167346954 -0.011269313283264637 0.1509999930858612 186 123 129
0.06888604909181595 -0.011269313283264637 0.1509999930858612 179 122 129
0.06924111396074295 -0.011269313283264637 0.1509999930858612 181 124 131
0.06959617137908936 -0.011269313283264637 0.1509999930858612 189 127 135
0.06995122879743576 -0.011269313283264637 0.1509999930858612 155 93 101
0.07577566057443619 -0.011343944817781448 0.15199999511241913 129 53 50
0.07613307237625122 -0.011343944817781448 0.15199999511241913 129 53 50
0.07649048417806625 -0.011343944817781448 0.15199999511241913 123 58 56
0.07684789597988129 -0.011343944817781448 0.15199999511241913 125 60 58
0.07720530778169632 -0.011343944817781448 0.15199999511241913 128 70 68
0.07756271958351135 -0.011343944817781448 0.15199999511241913 135 77 75
0.07792013138532639 -0.011343944817781448 0.15199999511241913 139 73 78
0.07827754318714142 -0.011343944817781448 0.15199999511241913 136 70 75
0.07863495498895645 -0.011343944817781448 0.15199999511241913 127 53 61
0.07899236679077148 -0.011343944817781448 0.15199999511241913 126 52 60
0.07934977859258652 -0.011343944817781448 0.15199999511241913 136 62 67
0.07970719039440155 -0.011343944817781448 0.15199999511241913 129 55 60
0.08274992555379868 -0.01141857635229826 0.15299999713897705 144 84 71
0.08419609069824219 -0.011567838490009308 0.1550000011920929 155 95 82
0.08456055819988251 -0.011567838490009308 0.1550000011920929 159 101 87
0.086020827293396 -0.011717100627720356 0.15700000524520874 160 102 88
0.08638999611139297 -0.011717100627720356 0.15700000524520874 160 110 103
0.0873117744922638 -0.011791732162237167 0.15800000727176666 173 123 116
0.08823825418949127 -0.011866362765431404 0.1589999943971634 169 127 124
0.08972673863172531 -0.012015625834465027 0.16099999845027924 167 125 122
0.08954565227031708 -0.011940994299948215 0.1599999964237213 161 113 119
0.08992187678813934 -0.011940994299948215 0.1599999964237213 154 106 112
0.09029810130596161 -0.011940994299948215 0.1599999964237213 163 106 117
0.09067432582378387 -0.011940994299948215 0.1599999964237213 149 92 103
0.09105055034160614 -0.011940994299948215 0.1599999964237213 144 84 80
0.09142676740884781 -0.011940994299948215 0.1599999964237213 148 88 84
0.09180299192667007 -0.011940994299948215 0.1599999964237213 153 94 85
0.09217921644449234 -0.011940994299948215 0.1599999964237213 148 89 80
0.0925554409623146 -0.011940994299948215 0.1599999964237213 139 86 82
0.09293166548013687 -0.011940994299948215 0.1599999964237213 153 100 96
0.09330788254737854 -0.011940994299948215 0.1599999964237213 160 116 116
0.09309858083724976 -0.011866362765431404 0.1589999943971634 167 123 123
0.09347245842218399 -0.011866362765431404 0.1589999943971634 166 136 131
0.09443655610084534 -0.011940994299948215 0.1599999964237213 167 137 132
0.0948127806186676 -0.011940994299948215 0.1599999964237213 165 138 132
0.09518899768590927 -0.011940994299948215 0.1599999964237213 156 129 123
0.09556522220373154 -0.011940994299948215 0.1599999964237213 156 116 121
0.0959414467215538 -0.011940994299948215 0.1599999964237213 149 109 114
0.054519519209861755 -0.012143010273575783 0.1679999977350235 255 179 183
0.05498036369681358 -0.012070730328559875 0.16699999570846558 250 173 175
0.055373046547174454 -0.012070730328559875 0.16699999570846558 243 166 168
0.055431801825761795 -0.011998450383543968 0.16599999368190765 224 171 167
0.055822134017944336 -0.011998450383543968 0.16599999368190765 255 237 233
0.05621246621012688 -0.011998450383543968 0.16599999368190765 255 253 243
0.0562618151307106 -0.011926170438528061 0.16500000655651093 255 253 243
0.05664979666471481 -0.011926170438528061 0.16500000655651093 254 255 249
0.05669208988547325 -0.011853890493512154 0.164000004529953 254 255 249
0.05707772076129913 -0.011853890493512154 0.164000004529953 254 255 249
0.05711296200752258 -0.011781610548496246 0.16300000250339508 254 255 249
0.05749623849987984 -0.011781610548496246 0.16300000250339508 254 255 249
0.05787951871752739 -0.011781610548496246 0.16300000250339508 254 255 249
0.058262795209884644 -0.011781610548496246 0.16300000250339508 255 246 243
0.05828627943992615 -0.011709330603480339 0.16200000047683716 237 214 211
0.05866720527410507 -0.011709330603480339 0.16200000047683716 213 143 145
0.05868363752961159 -0.011637051589787006 0.16099999845027924 172 102 104
0.060576509684324265 -0.011637051589787006 0.16099999845027924 255 216 209
0.06095508486032486 -0.011637051589787006 0.16099999845027924 255 237 230
0.061333656311035156 -0.011637051589787006 0.16099999845027924 255 253 241
0.06171223148703575 -0.011637051589787006 0.16099999845027924 255 253 241
0.061705149710178375 -0.011564771644771099 0.1599999964237213 255 253 249
0.06208137422800064 -0.011564771644771099 0.1599999964237213 255 253 249
0.06245759502053261 -0.011564771644771099 0.1599999964237213 255 250 249
0.062441106885671616 -0.011492491699755192 0.1589999943971634 255 246 245
0.06281498074531555 -0.011492491699755192 0.1589999943971634 255 224 226
0.06279143691062927 -0.011420211754739285 0.15800000727176666 236 200 202
0.06316296011209488 -0.011420211754739285 0.15800000727176666 222 154 160
0.06313236057758331 -0.011347931809723377 0.15700000524520874 182 114 120
0.06692034006118774 -0.011058812960982323 0.15299999713897705 139 61 61
0.0672801062464714 -0.011058812960982323 0.15299999713897705 134 56 56
0.06888604909181595 -0.010914253070950508 0.1509999930858612 86 15 24
0.06924111396074295 -0.010914253070950508 0.1509999930858612 89 18 27
0.06959617137908936 -0.010914253070950508 0.1509999930858612 114 47 57
0.06995122879743576 -0.010914253070950508 0.1509999930858612 122 55 65
0.08969152718782425 -0.011781610548496246 0.16300000250339508 152 99 95
0.08896959573030472 -0.011637051589787006 0.16099999845027924 173 120 116
0.08934816718101501 -0.011637051589787006 0.16099999845027924 173 126 125
0.08972673863172531 -0.011637051589787006 0.16099999845027924 170 123 122
0.0901053175330162 -0.011637051589787006 0.16099999845027924 172 122 128
0.09104590117931366 -0.011709330603480339 0.16200000047683716 157 107 113
0.09142682701349258 -0.011709330603480339 0.16200000047683716 152 97 105
0.09180775284767151 -0.011709330603480339 0.16200000047683716 141 86 94
0.09218867868185043 -0.011709330603480339 0.16200000047683716 143 85 85
0.09256960451602936 -0.011709330603480339 0.16200000047683716 149 91 91
0.09295053035020828 -0.011709330603480339 0.16200000047683716 146 88 84
0.09275534003973007 -0.011637051589787006 0.16099999845027924 145 87 83
0.09313391149044037 -0.011637051589787006 0.16099999845027924 142 89 87
0.09351248294115067 -0.011637051589787006 0.16099999845027924 153 100 98
0.09389106184244156 -0.011637051589787006 0.16099999845027924 159 105 108
0.0936841070652008 -0.011564771644771099 0.1599999964237213 150 96 99
0.09406033158302307 -0.011564771644771099 0.1599999964237213 154 110 110
0.09443655610084534 -0.011564771644771099 0.1599999964237213 157 113 113
0.0948127806186676 -0.011564771644771099 0.1599999964237213 164 125 121
0.09518899768590927 -0.011564771644771099 0.1599999964237213 160 121 117
0.09556522220373154 -0.011564771644771099 0.1599999964237213 152 109 113
0.0959414467215538 -0.011564771644771099 0.1599999964237213 147 104 108
0.09691965579986572 -0.011637051589787006 0.16099999845027924 152 100 107
0.09729822725057602 -0.011637051589787006 0.16099999845027924 150 98 105
0.09767680615186691 -0.011637051589787006 0.16099999845027924 159 98 103
0.09866441786289215 -0.011709330603480339 0.16200000047683716 154 93 98
0.054519519209861755 -0.011747975833714008 0.1679999977350235 255 184 190
0.054914552718400955 -0.011747975833714008 0.1679999977350235 253 176 182
0.05498036369681358 -0.011678047478199005 0.16699999570846558 251 178 176
0.055373046547174454 -0.011678047478199005 0.16699999570846558 241 168 166
0.055765729397535324 -0.011678047478199005 0.16699999570846558 207 151 139
0.055822134017944336 -0.011608119122684002 0.16599999368190765 255 214 202
0.05621246621012688 -0.011608119122684002 0.16599999368190765 255 254 237
0.05660279467701912 -0.011608119122684002 0.16599999368190765 255 254 237
0.05664979666471481 -0.011538190767168999 0.16500000655651093 254 255 247
0.057037774473428726 -0.011538190767168999 0.16500000655651093 254 255 247
0.05707772076129913 -0.011468262411653996 0.164000004529953 254 255 249
0.05746334791183472 -0.011468262411653996 0.164000004529953 254 255 249
0.05749623849987984 -0.011398334056138992 0.16300000250339508 255 253 249
0.05787951871752739 -0.011398334056138992 0.16300000250339508 255 251 247
0.058262795209884644 -0.011398334056138992 0.16300000250339508 255 223 227
0.05828627943992615 -0.011328404769301414 0.16200000047683716 209 166 170
0.061333656311035156 -0.011258476413786411 0.16099999845027924 252 204 200
0.06171223148703575 -0.011258476413786411 0.16099999845027924 255 209 205
0.061705149710178375 -0.011188548058271408 0.1599999964237213 245 208 215
0.06208137422800064 -0.011188548058271408 0.1599999964237213 235 198 205
0.06245759502053261 -0.011188548058271408 0.1599999964237213 230 178 195
0.062441106885671616 -0.011118619702756405 0.1589999943971634 208 156 173
0.06281498074531555 -0.011118619702756405 0.1589999943971634 190 115 130
0.06279143691062927 -0.011048691347241402 0.15800000727176666 159 84 99
0.08969152718782425 -0.011398334056138992 0.16300000250339508 151 96 95
0.0900748074054718 -0.011398334056138992 0.16300000250339508 172 117 116
0.09045808017253876 -0.011398334056138992 0.16300000250339508 177 128 129
0.09084136039018631 -0.011398334056138992 0.16300000250339508 167 118 119
0.09122463315725327 -0.011398334056138992 0.16300000250339508 164 114 118
0.09160791337490082 -0.011398334056138992 0.16300000250339508 153 103 107
0.09255555272102356 -0.011468262411653996 0.164000004529953 145 95 99
0.09237446635961533 -0.011398334056138992 0.16300000250339508 140 90 94
0.09275774657726288 -0.011398334056138992 0.16300000250339508 146 92 95
0.09314101934432983 -0.011398334056138992 0.16300000250339508 156 102 105
0.09352429956197739 -0.011398334056138992 0.16300000250339508 150 96 97
0.09390757977962494 -0.011398334056138992 0.16300000250339508 148 94 95
0.0942908525466919 -0.011398334056138992 0.16300000250339508 146 92 95
0.09409330785274506 -0.011328404769301414 0.16200000047683716 142 88 91
0.09447423368692398 -0.011328404769301414 0.16200000047683716 146 90 94
0.0948551595211029 -0.011328404769301414 0.16200000047683716 144 88 92
0.09464821219444275 -0.011258476413786411 0.16099999845027924 162 111 111
0.09502678364515305 -0.011258476413786411 0.16099999845027924 164 113 113
0.09540535509586334 -0.011258476413786411 0.16099999845027924 161 117 115
0.09578393399715424 -0.011258476413786411 0.16099999845027924 156 112 110
0.09616250544786453 -0.011258476413786411 0.16099999845027924 146 102 102
0.09654108434915543 -0.011258476413786411 0.16099999845027924 155 111 111
0.09691965579986572 -0.011258476413786411 0.16099999845027924 154 106 110
0.09729822725057602 -0.011258476413786411 0.16099999845027924 148 100 104
0.09767680615186691 -0.011258476413786411 0.16099999845027924 158 102 106
0.09866441786289215 -0.011328404769301414 0.16200000047683716 150 94 98
0.054369084537029266 -0.011488095857203007 0.17000000178813934 255 180 190
0.05444665253162384 -0.011420518159866333 0.16899999976158142 255 183 193
0.054519519209861755 -0.011352941393852234 0.1679999977350235 255 185 193
0.054914552718400955 -0.011352941393852234 0.1679999977350235 255 187 195
0.05498036369681358 -0.011285364627838135 0.16699999570846558 252 179 175
0.055373046547174454 -0.011285364627838135 0.16699999570846558 219 146 142
0.055765729397535324 -0.011285364627838135 0.16699999570846558 187 127 114
0.055822134017944336 -0.011217787861824036 0.16599999368190765 250 190 177
0.05621246621012688 -0.011217787861824036 0.16599999368190765 255 250 233
0.05660279467701912 -0.011217787861824036 0.16599999368190765 255 250 233
0.05664979666471481 -0.011150210164487362 0.16500000655651093 254 255 243
0.057037774473428726 -0.011150210164487362 0.16500000655651093 254 255 243
0.05707772076129913 -0.011082633398473263 0.164000004529953 254 255 249
0.05746334791183472 -0.011082633398473263 0.164000004529953 253 254 248
0.0578489787876606 -0.011082633398473263 0.164000004529953 255 248 249
0.05787951871752739 -0.011015056632459164 0.16300000250339508 231 216 217
0.058262795209884644 -0.011015056632459164 0.16300000250339508 222 162 172
0.05828627943992615 -0.01094747893512249 0.16200000047683716 162 102 112
0.061705149710178375 -0.010812325403094292 0.1599999964237213 152 74 83
0.06208137422800064 -0.010812325403094292 0.1599999964237213 147 69 78
0.09149986505508423 -0.011285364627838135 0.16699999570846558 163 99 92
0.09079203754663467 -0.011150210164487362 0.16500000655651093 153 98 95
0.09118001908063889 -0.011150210164487362 0.16500000655651093 158 103 100
0.0915680006146431 -0.011150210164487362 0.16500000655651093 168 117 117
0.09195597469806671 -0.011150210164487362 0.16500000655651093 165 114 114
0.09234395623207092 -0.011150210164487362 0.16500000655651093 160 109 111
0.09273193776607513 -0.011150210164487362 0.16500000655651093 151 100 102
0.09311991930007935 -0.011150210164487362 0.16500000655651093 144 92 97
0.09350789338350296 -0.011150210164487362 0.16500000655651093 154 102 107
0.09389587491750717 -0.011150210164487362 0.16500000655651093 157 105 110
0.09371244162321091 -0.011082633398473263 0.164000004529953 159 107 112
0.09409806877374649 -0.011082633398473263 0.164000004529953 155 101 104
0.09448369592428207 -0.011082633398473263 0.164000004529953 147 93 96
0.09486932307481766 -0.011082633398473263 0.164000004529953 144 88 92
0.09525495767593384 -0.011082633398473263 0.164000004529953 140 84 88
0.09564058482646942 -0.011082633398473263 0.164000004529953 143 83 83
0.09544068574905396 -0.011015056632459164 0.16300000250339508 143 83 83
0.09582396596670151 -0.011015056632459164 0.16300000250339508 158 100 100
0.09561701118946075 -0.01094747893512249 0.16200000047683716 166 108 108
0.09599793702363968 -0.01094747893512249 0.16200000047683716 159 109 106
0.0963788628578186 -0.01094747893512249 0.16200000047683716 164 114 111
0.09675978869199753 -0.01094747893512249 0.16200000047683716 165 116 115
0.09714071452617645 -0.01094747893512249 0.16200000047683716 159 110 109
0.09752164036035538 -0.01094747893512249 0.16200000047683716 155 104 106
0.0979025661945343 -0.01094747893512249 0.16200000047683716 148 97 99
0.09828349202871323 -0.01094747893512249 0.16200000047683716 162 101 104
0.09927345812320709 -0.011015056632459164 0.16300000250339508 157 96 99
0.05388472601771355 -0.011153584346175194 0.17100000381469727 255 176 184
0.05396934971213341 -0.011088358238339424 0.17000000178813934 255 179 187
0.054369084537029266 -0.011088358238339424 0.17000000178813934 255 187 200
0.05444665253162384 -0.011023133061826229 0.16899999976158142 255 190 203
0.05484404042363167 -0.011023133061826229 0.16899999976158142 255 186 194
0.054914552718400955 -0.01095790695399046 0.1679999977350235 253 179 187
0.055309586226940155 -0.01095790695399046 0.1679999977350235 236 164 160
0.055373046547174454 -0.010892681777477264 0.16699999570846558 194 122 118
0.05621246621012688 -0.010827455669641495 0.16599999368190765 255 237 225
0.05660279467701912 -0.010827455669641495 0.16599999368190765 255 245 233
0.05664979666471481 -0.0107622304931283 0.16500000655651093 255 255 241
0.057037774473428726 -0.0107622304931283 0.16500000655651093 255 255 241
0.05742575600743294 -0.0107622304931283 0.16500000655651093 255 255 249
0.05746334791183472 -0.01069700438529253 0.164000004529953 255 255 249
0.0578489787876606 -0.01069700438529253 0.164000004529953 255 230 235
0.05823460593819618 -0.01069700438529253 0.164000004529953 189 157 162
0.058262795209884644 -0.010631779208779335 0.16300000250339508 168 95 100
0.0586460717022419 -0.010631779208779335 0.16300000250339508 139 66 71
0.09149986505508423 -0.010892681777477264 0.16699999570846558 167 98 93
0.0918925479054451 -0.010892681777477264 0.16699999570846558 162 104 100
0.09173262119293213 -0.010827455669641495 0.16599999368190765 160 102 98
0.09212295711040497 -0.010827455669641495 0.16599999368190765 155 105 102
0.09251328557729721 -0.010827455669641495 0.16599999368190765 162 112 109
0.09290361404418945 -0.010827455669641495 0.16599999368190765 167 116 116
0.09329394996166229 -0.010827455669641495 0.16599999368190765 165 114 114
0.09368427842855453 -0.010827455669641495 0.16599999368190765 162 111 111
0.09407461434602737 -0.010827455669641495 0.16599999368190765 171 120 120
0.09446494281291962 -0.010827455669641495 0.16599999368190765 172 121 123
0.09485527127981186 -0.010827455669641495 0.16599999368190765 167 116 118
0.0952456071972847 -0.010827455669641495 0.16599999368190765 157 101 105
0.0950598195195198 -0.0107622304931283 0.16500000655651093 146 90 94
0.09544779360294342 -0.0107622304931283 0.16500000655651093 148 90 90
0.09583577513694763 -0.0107622304931283 0.16500000655651093 137 79 79
0.09622375667095184 -0.0107622304931283 0.16500000655651093 140 78 75
0.09661173820495605 -0.0107622304931283 0.16500000655651093 156 94 91
0.09641183912754059 -0.01069700438529253 0.164000004529953 162 102 100
0.09679746627807617 -0.01069700438529253 0.164000004529953 165 105 103
0.09718310087919235 -0.01069700438529253 0.164000004529953 161 106 103
0.09756872802972794 -0.01069700438529253 0.164000004529953 162 107 104
0.09795435518026352 -0.01069700438529253 0.164000004529953 161 108 106
0.0983399823307991 -0.01069700438529253 0.164000004529953 159 106 104
0.09872560948133469 -0.01069700438529253 0.164000004529953 154 100 101
0.09911124408245087 -0.01069700438529253 0.164000004529953 143 89 90
0.09949687123298645 -0.01069700438529253 0.164000004529953 157 97 97
0.10049153864383698 -0.0107622304931283 0.16500000655651093 150 90 90
0.10149090737104416 -0.010827455669641495 0.16599999368190765 164 85 88
0.1024949848651886 -0.010892681777477264 0.16699999570846558 164 85 88
0.05428681522607803 -0.010751496069133282 0.17100000381469727 255 181 187
0.054369084537029266 -0.010688621550798416 0.17000000178813934 255 178 189
0.054768823087215424 -0.010688621550798416 0.17000000178813934 255 177 188
0.05484404042363167 -0.01062574703246355 0.16899999976158142 254 179 189
0.0552414245903492 -0.01062574703246355 0.16899999976158142 217 142 152
0.055309586226940155 -0.01056287344545126 0.1679999977350235 191 114 116
0.055704619735479355 -0.01056287344545126 0.1679999977350235 169 92 94
0.055765729397535324 -0.010499998927116394 0.16699999570846558 166 90 87
0.056158412247896194 -0.010499998927116394 0.16699999570846558 165 89 86
0.056551095098257065 -0.010499998927116394 0.16699999570846558 219 160 153
0.05660279467701912 -0.010437124408781528 0.16599999368190765 255 229 222
0.05699312686920166 -0.010437124408781528 0.16599999368190765 255 251 237
0.057037774473428726 -0.010374250821769238 0.16500000655651093 255 251 237
0.05742575600743294 -0.010374250821769238 0.16500000655651093 255 248 247
0.05781373381614685 -0.010374250821769238 0.16500000655651093 253 232 231
0.05820171535015106 -0.010374250821769238 0.16500000655651093 221 173 179
0.05823460593819618 -0.010311376303434372 0.164000004529953 170 122 128
0.058620233088731766 -0.010311376303434372 0.164000004529953 171 92 97
0.05900586396455765 -0.010311376303434372 0.164000004529953 137 58 63
0.09244280308485031 -0.01056287344545126 0.1679999977350235 169 110 101
0.09228523075580597 -0.010499998927116394 0.16699999570846558 165 106 97
0.09267791360616684 -0.010499998927116394 0.16699999570846558 163 110 104
0.09307059645652771 -0.010499998927116394 0.16699999570846558 166 113 107
0.09346327930688858 -0.010499998927116394 0.16699999570846558 171 118 114
0.09385596215724945 -0.010499998927116394 0.16699999570846558 174 121 117
0.09424864500761032 -0.010499998927116394 0.16699999570846558 176 126 123
0.09464132785797119 -0.010499998927116394 0.16699999570846558 176 126 123
0.09446494281291962 -0.010437124408781528 0.16599999368190765 175 121 124
0.09485527127981186 -0.010437124408781528 0.16599999368190765 160 106 109
0.0952456071972847 -0.010437124408781528 0.16599999368190765 157 97 97
0.09563593566417694 -0.010437124408781528 0.16599999368190765 146 86 86
0.09602627158164978 -0.010437124408781528 0.16599999368190765 155 93 90
0.09641660004854202 -0.010437124408781528 0.16599999368190765 146 84 81
0.09680692851543427 -0.010437124408781528 0.16599999368190765 139 78 72
0.0971972644329071 -0.010437124408781528 0.16599999368190765 151 90 84
0.09758759289979935 -0.010437124408781528 0.16599999368190765 150 90 86
0.09738769382238388 -0.010374250821769238 0.16500000655651093 161 101 97
0.09777567535638809 -0.010374250821769238 0.16500000655651093 172 112 110
0.0981636568903923 -0.010374250821769238 0.16500000655651093 168 108 106
0.09855163842439651 -0.010374250821769238 0.16500000655651093 168 113 110
0.09893961995840073 -0.010374250821769238 0.16500000655651093 163 108 105
0.09932759404182434 -0.010374250821769238 0.16500000655651093 160 105 102
0.09971557557582855 -0.010374250821769238 0.16500000655651093 156 101 98
0.10010355710983276 -0.010374250821769238 0.16500000655651093 151 93 89
0.10110057890415192 -0.010437124408781528 0.16599999368190765 150 92 88
0.10210230201482773 -0.010499998927116394 0.16699999570846558 171 95 94
0.1031087264418602 -0.01056287344545126 0.1679999977350235 168 92 91
0.05428681522607803 -0.01034940779209137 0.17100000381469727 255 180 185
0.05468890443444252 -0.01034940779209137 0.17100000381469727 255 177 188
0.054768823087215424 -0.010288884863257408 0.17000000178813934 244 166 177
0.05563880875706673 -0.010228361934423447 0.16899999976158142 165 86 89
0.055704619735479355 -0.010167839005589485 0.1679999977350235 167 88 91
0.056551095098257065 -0.010107316076755524 0.16699999570846558 168 99 94
0.056943777948617935 -0.010107316076755524 0.16699999570846558 224 155 150
0.057336460798978806 -0.010107316076755524 0.16699999570846558 255 221 214
0.0573834590613842 -0.010046793147921562 0.16599999368190765 255 235 228
0.05777379125356674 -0.010046793147921562 0.16599999368190765 255 230 229
0.058164119720458984 -0.010046793147921562 0.16599999368190765 212 170 169
0.058554451912641525 -0.010046793147921562 0.16599999368190765 175 114 119
0.05858969688415527 -0.0099862702190876 0.16500000655651093 166 105 110
0.09244280308485031 -0.010167839005589485 0.1679999977350235 183 119 112
0.09283783286809921 -0.010167839005589485 0.1679999977350235 182 118 111
0.09323287010192871 -0.010167839005589485 0.1679999977350235 172 118 110
0.09362790733575821 -0.010167839005589485 0.1679999977350235 169 115 107
0.09402293711900711 -0.010167839005589485 0.1679999977350235 174 124 117
0.09441797435283661 -0.010167839005589485 0.1679999977350235 174 124 117
0.09424864500761032 -0.010107316076755524 0.16699999570846558 173 123 118
0.09464132785797119 -0.010107316076755524 0.16699999570846558 171 121 116
0.09503401070833206 -0.010107316076755524 0.16699999570846558 155 102 100
0.09542669355869293 -0.010107316076755524 0.16699999570846558 150 97 95
0.0958193764090538 -0.010107316076755524 0.16699999570846558 143 78 78
0.09621205925941467 -0.010107316076755524 0.16699999570846558 142 77 77
0.09660474210977554 -0.010107316076755524 0.16699999570846558 145 79 75
0.09699742496013641 -0.010107316076755524 0.16699999570846558 144 78 74
0.09739010781049728 -0.010107316076755524 0.16699999570846558 140 76 71
0.09778279066085815 -0.010107316076755524 0.16699999570846558 139 75 70
0.09817547351121902 -0.010107316076755524 0.16699999570846558 133 74 65
0.09797792881727219 -0.010046793147921562 0.16599999368190765 152 93 84
0.09836825728416443 -0.010046793147921562 0.16599999368190765 164 105 98
0.09875858575105667 -0.010046793147921562 0.16599999368190765 168 109 102
0.09914892166852951 -0.010046793147921562 0.16599999368190765 170 113 106
0.09953925013542175 -0.010046793147921562 0.16599999368190765 167 110 103
0.09992958605289459 -0.010046793147921562 0.16599999368190765 165 111 103
0.10031991451978683 -0.010046793147921562 0.16599999368190765 163 109 101
0.10071024298667908 -0.010046793147921562 0.16599999368190765 156 98 94
0.10170961916446686 -0.010107316076755524 0.16699999570846558 159 101 97
0.1027136892080307 -0.010167839005589485 0.1679999977350235 168 95 93
0.1031087264418602 -0.010167839005589485 0.1679999977350235 164 91 89
0.05460428074002266 -0.010005490854382515 0.1720000058412552 255 177 181
0.0559680350124836 -0.009889147244393826 0.17000000178813934 172 94 94
0.056036196649074554 -0.009830975905060768 0.16899999976158142 172 94 94
0.057336460798978806 -0.009714633226394653 0.16699999570846558 206 134 130
0.057729143649339676 -0.009714633226394653 0.16699999570846558 223 151 147
0.05777379125356674 -0.009656461887061596 0.16599999368190765 213 148 150
0.058164119720458984 -0.009656461887061596 0.16599999368190765 182 117 119
0.058554451912641525 -0.009656461887061596 0.16599999368190765 180 107 112
0.058944784104824066 -0.009656461887061596 0.16599999368190765 180 107 112
0.09299305826425552 -0.009830975905060768 0.16899999976158142 173 112 104
0.09339044243097305 -0.009830975905060768 0.16899999976158142 172 111 103
0.09378782659769058 -0.009830975905060768 0.16899999976158142 171 114 107
0.09418521076440811 -0.009830975905060768 0.16899999976158142 170 113 106
0.09402293711900711 -0.00977280456572771 0.1679999977350235 171 122 112
0.09441797435283661 -0.00977280456572771 0.1679999977350235 172 123 113
0.09481300413608551 -0.00977280456572771 0.1679999977350235 173 125 119
0.09520804136991501 -0.00977280456572771 0.1679999977350235 165 117 111
0.09560307115316391 -0.00977280456572771 0.1679999977350235 148 95 93
0.09599810838699341 -0.00977280456572771 0.1679999977350235 146 93 91
0.0963931456208229 -0.00977280456572771 0.1679999977350235 147 80 79
0.09678817540407181 -0.00977280456572771 0.1679999977350235 140 73 72
0.0971832126379013 -0.00977280456572771 0.1679999977350235 150 77 75
0.09757824242115021 -0.00977280456572771 0.1679999977350235 147 74 72
0.0979732796549797 -0.00977280456572771 0.1679999977350235 143 74 69
0.0983683168888092 -0.00977280456572771 0.1679999977350235 142 73 68
0.0987633466720581 -0.00977280456572771 0.1679999977350235 138 78 67
0.0985681563615799 -0.009714633226394653 0.16699999570846558 137 77 66
0.09896083921194077 -0.009714633226394653 0.16699999570846558 145 86 77
0.09935352206230164 -0.009714633226394653 0.16699999570846558 166 107 98
0.0997462049126625 -0.009714633226394653 0.16699999570846558 170 109 103
0.1007385179400444 -0.00977280456572771 0.1679999977350235 168 107 101
0.10053157061338425 -0.009714633226394653 0.16699999570846558 164 106 102
0.10092425346374512 -0.009714633226394653 0.16699999570846558 163 105 101
0.10253030806779861 -0.009830975905060768 0.16899999976158142 161 101 99
0.10292769223451614 -0.009830975905060768 0.16899999976158142 153 93 91
0.10393647104501724 -0.009889147244393826 0.17000000178813934 155 83 81
0.1043362095952034 -0.009889147244393826 0.17000000178813934 162 90 88
0.09354331344366074 -0.009489410556852818 0.17000000178813934 165 103 100
0.0939430445432663 -0.009489410556852818 0.17000000178813934 163 101 98
0.09434278309345245 -0.009489410556852818 0.17000000178813934 162 104 100
0.09418521076440811 -0.009433590807020664 0.16899999976158142 163 105 101
0.09458259493112564 -0.009433590807020664 0.16899999976158142 161 108 102
0.09497998654842377 -0.009433590807020664 0.16899999976158142 164 111 105
0.0953773707151413 -0.009433590807020664 0.16899999976158142 170 124 118
0.09577475488185883 -0.009433590807020664 0.16899999976158142 155 109 103
0.09617213904857635 -0.009433590807020664 0.16899999976158142 153 98 95
0.09656952321529388 -0.009433590807020664 0.16899999976158142 146 91 88
0.09696691483259201 -0.009433590807020664 0.16899999976158142 146 73 71
0.09736429899930954 -0.009433590807020664 0.16899999976158142 138 65 63
0.09935122728347778 -0.009433590807020664 0.16899999976158142 149 81 73
0.09974861145019531 -0.009433590807020664 0.16899999976158142 153 85 77
0.10014599561691284 -0.009433590807020664 0.16899999976158142 150 85 76
0.10054337978363037 -0.009433590807020664 0.16899999976158142 164 99 90
0.1009407714009285 -0.009433590807020664 0.16899999976158142 165 100 98
