0.08314986526966095 -0.017208117991685867 0.1599999964237213 179 113 118
0.08352608978748322 -0.017208117991685867 0.1599999964237213 173 105 113
0.08442670106887817 -0.017315667122602463 0.16099999845027924 171 103 111
0.08480527251958847 -0.017315667122602463 0.16099999845027924 148 80 86
0.08518385142087936 -0.017315667122602463 0.16099999845027924 112 44 50
0.0511711910367012 -0.017883887514472008 0.17000000178813934 255 193 184
0.05157092586159706 -0.017883887514472008 0.17000000178813934 255 234 225
0.05197066441178322 -0.017883887514472008 0.17000000178813934 255 252 243
0.05206234008073807 -0.017778687179088593 0.16899999976158142 255 252 243
0.0524597242474556 -0.017778687179088593 0.16899999976158142 255 253 248
0.05254434794187546 -0.017673488706350327 0.1679999977350235 255 254 249
0.05293938145041466 -0.017673488706350327 0.1679999977350235 255 251 247
0.05333441495895386 -0.017673488706350327 0.1679999977350235 255 249 245
0.0534096322953701 -0.01756829023361206 0.16699999570846558 255 205 207
0.05380231514573097 -0.01756829023361206 0.16699999570846558 226 170 172
0.05465113744139671 -0.017463089898228645 0.16599999368190765 224 150 151
0.055041469633579254 -0.017463089898228645 0.16599999368190765 255 225 226
0.055431801825761795 -0.017463089898228645 0.16599999368190765 255 252 241
0.055822134017944336 -0.017463089898228645 0.16599999368190765 255 252 241
0.05587383359670639 -0.01735789142549038 0.16500000655651093 254 255 249
0.0562618151307106 -0.01735789142549038 0.16500000655651093 254 255 249
0.05664979666471481 -0.01735789142549038 0.16500000655651093 254 255 249
0.05669208988547325 -0.017252691090106964 0.164000004529953 254 255 249
0.05707772076129913 -0.017252691090106964 0.164000004529953 254 255 249
0.05711296200752258 -0.017147492617368698 0.16300000250339508 254 255 249
0.05749623849987984 -0.017147492617368698 0.16300000250339508 253 254 248
0.0575244277715683 -0.017042292281985283 0.16200000047683716 254 255 249
0.05790535360574722 -0.017042292281985283 0.16200000047683716 254 255 249
0.05828627943992615 -0.017042292281985283 0.16200000047683716 254 255 249
0.05866720527410507 -0.017042292281985283 0.16200000047683716 254 255 249
0.05868363752961159 -0.016937093809247017 0.16099999845027924 254 255 249
0.05906221270561218 -0.016937093809247017 0.16099999845027924 255 251 249
0.05944078415632248 -0.016937093809247017 0.16099999845027924 255 247 245
0.05944781005382538 -0.0168318934738636 0.1599999964237213 255 204 211
0.059824034571647644 -0.0168318934738636 0.1599999964237213 226 174 181
0.06020025908946991 -0.0168318934738636 0.1599999964237213 221 147 150
0.06057647988200188 -0.0168318934738636 0.1599999964237213 225 151 154
0.061705149710178375 -0.0168318934738636 0.1599999964237213 234 173 165
0.06208137422800064 -0.0168318934738636 0.1599999964237213 255 235 227
0.06206723675131798 -0.016726695001125336 0.1589999943971634 255 243 234
0.062441106885671616 -0.016726695001125336 0.1589999943971634 255 228 219
0.06281498074531555 -0.016726695001125336 0.1589999943971634 255 196 201
0.06318885087966919 -0.016726695001125336 0.1589999943971634 241 182 187
0.06316296011209488 -0.01662149466574192 0.15800000727176666 246 179 182
0.06353447586297989 -0.01662149466574192 0.15800000727176666 244 177 180
0.0639059990644455 -0.01662149466574192 0.15800000727176666 243 170 173
0.0642775148153305 -0.01662149466574192 0.15800000727176666 245 172 175
0.06423986703157425 -0.016516296193003654 0.15700000524520874 249 175 176
0.06460903584957123 -0.016516296193003654 0.15700000524520874 244 170 171
0.0649782046675682 -0.016516296193003654 0.15700000524520874 233 159 162
0.06534737348556519 -0.016516296193003654 0.15700000524520874 231 157 160
0.06571654230356216 -0.016516296193003654 0.15700000524520874 217 147 149
0.06608571112155914 -0.016516296193003654 0.15700000524520874 214 144 146
0.06645487993955612 -0.016516296193003654 0.15700000524520874 208 143 143
0.0668240487575531 -0.016516296193003654 0.15700000524520874 212 147 147
0.06719321757555008 -0.016516296193003654 0.15700000524520874 212 145 146
0.06756238639354706 -0.016516296193003654 0.15700000524520874 211 144 145
0.06793155521154404 -0.016516296193003654 0.15700000524520874 213 136 140
0.06830072402954102 -0.016516296193003654 0.15700000524520874 212 135 139
0.07014656811952591 -0.016516296193003654 0.15700000524520874 199 128 135
0.07051573693752289 -0.016516296193003654 0.15700000524520874 202 131 138
0.07088490575551987 -0.016516296193003654 0.15700000524520874 200 138 146
0.07125407457351685 -0.016516296193003654 0.15700000524520874 198 136 144
0.07162324339151382 -0.016516296193003654 0.15700000524520874 194 134 144
0.0719924122095108 -0.016516296193003654 0.15700000524520874 193 133 143
0.07236158102750778 -0.016516296193003654 0.15700000524520874 189 132 143
0.07273074984550476 -0.016516296193003654 0.15700000524520874 185 128 139
0.07309991866350174 -0.016516296193003654 0.15700000524520874 179 127 134
0.07346908748149872 -0.016516296193003654 0.15700000524520874 178 126 133
0.0738382562994957 -0.016516296193003654 0.15700000524520874 173 121 126
0.07420742511749268 -0.016516296193003654 0.15700000524520874 171 119 124
0.07457659393548965 -0.016516296193003654 0.15700000524520874 170 115 123
0.07542312890291214 -0.01662149466574192 0.15800000727176666 166 111 119
0.07579464465379715 -0.01662149466574192 0.15800000727176666 174 112 124
0.07616616785526276 -0.01662149466574192 0.15800000727176666 157 95 107
0.07653768360614777 -0.01662149466574192 0.15800000727176666 131 63 71
0.0773959755897522 -0.016726695001125336 0.1589999943971634 142 74 82
0.07776984572410583 -0.016726695001125336 0.1589999943971634 178 113 113
0.07814371585845947 -0.016726695001125336 0.1589999943971634 184 119 119
0.07851758599281311 -0.016726695001125336 0.1589999943971634 178 123 120
0.07889146357774734 -0.016726695001125336 0.1589999943971634 184 129 126
0.07926533371210098 -0.016726695001125336 0.1589999943971634 187 136 136
0.07963920384645462 -0.016726695001125336 0.1589999943971634 188 137 137
0.08001307398080826 -0.016726695001125336 0.1589999943971634 186 135 137
0.0803869441151619 -0.016726695001125336 0.1589999943971634 185 134 136
0.08076082170009613 -0.016726695001125336 0.1589999943971634 179 127 132
0.08113469183444977 -0.016726695001125336 0.1589999943971634 179 127 132
0.0815085619688034 -0.016726695001125336 0.1589999943971634 172 115 122
0.08239741623401642 -0.0168318934738636 0.1599999964237213 174 117 124
0.08277364075183868 -0.0168318934738636 0.1599999964237213 183 119 128
0.08314986526966095 -0.0168318934738636 0.1599999964237213 180 116 125
0.08352608978748322 -0.0168318934738636 0.1599999964237213 175 106 117
0.08442670106887817 -0.016937093809247017 0.16099999845027924 169 100 111
0.08480527251958847 -0.016937093809247017 0.16099999845027924 163 91 103
0.08518385142087936 -0.016937093809247017 0.16099999845027924 122 50 62
0.04746550694108009 -0.017895542085170746 0.17399999499320984 255 209 190
0.04787464812397957 -0.017895542085170746 0.17399999499320984 255 205 186
0.04800629988312721 -0.01779269427061081 0.17299999296665192 255 208 201
0.04841309040784836 -0.01779269427061081 0.17299999296665192 255 202 195
0.048537686467170715 -0.017689846456050873 0.1720000058412552 255 183 186
0.0511711910367012 -0.017484150826931 0.17000000178813934 255 238 227
0.05157092586159706 -0.017484150826931 0.17000000178813934 255 242 231
0.05197066441178322 -0.017484150826931 0.17000000178813934 255 255 247
0.05206234008073807 -0.017381303012371063 0.16899999976158142 255 255 247
0.0524597242474556 -0.017381303012371063 0.16899999976158142 254 255 249
0.05254434794187546 -0.017278455197811127 0.1679999977350235 254 255 249
0.05293938145041466 -0.017278455197811127 0.1679999977350235 255 254 247
0.05333441495895386 -0.017278455197811127 0.1679999977350235 255 253 246
0.0534096322953701 -0.01717560738325119 0.16699999570846558 255 222 219
0.05380231514573097 -0.01717560738325119 0.16699999570846558 242 205 202
0.05419499799609184 -0.01717560738325119 0.16699999570846558 246 179 180
0.05426080897450447 -0.017072759568691254 0.16599999368190765 225 158 159
0.05465113744139671 -0.017072759568691254 0.16599999368190765 213 172 166
0.055041469633579254 -0.017072759568691254 0.16599999368190765 255 243 237
0.055431801825761795 -0.017072759568691254 0.16599999368190765 255 255 243
0.055822134017944336 -0.017072759568691254 0.16599999368190765 255 255 243
0.05587383359670639 -0.016969909891486168 0.16500000655651093 254 255 249
0.0562618151307106 -0.016969909891486168 0.16500000655651093 254 255 249
0.05664979666471481 -0.016969909891486168 0.16500000655651093 254 255 249
0.05669208988547325 -0.01686706207692623 0.164000004529953 254 255 249
0.05672968551516533 -0.016764214262366295 0.16300000250339508 254 255 249
0.05711296200752258 -0.016764214262366295 0.16300000250339508 254 255 249
0.057143501937389374 -0.01666136644780636 0.16200000047683716 254 255 249
0.0575244277715683 -0.01666136644780636 0.16200000047683716 254 255 249
0.05790535360574722 -0.01666136644780636 0.16200000047683716 254 255 249
0.05828627943992615 -0.01666136644780636 0.16200000047683716 254 255 249
0.05830506235361099 -0.016558518633246422 0.16099999845027924 254 255 249
0.05868363752961159 -0.016558518633246422 0.16099999845027924 254 255 249
0.05906221270561218 -0.016558518633246422 0.16099999845027924 255 254 249
0.05907158926129341 -0.016455670818686485 0.1599999964237213 254 251 246
0.05944781005382538 -0.016455670818686485 0.1599999964237213 255 215 221
0.059824034571647644 -0.016455670818686485 0.1599999964237213 240 197 203
0.06020025908946991 -0.016455670818686485 0.1599999964237213 235 161 164
0.06057647988200188 -0.016455670818686485 0.1599999964237213 230 156 159
0.061705149710178375 -0.016455670818686485 0.1599999964237213 252 200 189
0.06169336289167404 -0.01635282300412655 0.1589999943971634 255 240 229
0.06206723675131798 -0.01635282300412655 0.1589999943971634 255 246 235
0.062441106885671616 -0.01635282300412655 0.1589999943971634 255 227 216
0.06281498074531555 -0.01635282300412655 0.1589999943971634 242 186 190
0.06318885087966919 -0.01635282300412655 0.1589999943971634 245 189 193
0.06316296011209488 -0.016249975189566612 0.15800000727176666 247 180 183
0.06353447586297989 -0.016249975189566612 0.15800000727176666 241 174 177
0.0639059990644455 -0.016249975189566612 0.15800000727176666 243 176 179
0.0642775148153305 -0.016249975189566612 0.15800000727176666 247 180 183
0.06423986703157425 -0.016147127375006676 0.15700000524520874 250 179 186
0.06460903584957123 -0.016147127375006676 0.15700000524520874 245 174 181
0.0649782046675682 -0.016147127375006676 0.15700000524520874 243 176 179
0.06534737348556519 -0.016147127375006676 0.15700000524520874 229 162 165
0.06571654230356216 -0.016147127375006676 0.15700000524520874 212 150 149
0.06608571112155914 -0.016147127375006676 0.15700000524520874 212 150 149
0.06645487993955612 -0.016147127375006676 0.15700000524520874 212 152 150
0.0668240487575531 -0.016147127375006676 0.15700000524520874 214 154 152
0.06719321757555008 -0.016147127375006676 0.15700000524520874 210 150 148
0.06756238639354706 -0.016147127375006676 0.15700000524520874 209 149 147
0.06793155521154404 -0.016147127375006676 0.15700000524520874 208 135 140
0.06830072402954102 -0.016147127375006676 0.15700000524520874 209 136 141
0.068669892847538 -0.016147127375006676 0.15700000524520874 194 115 120
0.06903906166553497 -0.016147127375006676 0.15700000524520874 184 105 110
0.06940823048353195 -0.016147127375006676 0.15700000524520874 163 86 90
0.06977739930152893 -0.016147127375006676 0.15700000524520874 184 107 111
0.07014656811952591 -0.016147127375006676 0.15700000524520874 188 125 131
0.07051573693752289 -0.016147127375006676 0.15700000524520874 199 136 142
0.07088490575551987 -0.016147127375006676 0.15700000524520874 202 142 150
0.07125407457351685 -0.016147127375006676 0.15700000524520874 196 136 144
0.07162324339151382 -0.016147127375006676 0.15700000524520874 191 134 143
0.0719924122095108 -0.016147127375006676 0.15700000524520874 186 129 138
0.07236158102750778 -0.016147127375006676 0.15700000524520874 184 127 138
0.07273074984550476 -0.016147127375006676 0.15700000524520874 185 128 139
0.07309991866350174 -0.016147127375006676 0.15700000524520874 171 126 133
0.07346908748149872 -0.016147127375006676 0.15700000524520874 169 124 131
0.0738382562994957 -0.016147127375006676 0.15700000524520874 165 125 128
0.07420742511749268 -0.016147127375006676 0.15700000524520874 163 123 126
0.07457659393548965 -0.016147127375006676 0.15700000524520874 163 115 123
0.07542312890291214 -0.016249975189566612 0.15800000727176666 164 116 124
0.07579464465379715 -0.016249975189566612 0.15800000727176666 183 123 135
0.07616616785526276 -0.016249975189566612 0.15800000727176666 167 107 119
0.07653768360614777 -0.016249975189566612 0.15800000727176666 142 76 83
0.07690920680761337 -0.016249975189566612 0.15800000727176666 162 96 103
0.07728073000907898 -0.016249975189566612 0.15800000727176666 177 115 116
0.07814371585845947 -0.01635282300412655 0.1589999943971634 187 125 126
0.07851758599281311 -0.01635282300412655 0.1589999943971634 186 137 136
0.07889146357774734 -0.01635282300412655 0.1589999943971634 188 139 138
0.07926533371210098 -0.01635282300412655 0.1589999943971634 187 139 143
0.07963920384645462 -0.01635282300412655 0.1589999943971634 190 142 146
0.08001307398080826 -0.01635282300412655 0.1589999943971634 184 136 142
0.0803869441151619 -0.01635282300412655 0.1589999943971634 179 131 137
0.08076082170009613 -0.01635282300412655 0.1589999943971634 179 130 141
0.08113469183444977 -0.01635282300412655 0.1589999943971634 179 130 141
0.0815085619688034 -0.01635282300412655 0.1589999943971634 181 129 138
0.08239741623401642 -0.016455670818686485 0.1599999964237213 180 128 137
0.08277364075183868 -0.016455670818686485 0.1599999964237213 181 121 129
0.08314986526966095 -0.016455670818686485 0.1599999964237213 173 113 121
0.08352608978748322 -0.016455670818686485 0.1599999964237213 171 102 113
0.08442670106887817 -0.016558518633246422 0.16099999845027924 170 101 112
0.08480527251958847 -0.016558518633246422 0.16099999845027924 164 95 106
0.08518385142087936 -0.016558518633246422 0.16099999845027924 122 53 64
0.08556242287158966 -0.016558518633246422 0.16099999845027924 134 61 57
0.08594099432229996 -0.016558518633246422 0.16099999845027924 136 63 59
0.047597240656614304 -0.017687393352389336 0.17599999904632568 255 195 179
0.047738298773765564 -0.01758689619600773 0.17499999701976776 255 240 214
0.04814979061484337 -0.01758689619600773 0.17499999701976776 255 238 212
0.04828379303216934 -0.01748639903962612 0.17399999499320984 255 237 226
0.04869293421506882 -0.01748639903962612 0.17399999499320984 255 231 220
0.04910207912325859 -0.01748639903962612 0.17399999499320984 253 199 191
0.04922667145729065 -0.017385903745889664 0.17299999296665192 228 174 166
0.05107010900974274 -0.01718490943312645 0.17100000381469727 255 186 176
0.0511711910367012 -0.017084414139389992 0.17000000178813934 255 246 232
0.05157092586159706 -0.017084414139389992 0.17000000178813934 255 247 233
0.05197066441178322 -0.017084414139389992 0.17000000178813934 254 255 245
0.05206234008073807 -0.016983916983008385 0.16899999976158142 254 255 245
0.0524597242474556 -0.016983916983008385 0.16899999976158142 254 255 249
0.05254434794187546 -0.016883419826626778 0.1679999977350235 254 255 249
0.05293938145041466 -0.016883419826626778 0.1679999977350235 254 255 249
0.05333441495895386 -0.016883419826626778 0.1679999977350235 254 255 249
0.0534096322953701 -0.01678292453289032 0.16699999570846558 255 246 237
0.05380231514573097 -0.01678292453289032 0.16699999570846558 242 224 215
0.05419499799609184 -0.01678292453289032 0.16699999570846558 241 205 195
0.05426080897450447 -0.016682427376508713 0.16599999368190765 230 194 184
0.05465113744139671 -0.016682427376508713 0.16599999368190765 250 228 218
0.055041469633579254 -0.016682427376508713 0.16599999368190765 255 248 238
0.055431801825761795 -0.016682427376508713 0.16599999368190765 255 255 245
0.05548585578799248 -0.016581930220127106 0.16500000655651093 255 255 245
0.05587383359670639 -0.016581930220127106 0.16500000655651093 254 255 249
0.0562618151307106 -0.016581930220127106 0.16500000655651093 254 255 249
0.05630646273493767 -0.016481434926390648 0.164000004529953 254 255 249
0.05669208988547325 -0.016481434926390648 0.164000004529953 254 255 249
0.05672968551516533 -0.01638093777000904 0.16300000250339508 254 255 249
0.05711296200752258 -0.01638093777000904 0.16300000250339508 254 255 249
0.057143501937389374 -0.016280440613627434 0.16200000047683716 254 255 249
0.0575244277715683 -0.016280440613627434 0.16200000047683716 254 255 249
0.05790535360574722 -0.016280440613627434 0.16200000047683716 254 255 249
0.05828627943992615 -0.016280440613627434 0.16200000047683716 254 255 249
0.05830506235361099 -0.016179945319890976 0.16099999845027924 254 255 249
0.05868363752961159 -0.016179945319890976 0.16099999845027924 254 255 249
0.05906221270561218 -0.016179945319890976 0.16099999845027924 255 255 249
0.05907158926129341 -0.01607944816350937 0.1599999964237213 255 255 249
0.05944781005382538 -0.01607944816350937 0.1599999964237213 255 229 232
0.059824034571647644 -0.01607944816350937 0.1599999964237213 234 201 204
0.06020025908946991 -0.01607944816350937 0.1599999964237213 234 164 164
0.06057647988200188 -0.01607944816350937 0.1599999964237213 228 158 158
0.061319492757320404 -0.015978951007127762 0.1589999943971634 255 220 206
0.06169336289167404 -0.015978951007127762 0.1589999943971634 255 242 228
0.06206723675131798 -0.015978951007127762 0.1589999943971634 255 248 236
0.062441106885671616 -0.015978951007127762 0.1589999943971634 255 231 219
0.06281498074531555 -0.015978951007127762 0.1589999943971634 237 186 186
0.06318885087966919 -0.015978951007127762 0.1589999943971634 240 189 189
0.06316296011209488 -0.015878455713391304 0.15800000727176666 246 181 183
0.06353447586297989 -0.015878455713391304 0.15800000727176666 242 177 179
0.0639059990644455 -0.015878455713391304 0.15800000727176666 242 174 182
0.0642775148153305 -0.015878455713391304 0.15800000727176666 255 189 197
0.06423986703157425 -0.015777958557009697 0.15700000524520874 249 180 193
0.06460903584957123 -0.015777958557009697 0.15700000524520874 243 174 187
0.0649782046675682 -0.015777958557009697 0.15700000524520874 233 171 172
0.06534737348556519 -0.015777958557009697 0.15700000524520874 225 163 164
0.06571654230356216 -0.015777958557009697 0.15700000524520874 211 151 149
0.06608571112155914 -0.015777958557009697 0.15700000524520874 218 158 156
0.06645487993955612 -0.015777958557009697 0.15700000524520874 215 157 155
0.0668240487575531 -0.015777958557009697 0.15700000524520874 216 158 156
0.06719321757555008 -0.015777958557009697 0.15700000524520874 216 156 154
0.06756238639354706 -0.015777958557009697 0.15700000524520874 221 161 159
0.06793155521154404 -0.015777958557009697 0.15700000524520874 206 138 144
0.06830072402954102 -0.015777958557009697 0.15700000524520874 207 139 145
0.068669892847538 -0.015777958557009697 0.15700000524520874 197 123 128
0.06903906166553497 -0.015777958557009697 0.15700000524520874 184 110 115
0.06940823048353195 -0.015777958557009697 0.15700000524520874 173 103 105
0.06977739930152893 -0.015777958557009697 0.15700000524520874 184 114 116
0.07014656811952591 -0.015777958557009697 0.15700000524520874 187 128 133
0.07051573693752289 -0.015777958557009697 0.15700000524520874 196 137 142
0.07088490575551987 -0.015777958557009697 0.15700000524520874 199 145 148
0.07125407457351685 -0.015777958557009697 0.15700000524520874 197 143 146
0.07162324339151382 -0.015777958557009697 0.15700000524520874 190 133 142
0.0719924122095108 -0.015777958557009697 0.15700000524520874 184 127 136
0.07236158102750778 -0.015777958557009697 0.15700000524520874 184 129 139
0.07273074984550476 -0.015777958557009697 0.15700000524520874 182 127 137
0.07309991866350174 -0.015777958557009697 0.15700000524520874 172 131 139
0.07346908748149872 -0.015777958557009697 0.15700000524520874 168 127 135
0.0738382562994957 -0.015777958557009697 0.15700000524520874 168 131 138
0.07420742511749268 -0.015777958557009697 0.15700000524520874 168 131 138
0.07457659393548965 -0.015777958557009697 0.15700000524520874 164 119 126
0.07542312890291214 -0.015878455713391304 0.15800000727176666 168 123 130
0.07579464465379715 -0.015878455713391304 0.15800000727176666 173 121 130
0.07616616785526276 -0.015878455713391304 0.15800000727176666 162 110 119
0.07653768360614777 -0.015878455713391304 0.15800000727176666 157 95 103
0.07690920680761337 -0.015878455713391304 0.15800000727176666 171 109 117
0.07728073000907898 -0.015878455713391304 0.15800000727176666 183 124 129
0.07765224575996399 -0.015878455713391304 0.15800000727176666 185 126 131
0.0780237689614296 -0.015878455713391304 0.15800000727176666 192 143 144
0.0783952847123146 -0.015878455713391304 0.15800000727176666 189 140 141
0.07876680791378021 -0.015878455713391304 0.15800000727176666 185 141 141
0.07913833111524582 -0.015878455713391304 0.15800000727176666 189 145 145
0.07950984686613083 -0.015878455713391304 0.15800000727176666 183 140 144
0.0803869441151619 -0.015978951007127762 0.1589999943971634 179 136 140
0.08076082170009613 -0.015978951007127762 0.1589999943971634 177 133 142
0.08113469183444977 -0.015978951007127762 0.1589999943971634 175 131 140
0.0815085619688034 -0.015978951007127762 0.1589999943971634 173 127 137
0.08239741623401642 -0.01607944816350937 0.1599999964237213 175 129 139
0.08277364075183868 -0.01607944816350937 0.1599999964237213 185 128 137
0.08314986526966095 -0.01607944816350937 0.1599999964237213 179 122 131
0.08352608978748322 -0.01607944816350937 0.1599999964237213 171 102 115
0.08442670106887817 -0.016179945319890976 0.16099999845027924 169 100 113
0.08480527251958847 -0.016179945319890976 0.16099999845027924 162 93 104
0.08518385142087936 -0.016179945319890976 0.16099999845027924 128 59 70
0.08556242287158966 -0.016179945319890976 0.16099999845027924 139 69 69
0.08594099432229996 -0.016179945319890976 0.16099999845027924 156 86 86
0.047867681831121445 -0.01737169176340103 0.1770000010728836 255 218 202
0.048011086881160736 -0.017273547127842903 0.17599999904632568 255 251 229
0.04814979061484337 -0.017175402492284775 0.17499999701976776 255 250 228
0.04856128618121147 -0.017175402492284775 0.17499999701976776 255 251 238
0.04869293421506882 -0.017077257856726646 0.17399999499320984 255 252 239
0.04910207912325859 -0.017077257856726646 0.17399999499320984 255 233 223
0.04922667145729065 -0.01697911135852337 0.17299999296665192 251 222 212
0.049633461982011795 -0.01697911135852337 0.17299999296665192 255 186 183
0.049751006066799164 -0.01688096672296524 0.1720000058412552 237 168 165
0.05066801980137825 -0.016782822087407112 0.17100000381469727 218 150 142
0.05107010900974274 -0.016782822087407112 0.17100000381469727 255 210 202
0.051472198218107224 -0.016782822087407112 0.17100000381469727 255 253 237
0.05157092586159706 -0.016684675589203835 0.17000000178813934 255 253 237
0.05197066441178322 -0.016684675589203835 0.17000000178813934 254 255 247
0.05206234008073807 -0.016586530953645706 0.16899999976158142 254 255 247
0.0524597242474556 -0.016586530953645706 0.16899999976158142 254 255 249
0.05254434794187546 -0.016488386318087578 0.1679999977350235 254 255 249
0.05293938145041466 -0.016488386318087578 0.1679999977350235 254 255 249
0.05333441495895386 -0.016488386318087578 0.1679999977350235 254 255 249
0.0534096322953701 -0.01639024168252945 0.16699999570846558 255 253 244
0.05380231514573097 -0.01639024168252945 0.16699999570846558 241 237 228
0.05387047678232193 -0.016292095184326172 0.16599999368190765 238 224 209
0.05426080897450447 -0.016292095184326172 0.16599999368190765 234 220 205
0.05465113744139671 -0.016292095184326172 0.16599999368190765 249 240 231
0.055041469633579254 -0.016292095184326172 0.16599999368190765 255 252 243
0.055097874253988266 -0.016193950548768044 0.16500000655651093 254 255 247
0.05548585578799248 -0.016193950548768044 0.16500000655651093 254 255 247
0.05587383359670639 -0.016193950548768044 0.16500000655651093 254 255 249
0.0562618151307106 -0.016193950548768044 0.16500000655651093 254 255 249
0.05630646273493767 -0.016095805913209915 0.164000004529953 254 255 249
0.056346409022808075 -0.015997661277651787 0.16300000250339508 254 255 249
0.05672968551516533 -0.015997661277651787 0.16300000250339508 254 255 249
0.05711296200752258 -0.015997661277651787 0.16300000250339508 254 255 249
0.057143501937389374 -0.01589951477944851 0.16200000047683716 254 255 249
0.0575244277715683 -0.01589951477944851 0.16200000047683716 254 255 249
0.05790535360574722 -0.01589951477944851 0.16200000047683716 254 255 249
0.0579264871776104 -0.01580137014389038 0.16099999845027924 254 255 249
0.05830506235361099 -0.01580137014389038 0.16099999845027924 254 255 249
0.05868363752961159 -0.01580137014389038 0.16099999845027924 254 255 249
0.05906221270561218 -0.01580137014389038 0.16099999845027924 255 255 249
0.05907158926129341 -0.015703225508332253 0.1599999964237213 255 255 249
0.05944781005382538 -0.015703225508332253 0.1599999964237213 255 243 243
0.059824034571647644 -0.015703225508332253 0.1599999964237213 232 206 206
0.06020025908946991 -0.015703225508332253 0.1599999964237213 244 177 176
0.06057647988200188 -0.015703225508332253 0.1599999964237213 237 170 169
0.061319492757320404 -0.01560507994145155 0.1589999943971634 255 237 220
0.06169336289167404 -0.01560507994145155 0.1589999943971634 255 245 228
0.06206723675131798 -0.01560507994145155 0.1589999943971634 255 249 236
0.062441106885671616 -0.01560507994145155 0.1589999943971634 255 241 228
0.06281498074531555 -0.01560507994145155 0.1589999943971634 248 200 196
0.06318885087966919 -0.01560507994145155 0.1589999943971634 236 188 184
0.06316296011209488 -0.015506934374570847 0.15800000727176666 242 177 179
0.06353447586297989 -0.015506934374570847 0.15800000727176666 241 176 178
0.0639059990644455 -0.015506934374570847 0.15800000727176666 245 179 186
0.0642775148153305 -0.015506934374570847 0.15800000727176666 255 193 200
0.06464903801679611 -0.015506934374570847 0.15800000727176666 255 192 204
0.06460903584957123 -0.015408789739012718 0.15700000524520874 249 182 194
0.0649782046675682 -0.015408789739012718 0.15700000524520874 228 169 172
0.06534737348556519 -0.015408789739012718 0.15700000524520874 215 156 159
0.06571654230356216 -0.015408789739012718 0.15700000524520874 214 157 150
0.06608571112155914 -0.015408789739012718 0.15700000524520874 219 162 155
0.06645487993955612 -0.015408789739012718 0.15700000524520874 212 158 150
0.0668240487575531 -0.015408789739012718 0.15700000524520874 206 152 144
0.06676523387432098 -0.015310644172132015 0.15600000321865082 210 152 150
0.06713205575942993 -0.015310644172132015 0.15600000321865082 215 157 155
0.06793155521154404 -0.015408789739012718 0.15700000524520874 203 145 145
0.06830072402954102 -0.015408789739012718 0.15700000524520874 199 141 141
0.068669892847538 -0.015408789739012718 0.15700000524520874 197 130 133
0.06903906166553497 -0.015408789739012718 0.15700000524520874 189 122 125
0.06940823048353195 -0.015408789739012718 0.15700000524520874 167 105 106
0.06977739930152893 -0.015408789739012718 0.15700000524520874 177 115 116
0.07014656811952591 -0.015408789739012718 0.15700000524520874 189 132 139
0.07051573693752289 -0.015408789739012718 0.15700000524520874 198 141 148
0.07088490575551987 -0.015408789739012718 0.15700000524520874 196 144 149
0.07125407457351685 -0.015408789739012718 0.15700000524520874 187 135 140
0.07162324339151382 -0.015408789739012718 0.15700000524520874 186 134 141
0.0719924122095108 -0.015408789739012718 0.15700000524520874 185 133 140
0.07236158102750778 -0.015408789739012718 0.15700000524520874 185 133 142
0.07273074984550476 -0.015408789739012718 0.15700000524520874 183 131 140
0.07309991866350174 -0.015408789739012718 0.15700000524520874 174 133 141
0.07346908748149872 -0.015408789739012718 0.15700000524520874 171 130 138
0.0738382562994957 -0.015408789739012718 0.15700000524520874 166 127 134
0.07420742511749268 -0.015408789739012718 0.15700000524520874 164 125 132
0.07457659393548965 -0.015408789739012718 0.15700000524520874 164 124 129
0.07542312890291214 -0.015506934374570847 0.15800000727176666 166 126 131
0.07579464465379715 -0.015506934374570847 0.15800000727176666 162 117 124
0.07616616785526276 -0.015506934374570847 0.15800000727176666 160 115 122
0.07653768360614777 -0.015506934374570847 0.15800000727176666 167 110 117
0.07690920680761337 -0.015506934374570847 0.15800000727176666 169 112 119
0.07728073000907898 -0.015506934374570847 0.15800000727176666 185 129 131
0.07765224575996399 -0.015506934374570847 0.15800000727176666 189 133 135
0.0780237689614296 -0.015506934374570847 0.15800000727176666 189 140 141
0.0783952847123146 -0.015506934374570847 0.15800000727176666 190 141 142
0.07876680791378021 -0.015506934374570847 0.15800000727176666 187 144 146
0.07913833111524582 -0.015506934374570847 0.15800000727176666 188 145 147
0.07950984686613083 -0.015506934374570847 0.15800000727176666 182 142 147
0.07988137006759644 -0.015506934374570847 0.15800000727176666 179 139 144
0.08076082170009613 -0.01560507994145155 0.1589999943971634 175 134 142
0.08113469183444977 -0.01560507994145155 0.1589999943971634 170 129 137
0.0815085619688034 -0.01560507994145155 0.1589999943971634 170 127 133
0.08188243210315704 -0.01560507994145155 0.1589999943971634 168 125 131
0.08277364075183868 -0.015703225508332253 0.1599999964237213 173 118 126
0.08314986526966095 -0.015703225508332253 0.1599999964237213 171 116 124
0.08352608978748322 -0.015703225508332253 0.1599999964237213 171 102 115
0.08390230685472488 -0.015703225508332253 0.1599999964237213 165 96 109
0.08480527251958847 -0.01580137014389038 0.16099999845027924 158 86 98
0.08518385142087936 -0.01580137014389038 0.16099999845027924 143 71 83
0.08556242287158966 -0.01580137014389038 0.16099999845027924 156 83 86
0.08594099432229996 -0.01580137014389038 0.16099999845027924 170 97 100
0.08631957322359085 -0.01580137014389038 0.16099999845027924 170 97 95
0.08669814467430115 -0.01580137014389038 0.16099999845027924 170 97 95
0.047867681831121445 -0.01695549488067627 0.1770000010728836 255 228 219
0.04828387871384621 -0.01695549488067627 0.1770000010728836 255 254 239
0.04842493310570717 -0.01685970276594162 0.17599999904632568 255 254 239
0.04856128618121147 -0.01676390878856182 0.17499999701976776 255 255 243
0.048972778022289276 -0.01676390878856182 0.17499999701976776 255 255 243
0.04910207912325859 -0.016668114811182022 0.17399999499320984 255 251 242
0.049511220306158066 -0.016668114811182022 0.17399999499320984 255 249 240
0.049633461982011795 -0.016572320833802223 0.17299999296665192 255 220 218
0.05004025623202324 -0.016572320833802223 0.17299999296665192 239 195 193
0.05015544593334198 -0.016476526856422424 0.1720000058412552 248 181 182
0.050559885799884796 -0.016476526856422424 0.1720000058412552 235 168 169
0.05066801980137825 -0.016380732879042625 0.17100000381469727 220 177 172
0.05107010900974274 -0.016380732879042625 0.17100000381469727 255 235 230
0.051472198218107224 -0.016380732879042625 0.17100000381469727 255 253 242
0.05157092586159706 -0.016284938901662827 0.17000000178813934 255 254 243
0.05197066441178322 -0.016284938901662827 0.17000000178813934 254 255 247
0.05206234008073807 -0.016189144924283028 0.16899999976158142 254 255 247
0.0524597242474556 -0.016189144924283028 0.16899999976158142 254 255 249
0.05254434794187546 -0.016093352809548378 0.1679999977350235 254 255 249
0.05293938145041466 -0.016093352809548378 0.1679999977350235 254 255 249
0.05333441495895386 -0.016093352809548378 0.1679999977350235 254 255 249
0.0534096322953701 -0.01599755883216858 0.16699999570846558 254 255 247
0.05380231514573097 -0.01599755883216858 0.16699999570846558 254 255 247
0.05387047678232193 -0.01590176485478878 0.16599999368190765 251 252 241
0.05426080897450447 -0.01590176485478878 0.16599999368190765 246 247 236
0.05465113744139671 -0.01590176485478878 0.16599999368190765 255 255 245
0.055041469633579254 -0.01590176485478878 0.16599999368190765 255 255 245
0.055097874253988266 -0.01580597087740898 0.16500000655651093 254 255 249
0.05548585578799248 -0.01580597087740898 0.16500000655651093 254 255 249
0.05587383359670639 -0.01580597087740898 0.16500000655651093 254 255 249
0.055920835584402084 -0.015710176900029182 0.164000004529953 254 255 249
0.05630646273493767 -0.015710176900029182 0.164000004529953 254 255 249
0.056346409022808075 -0.015614382922649384 0.16300000250339508 254 255 249
0.05672968551516533 -0.015614382922649384 0.16300000250339508 254 255 249
0.05676257610321045 -0.015518588945269585 0.16200000047683716 254 255 249
0.057143501937389374 -0.015518588945269585 0.16200000047683716 254 255 249
0.0575244277715683 -0.015518588945269585 0.16200000047683716 254 255 249
0.05790535360574722 -0.015518588945269585 0.16200000047683716 254 255 249
0.0579264871776104 -0.01542279589921236 0.16099999845027924 254 255 249
0.05830506235361099 -0.01542279589921236 0.16099999845027924 254 255 249
0.05868363752961159 -0.01542279589921236 0.16099999845027924 254 255 249
0.05906221270561218 -0.01542279589921236 0.16099999845027924 254 255 249
0.05907158926129341 -0.015327001921832561 0.1599999964237213 254 255 249
0.05944781005382538 -0.015327001921832561 0.1599999964237213 255 247 246
0.059824034571647644 -0.015327001921832561 0.1599999964237213 238 215 214
0.06020025908946991 -0.015327001921832561 0.1599999964237213 245 183 180
0.06057647988200188 -0.015327001921832561 0.1599999964237213 238 176 173
0.061319492757320404 -0.015231207944452763 0.1589999943971634 255 242 228
0.06169336289167404 -0.015231207944452763 0.1589999943971634 255 246 232
0.06206723675131798 -0.015231207944452763 0.1589999943971634 255 252 239
0.062441106885671616 -0.015231207944452763 0.1589999943971634 251 238 225
0.06281498074531555 -0.015231207944452763 0.1589999943971634 246 202 200
0.06318885087966919 -0.015231207944452763 0.1589999943971634 235 191 189
0.06316296011209488 -0.015135413967072964 0.15800000727176666 245 183 184
0.06353447586297989 -0.015135413967072964 0.15800000727176666 247 185 186
0.0639059990644455 -0.015135413967072964 0.15800000727176666 239 172 182
0.0642775148153305 -0.015135413967072964 0.15800000727176666 255 193 203
0.06464903801679611 -0.015135413967072964 0.15800000727176666 255 191 202
0.06502056121826172 -0.015135413967072964 0.15800000727176666 255 193 204
0.0649782046675682 -0.01503962092101574 0.15700000524520874 247 188 193
0.06534737348556519 -0.01503962092101574 0.15700000524520874 231 172 177
0.06571654230356216 -0.01503962092101574 0.15700000524520874 221 164 157
0.06608571112155914 -0.01503962092101574 0.15700000524520874 217 160 153
0.06645487993955612 -0.01503962092101574 0.15700000524520874 214 157 150
0.06639841943979263 -0.01494382694363594 0.15600000321865082 212 155 148
0.06676523387432098 -0.01494382694363594 0.15600000321865082 217 159 155
0.06713205575942993 -0.01494382694363594 0.15600000321865082 214 156 152
0.06793155521154404 -0.01503962092101574 0.15700000524520874 207 154 152
0.06830072402954102 -0.01503962092101574 0.15700000524520874 203 150 148
0.068669892847538 -0.01503962092101574 0.15700000524520874 200 141 144
0.06903906166553497 -0.01503962092101574 0.15700000524520874 186 127 130
0.06940823048353195 -0.01503962092101574 0.15700000524520874 167 113 116
0.06977739930152893 -0.01503962092101574 0.15700000524520874 170 116 119
0.07014656811952591 -0.01503962092101574 0.15700000524520874 176 124 129
0.07051573693752289 -0.01503962092101574 0.15700000524520874 191 139 144
0.07088490575551987 -0.01503962092101574 0.15700000524520874 189 144 147
0.07125407457351685 -0.01503962092101574 0.15700000524520874 186 141 144
0.07162324339151382 -0.01503962092101574 0.15700000524520874 187 139 145
0.0719924122095108 -0.01503962092101574 0.15700000524520874 184 136 142
0.07236158102750778 -0.01503962092101574 0.15700000524520874 180 135 142
0.07273074984550476 -0.01503962092101574 0.15700000524520874 178 133 140
0.07309991866350174 -0.01503962092101574 0.15700000524520874 166 127 134
0.07346908748149872 -0.01503962092101574 0.15700000524520874 173 134 141
0.0738382562994957 -0.01503962092101574 0.15700000524520874 165 128 135
0.07420742511749268 -0.01503962092101574 0.15700000524520874 165 128 135
0.07457659393548965 -0.01503962092101574 0.15700000524520874 164 125 132
0.07494576275348663 -0.01503962092101574 0.15700000524520874 164 125 132
0.07579464465379715 -0.015135413967072964 0.15800000727176666 161 121 126
0.07616616785526276 -0.015135413967072964 0.15800000727176666 163 123 128
0.07653768360614777 -0.015135413967072964 0.15800000727176666 164 112 117
0.07690920680761337 -0.015135413967072964 0.15800000727176666 168 116 121
0.07728073000907898 -0.015135413967072964 0.15800000727176666 185 129 133
0.07765224575996399 -0.015135413967072964 0.15800000727176666 200 144 148
0.0780237689614296 -0.015135413967072964 0.15800000727176666 200 153 154
0.0783952847123146 -0.015135413967072964 0.15800000727176666 190 143 144
0.07876680791378021 -0.015135413967072964 0.15800000727176666 184 146 148
0.07913833111524582 -0.015135413967072964 0.15800000727176666 185 147 149
0.07950984686613083 -0.015135413967072964 0.15800000727176666 178 141 148
0.07988137006759644 -0.015135413967072964 0.15800000727176666 176 139 146
0.08025288581848145 -0.015135413967072964 0.15800000727176666 174 137 144
0.08113469183444977 -0.015231207944452763 0.1589999943971634 171 134 141
0.0815085619688034 -0.015231207944452763 0.1589999943971634 170 132 136
0.08188243210315704 -0.015231207944452763 0.1589999943971634 167 129 133
0.08277364075183868 -0.015327001921832561 0.1599999964237213 172 124 130
0.08314986526966095 -0.015327001921832561 0.1599999964237213 165 117 123
0.08352608978748322 -0.015327001921832561 0.1599999964237213 171 104 116
0.08390230685472488 -0.015327001921832561 0.1599999964237213 169 102 114
0.08480527251958847 -0.01542279589921236 0.16099999845027924 166 92 102
0.08518385142087936 -0.01542279589921236 0.16099999845027924 159 85 95
0.08556242287158966 -0.01542279589921236 0.16099999845027924 164 90 93
0.08594099432229996 -0.01542279589921236 0.16099999845027924 170 96 99
0.08631957322359085 -0.01542279589921236 0.16099999845027924 176 102 103
0.08669814467430115 -0.01542279589921236 0.16099999845027924 176 102 103
0.08761756867170334 -0.015518588945269585 0.16200000047683716 182 105 109
0.08799849450588226 -0.015518588945269585 0.16200000047683716 180 103 107
0.047867681831121445 -0.016539299860596657 0.1770000010728836 255 231 227
0.04828387871384621 -0.016539299860596657 0.1770000010728836 255 255 245
0.04842493310570717 -0.016445856541395187 0.17599999904632568 255 255 245
0.04856128618121147 -0.016352415084838867 0.17499999701976776 254 255 247
0.048972778022289276 -0.016352415084838867 0.17499999701976776 254 255 247
0.04910207912325859 -0.016258971765637398 0.17399999499320984 255 255 247
0.049511220306158066 -0.016258971765637398 0.17399999499320984 254 252 244
0.049633461982011795 -0.016165530309081078 0.17299999296665192 255 239 237
0.05004025623202324 -0.016165530309081078 0.17299999296665192 228 209 207
0.05015544593334198 -0.016072086989879608 0.1720000058412552 247 210 205
0.050559885799884796 -0.016072086989879608 0.1720000058412552 234 197 192
0.05066801980137825 -0.015978645533323288 0.17100000381469727 219 204 194
0.05107010900974274 -0.015978645533323288 0.17100000381469727 255 250 240
0.051472198218107224 -0.015978645533323288 0.17100000381469727 255 255 247
0.05157092586159706 -0.01588520221412182 0.17000000178813934 255 255 247
0.05197066441178322 -0.01588520221412182 0.17000000178813934 254 255 249
0.05237039923667908 -0.01588520221412182 0.17000000178813934 254 255 249
0.0524597242474556 -0.0157917607575655 0.16899999976158142 254 255 249
0.05254434794187546 -0.01569831743836403 0.1679999977350235 254 255 249
0.05293938145041466 -0.01569831743836403 0.1679999977350235 254 255 249
0.05333441495895386 -0.01569831743836403 0.1679999977350235 254 255 249
0.0534096322953701 -0.015604875050485134 0.16699999570846558 254 255 249
0.05380231514573097 -0.015604875050485134 0.16699999570846558 254 255 249
0.05387047678232193 -0.01551143266260624 0.16599999368190765 254 255 249
0.05426080897450447 -0.01551143266260624 0.16599999368190765 254 255 249
0.05465113744139671 -0.01551143266260624 0.16599999368190765 254 255 249
0.05470989644527435 -0.015417990274727345 0.16500000655651093 254 255 249
0.055097874253988266 -0.015417990274727345 0.16500000655651093 254 255 249
0.05548585578799248 -0.015417990274727345 0.16500000655651093 254 255 249
0.0555352047085762 -0.01532454788684845 0.164000004529953 254 255 249
0.055920835584402084 -0.01532454788684845 0.164000004529953 254 255 249
0.05630646273493767 -0.01532454788684845 0.164000004529953 254 255 249
0.056346409022808075 -0.015231105498969555 0.16300000250339508 254 255 249
0.05672968551516533 -0.015231105498969555 0.16300000250339508 254 255 249
0.05676257610321045 -0.01513766311109066 0.16200000047683716 254 255 249
0.057143501937389374 -0.01513766311109066 0.16200000047683716 254 255 249
0.0575244277715683 -0.01513766311109066 0.16200000047683716 254 255 249
0.05790535360574722 -0.01513766311109066 0.16200000047683716 254 255 249
0.0579264871776104 -0.015044220723211765 0.16099999845027924 254 255 249
0.05830506235361099 -0.015044220723211765 0.16099999845027924 254 255 249
0.05868363752961159 -0.015044220723211765 0.16099999845027924 254 255 249
0.05906221270561218 -0.015044220723211765 0.16099999845027924 254 255 249
0.05907158926129341 -0.014950779266655445 0.1599999964237213 254 255 249
0.05944781005382538 -0.014950779266655445 0.1599999964237213 255 249 246
0.059824034571647644 -0.014950779266655445 0.1599999964237213 234 218 215
0.06020025908946991 -0.014950779266655445 0.1599999964237213 244 182 179
0.06057647988200188 -0.014950779266655445 0.1599999964237213 238 176 173
0.06095270439982414 -0.014950779266655445 0.1599999964237213 232 160 158
0.06132892519235611 -0.014950779266655445 0.1599999964237213 211 139 137
0.061319492757320404 -0.01485733687877655 0.1589999943971634 255 243 234
0.06169336289167404 -0.01485733687877655 0.1589999943971634 255 248 239
0.06206723675131798 -0.01485733687877655 0.1589999943971634 255 252 243
0.062441106885671616 -0.01485733687877655 0.1589999943971634 255 250 241
0.06281498074531555 -0.01485733687877655 0.1589999943971634 255 214 217
0.06318885087966919 -0.01485733687877655 0.1589999943971634 232 187 190
0.06316296011209488 -0.014763894490897655 0.15800000727176666 243 182 185
0.06353447586297989 -0.014763894490897655 0.15800000727176666 240 179 182
0.0639059990644455 -0.014763894490897655 0.15800000727176666 242 180 188
0.0642775148153305 -0.014763894490897655 0.15800000727176666 255 199 207
0.06464903801679611 -0.014763894490897655 0.15800000727176666 249 192 203
0.06502056121826172 -0.014763894490897655 0.15800000727176666 247 190 201
0.0649782046675682 -0.01467045210301876 0.15700000524520874 233 173 183
0.06534737348556519 -0.01467045210301876 0.15700000524520874 219 159 169
0.06571654230356216 -0.01467045210301876 0.15700000524520874 215 160 159
0.06608571112155914 -0.01467045210301876 0.15700000524520874 212 157 156
0.06645487993955612 -0.01467045210301876 0.15700000524520874 211 158 152
0.06639841943979263 -0.014577009715139866 0.15600000321865082 210 157 151
0.06676523387432098 -0.014577009715139866 0.15600000321865082 219 169 164
0.06713205575942993 -0.014577009715139866 0.15600000321865082 215 165 160
0.06749887019395828 -0.014577009715139866 0.15600000321865082 207 159 155
0.06786568462848663 -0.014577009715139866 0.15600000321865082 201 153 149
0.068669892847538 -0.01467045210301876 0.15700000524520874 185 138 137
0.06903906166553497 -0.01467045210301876 0.15700000524520874 173 126 125
0.06940823048353195 -0.01467045210301876 0.15700000524520874 173 124 125
0.06977739930152893 -0.01467045210301876 0.15700000524520874 166 117 118
0.07014656811952591 -0.01467045210301876 0.15700000524520874 182 134 138
0.07051573693752289 -0.01467045210301876 0.15700000524520874 190 142 146
0.07088490575551987 -0.01467045210301876 0.15700000524520874 181 141 142
0.07125407457351685 -0.01467045210301876 0.15700000524520874 178 138 139
0.07162324339151382 -0.01467045210301876 0.15700000524520874 178 138 141
0.0719924122095108 -0.01467045210301876 0.15700000524520874 178 138 141
0.07236158102750778 -0.01467045210301876 0.15700000524520874 174 136 138
0.07273074984550476 -0.01467045210301876 0.15700000524520874 173 135 137
0.07309991866350174 -0.01467045210301876 0.15700000524520874 169 133 137
0.07346908748149872 -0.01467045210301876 0.15700000524520874 162 126 130
0.0738382562994957 -0.01467045210301876 0.15700000524520874 164 128 132
0.07420742511749268 -0.01467045210301876 0.15700000524520874 169 133 137
0.07457659393548965 -0.01467045210301876 0.15700000524520874 169 133 137
0.07494576275348663 -0.01467045210301876 0.15700000524520874 168 132 136
0.07531493157148361 -0.01467045210301876 0.15700000524520874 168 128 133
0.07616616785526276 -0.014763894490897655 0.15800000727176666 167 127 132
0.07653768360614777 -0.014763894490897655 0.15800000727176666 162 110 115
0.07690920680761337 -0.014763894490897655 0.15800000727176666 167 115 120
0.07728073000907898 -0.014763894490897655 0.15800000727176666 188 134 135
0.07765224575996399 -0.014763894490897655 0.15800000727176666 204 150 151
0.0780237689614296 -0.014763894490897655 0.15800000727176666 193 148 151
0.0783952847123146 -0.014763894490897655 0.15800000727176666 195 150 153
0.07876680791378021 -0.014763894490897655 0.15800000727176666 184 150 158
0.07913833111524582 -0.014763894490897655 0.15800000727176666 180 146 154
0.07950984686613083 -0.014763894490897655 0.15800000727176666 174 146 157
0.07988137006759644 -0.014763894490897655 0.15800000727176666 171 143 154
0.08025288581848145 -0.014763894490897655 0.15800000727176666 170 142 151
0.08062440901994705 -0.014763894490897655 0.15800000727176666 171 143 152
0.0815085619688034 -0.01485733687877655 0.1589999943971634 166 134 139
0.08188243210315704 -0.01485733687877655 0.1589999943971634 166 134 139
0.08225630223751068 -0.01485733687877655 0.1589999943971634 176 128 134
0.08314986526966095 -0.014950779266655445 0.1599999964237213 165 117 123
0.08352608978748322 -0.014950779266655445 0.1599999964237213 169 105 116
0.08390230685472488 -0.014950779266655445 0.1599999964237213 166 102 113
0.08480527251958847 -0.015044220723211765 0.16099999845027924 159 88 97
0.08518385142087936 -0.015044220723211765 0.16099999845027924 170 99 108
0.08556242287158966 -0.015044220723211765 0.16099999845027924 170 95 103
0.08594099432229996 -0.015044220723211765 0.16099999845027924 169 94 102
0.08631957322359085 -0.015044220723211765 0.16099999845027924 178 103 111
0.08669814467430115 -0.015044220723211765 0.16099999845027924 180 105 113
0.08707672357559204 -0.015044220723211765 0.16099999845027924 178 103 113
0.08799849450588226 -0.01513766311109066 0.16200000047683716 180 105 115
0.047719571739435196 -0.016214193776249886 0.17800000309944153 232 158 161
0.047867681831121445 -0.016123102977871895 0.1770000010728836 255 232 235
0.04828387871384621 -0.016123102977871895 0.1770000010728836 255 255 247
0.04842493310570717 -0.016032012179493904 0.17599999904632568 255 255 247
0.04856128618121147 -0.015940919518470764 0.17499999701976776 254 255 249
0.048972778022289276 -0.015940919518470764 0.17499999701976776 254 255 249
0.04910207912325859 -0.015849828720092773 0.17399999499320984 254 255 249
0.049511220306158066 -0.015849828720092773 0.17399999499320984 254 255 249
