0.062419917434453964 -0.012534772045910358 0.15800000727176666 254 255 249
0.06279143691062927 -0.012534772045910358 0.15800000727176666 254 255 249
0.06276319175958633 -0.012455438263714314 0.15700000524520874 254 255 247
0.06313236057758331 -0.012455438263714314 0.15700000524520874 254 255 247
0.06309705972671509 -0.012376104481518269 0.15600000321865082 255 249 247
0.06346388161182404 -0.012376104481518269 0.15600000321865082 255 239 237
0.06383069604635239 -0.012376104481518269 0.15600000321865082 217 182 177
0.06378599256277084 -0.012296770699322224 0.1550000011920929 194 159 154
0.06415046006441116 -0.012296770699322224 0.1550000011920929 193 158 143
0.06451492011547089 -0.012296770699322224 0.1550000011920929 207 172 157
0.0648793876171112 -0.012296770699322224 0.1550000011920929 255 242 225
0.06524385511875153 -0.012296770699322224 0.1550000011920929 255 252 235
0.06560832262039185 -0.012296770699322224 0.1550000011920929 255 255 237
0.0655471533536911 -0.012217436917126179 0.15399999916553497 255 255 237
0.06590927392244339 -0.012217436917126179 0.15399999916553497 255 255 243
0.06627138704061508 -0.012217436917126179 0.15399999916553497 255 255 243
0.06620081514120102 -0.01213810220360756 0.15299999713897705 255 255 247
0.06656058132648468 -0.01213810220360756 0.15299999713897705 254 255 246
0.06692034006118774 -0.01213810220360756 0.15299999713897705 254 254 248
0.06684036552906036 -0.012058768421411514 0.15199999511241913 255 255 249
0.0671977773308754 -0.012058768421411514 0.15199999511241913 255 253 251
0.06755518913269043 -0.012058768421411514 0.15199999511241913 255 252 250
0.06791260093450546 -0.012058768421411514 0.15199999511241913 255 242 252
0.0682700127363205 -0.012058768421411514 0.15199999511241913 231 208 218
0.06862742453813553 -0.012058768421411514 0.15199999511241913 212 187 197
0.06898483633995056 -0.012058768421411514 0.15199999511241913 207 182 192
0.0693422481417656 -0.012058768421411514 0.15199999511241913 212 187 199
0.06969965994358063 -0.012058768421411514 0.15199999511241913 209 184 196
0.06959617137908936 -0.01197943463921547 0.1509999930858612 214 184 198
0.06995122879743576 -0.01197943463921547 0.1509999930858612 222 192 206
0.07030629366636276 -0.01197943463921547 0.1509999930858612 225 179 201
0.07066135108470917 -0.01197943463921547 0.1509999930858612 212 166 188
0.07101641595363617 -0.01197943463921547 0.1509999930858612 195 143 162
0.07137147337198257 -0.01197943463921547 0.1509999930858612 185 133 152
0.07172653079032898 -0.01197943463921547 0.1509999930858612 173 95 104
0.07208159565925598 -0.01197943463921547 0.1509999930858612 148 70 79
0.0731467753648758 -0.01197943463921547 0.1509999930858612 204 137 136
0.0735018402338028 -0.01197943463921547 0.1509999930858612 241 174 173
0.0738568976521492 -0.01197943463921547 0.1509999930858612 222 174 180
0.0742119550704956 -0.01197943463921547 0.1509999930858612 212 164 170
0.07456701993942261 -0.01197943463921547 0.1509999930858612 198 149 160
0.07492207735776901 -0.01197943463921547 0.1509999930858612 185 136 147
0.07527714222669601 -0.01197943463921547 0.1509999930858612 182 136 146
0.07513132691383362 -0.011900100857019424 0.15000000596046448 182 136 146
0.0754840299487114 -0.011900100857019424 0.15000000596046448 173 132 140
0.07583674043416977 -0.011900100857019424 0.15000000596046448 175 134 142
0.07618945091962814 -0.011900100857019424 0.15000000596046448 179 140 147
0.07654216140508652 -0.011900100857019424 0.15000000596046448 171 132 139
0.07689487189054489 -0.011900100857019424 0.15000000596046448 161 123 136
0.07724758237600327 -0.011900100857019424 0.15000000596046448 164 126 139
0.07760028541088104 -0.011900100857019424 0.15000000596046448 160 124 143
0.07795299589633942 -0.011900100857019424 0.15000000596046448 159 123 142
0.07830570638179779 -0.011900100857019424 0.15000000596046448 155 120 136
0.07865841686725616 -0.011900100857019424 0.15000000596046448 158 123 139
0.07901112735271454 -0.011900100857019424 0.15000000596046448 159 125 133
0.07936383038759232 -0.011900100857019424 0.15000000596046448 148 114 122
0.07971654087305069 -0.011900100857019424 0.15000000596046448 134 81 93
0.08006925135850906 -0.011900100857019424 0.15000000596046448 117 64 76
0.08095810562372208 -0.01197943463921547 0.1509999930858612 106 47 52
0.08131317049264908 -0.01197943463921547 0.1509999930858612 123 64 69
0.08166822791099548 -0.01197943463921547 0.1509999930858612 131 71 71
0.08202328532934189 -0.01197943463921547 0.1509999930858612 127 67 67
0.08292390406131744 -0.012058768421411514 0.15199999511241913 122 68 69
0.08382921665906906 -0.01213810220360756 0.15299999713897705 141 87 88
0.08473923802375793 -0.012217436917126179 0.15399999916553497 160 111 112
0.08565395325422287 -0.012296770699322224 0.1550000011920929 163 114 115
0.08601842075586319 -0.012296770699322224 0.1550000011920929 159 117 116
0.08638288825750351 -0.012296770699322224 0.1550000011920929 154 112 111
0.08674735575914383 -0.012296770699322224 0.1550000011920929 146 108 108
0.08767382800579071 -0.012376104481518269 0.15600000321865082 142 104 104
0.08860500901937485 -0.012455438263714314 0.15700000524520874 144 101 105
0.08897417783737183 -0.012455438263714314 0.15700000524520874 139 96 100
0.0893433466553688 -0.012455438263714314 0.15700000524520874 154 104 110
0.08971251547336578 -0.012455438263714314 0.15700000524520874 149 99 105
0.09008168429136276 -0.012455438263714314 0.15700000524520874 139 94 99
0.09045085310935974 -0.012455438263714314 0.15700000524520874 155 110 115
0.09082002192735672 -0.012455438263714314 0.15700000524520874 179 141 134
0.0911891907453537 -0.012455438263714314 0.15700000524520874 174 136 129
0.09155835956335068 -0.012455438263714314 0.15700000524520874 184 148 140
0.09192752838134766 -0.012455438263714314 0.15700000524520874 188 152 144
0.09229669719934464 -0.012455438263714314 0.15700000524520874 173 143 136
0.09266586601734161 -0.012455438263714314 0.15700000524520874 175 145 138
0.09244246035814285 -0.012376104481518269 0.15600000321865082 170 144 142
0.0928092747926712 -0.012376104481518269 0.15600000321865082 157 131 129
0.09317609667778015 -0.012376104481518269 0.15600000321865082 162 123 130
0.0935429111123085 -0.012376104481518269 0.15600000321865082 157 118 125
0.09451171010732651 -0.012455438263714314 0.15700000524520874 157 100 109
0.09488088637590408 -0.012455438263714314 0.15700000524520874 157 100 109
0.09525005519390106 -0.012455438263714314 0.15700000524520874 170 96 97
0.054914552718400955 -0.012933078221976757 0.1679999977350235 255 177 183
0.055765729397535324 -0.012856096029281616 0.16699999570846558 235 196 192
0.055822134017944336 -0.0127791129052639 0.16599999368190765 255 243 239
0.05621246621012688 -0.0127791129052639 0.16599999368190765 255 255 243
0.05660279467701912 -0.0127791129052639 0.16599999368190765 255 255 243
0.05664979666471481 -0.01270213071256876 0.16500000655651093 254 255 249
0.057037774473428726 -0.01270213071256876 0.16500000655651093 254 255 249
0.05742575600743294 -0.01270213071256876 0.16500000655651093 254 255 249
0.05746334791183472 -0.012625147588551044 0.164000004529953 254 255 249
0.0578489787876606 -0.012625147588551044 0.164000004529953 254 255 249
0.05823460593819618 -0.012625147588551044 0.164000004529953 254 255 249
0.058262795209884644 -0.012548165395855904 0.16300000250339508 255 254 249
0.0586460717022419 -0.012548165395855904 0.16300000250339508 255 254 249
0.05866720527410507 -0.012471182271838188 0.16200000047683716 250 209 217
0.059048131108284 -0.012471182271838188 0.16200000047683716 227 186 194
0.05906221270561218 -0.012394200079143047 0.16099999845027924 202 130 144
0.05944078415632248 -0.012394200079143047 0.16099999845027924 177 105 119
0.05944781005382538 -0.012317217886447906 0.1599999964237213 189 135 138
0.059824034571647644 -0.012317217886447906 0.1599999964237213 255 226 229
0.06020025908946991 -0.012317217886447906 0.1599999964237213 255 252 247
0.06057647988200188 -0.012317217886447906 0.1599999964237213 255 252 247
0.06095270439982414 -0.012317217886447906 0.1599999964237213 254 255 247
0.06132892519235611 -0.012317217886447906 0.1599999964237213 254 255 247
0.061705149710178375 -0.012317217886447906 0.1599999964237213 254 255 249
0.06169336289167404 -0.012240234762430191 0.1589999943971634 254 255 249
0.06206723675131798 -0.012240234762430191 0.1589999943971634 254 255 249
0.062441106885671616 -0.012240234762430191 0.1589999943971634 254 255 249
0.062419917434453964 -0.01216325256973505 0.15800000727176666 254 255 247
0.06279143691062927 -0.01216325256973505 0.15800000727176666 254 255 247
0.06276319175958633 -0.012086269445717335 0.15700000524520874 255 251 243
0.06313236057758331 -0.012086269445717335 0.15700000524520874 255 243 235
0.06309705972671509 -0.012009287253022194 0.15600000321865082 255 228 226
0.06346388161182404 -0.012009287253022194 0.15600000321865082 234 195 193
0.06383069604635239 -0.012009287253022194 0.15600000321865082 201 139 138
0.06378599256277084 -0.011932304129004478 0.1550000011920929 169 107 106
0.06415046006441116 -0.011932304129004478 0.1550000011920929 164 91 89
0.06451492011547089 -0.011932304129004478 0.1550000011920929 143 70 68
0.0648793876171112 -0.011932304129004478 0.1550000011920929 191 136 131
0.06524385511875153 -0.011932304129004478 0.1550000011920929 255 224 219
0.06560832262039185 -0.011932304129004478 0.1550000011920929 255 249 237
0.0655471533536911 -0.011855321936309338 0.15399999916553497 255 249 237
0.06590927392244339 -0.011855321936309338 0.15399999916553497 255 251 237
0.06627138704061508 -0.011855321936309338 0.15399999916553497 255 249 235
0.06620081514120102 -0.011778338812291622 0.15299999713897705 255 242 233
0.06656058132648468 -0.011778338812291622 0.15299999713897705 255 239 230
0.06692034006118774 -0.011778338812291622 0.15299999713897705 255 234 233
0.06684036552906036 -0.011701356619596481 0.15199999511241913 255 237 236
0.0671977773308754 -0.011701356619596481 0.15199999511241913 255 236 238
0.06755518913269043 -0.011701356619596481 0.15199999511241913 252 228 230
0.06791260093450546 -0.011701356619596481 0.15199999511241913 243 206 215
0.0682700127363205 -0.011701356619596481 0.15199999511241913 226 189 198
0.06862742453813553 -0.011701356619596481 0.15199999511241913 216 175 183
0.06898483633995056 -0.011701356619596481 0.15199999511241913 214 173 181
0.0693422481417656 -0.011701356619596481 0.15199999511241913 207 167 180
0.06969965994358063 -0.011701356619596481 0.15199999511241913 207 167 180
0.06959617137908936 -0.01162437442690134 0.1509999930858612 218 171 187
0.06995122879743576 -0.01162437442690134 0.1509999930858612 202 155 171
0.07030629366636276 -0.01162437442690134 0.1509999930858612 201 138 155
0.07066135108470917 -0.01162437442690134 0.1509999930858612 186 123 140
0.07101641595363617 -0.01162437442690134 0.1509999930858612 190 114 129
0.07137147337198257 -0.01162437442690134 0.1509999930858612 173 97 112
0.0738568976521492 -0.01162437442690134 0.1509999930858612 204 133 140
0.0742119550704956 -0.01162437442690134 0.1509999930858612 202 131 138
0.07456701993942261 -0.01162437442690134 0.1509999930858612 190 126 139
0.07492207735776901 -0.01162437442690134 0.1509999930858612 190 126 139
0.07527714222669601 -0.01162437442690134 0.1509999930858612 177 119 133
0.07513132691383362 -0.011547391302883625 0.15000000596046448 177 119 133
0.0754840299487114 -0.011547391302883625 0.15000000596046448 180 126 144
0.07583674043416977 -0.011547391302883625 0.15000000596046448 181 127 145
0.07618945091962814 -0.011547391302883625 0.15000000596046448 180 128 145
0.07654216140508652 -0.011547391302883625 0.15000000596046448 179 127 144
0.07689487189054489 -0.011547391302883625 0.15000000596046448 175 123 140
0.07724758237600327 -0.011547391302883625 0.15000000596046448 166 114 131
0.07760028541088104 -0.011547391302883625 0.15000000596046448 160 113 133
0.07795299589633942 -0.011547391302883625 0.15000000596046448 156 109 129
0.07830570638179779 -0.011547391302883625 0.15000000596046448 156 105 118
0.07865841686725616 -0.011547391302883625 0.15000000596046448 143 92 105
0.07901112735271454 -0.011547391302883625 0.15000000596046448 134 72 80
0.07936383038759232 -0.011547391302883625 0.15000000596046448 124 62 70
0.07971654087305069 -0.011547391302883625 0.15000000596046448 125 51 61
0.08006925135850906 -0.011547391302883625 0.15000000596046448 123 49 59
0.08095810562372208 -0.01162437442690134 0.1509999930858612 110 40 44
0.08131317049264908 -0.01162437442690134 0.1509999930858612 126 56 60
0.08166822791099548 -0.01162437442690134 0.1509999930858612 142 80 79
0.08202328532934189 -0.01162437442690134 0.1509999930858612 135 73 72
0.08292390406131744 -0.011701356619596481 0.15199999511241913 132 79 77
0.08382921665906906 -0.011778338812291622 0.15299999713897705 145 92 90
0.08473923802375793 -0.011855321936309338 0.15399999916553497 165 116 115
0.08565395325422287 -0.011932304129004478 0.1550000011920929 177 128 127
0.08601842075586319 -0.011932304129004478 0.1550000011920929 174 130 128
0.08638288825750351 -0.011932304129004478 0.1550000011920929 173 129 127
0.08674735575914383 -0.011932304129004478 0.1550000011920929 167 124 126
0.08767382800579071 -0.012009287253022194 0.15600000321865082 163 120 122
0.08860500901937485 -0.012086269445717335 0.15700000524520874 154 104 112
0.08897417783737183 -0.012086269445717335 0.15700000524520874 145 95 103
0.0904814824461937 -0.012240234762430191 0.1589999943971634 154 97 108
0.09085535258054733 -0.012240234762430191 0.1589999943971634 144 87 98
0.09122922271490097 -0.012240234762430191 0.1589999943971634 140 88 95
0.09160309284925461 -0.012240234762430191 0.1589999943971634 150 98 105
0.09197697043418884 -0.012240234762430191 0.1589999943971634 157 110 109
0.09235084056854248 -0.012240234762430191 0.1589999943971634 180 133 132
0.0921415388584137 -0.01216325256973505 0.15800000727176666 179 138 130
0.0925130546092987 -0.01216325256973505 0.15800000727176666 191 150 142
0.09288457781076431 -0.01216325256973505 0.15800000727176666 178 141 136
0.09325610101222992 -0.01216325256973505 0.15800000727176666 179 142 137
0.09362761676311493 -0.01216325256973505 0.15800000727176666 170 138 134
0.09399913996458054 -0.01216325256973505 0.15800000727176666 163 131 127
0.09437065571546555 -0.01216325256973505 0.15800000727176666 170 130 135
0.09474217891693115 -0.01216325256973505 0.15800000727176666 149 109 114
0.09511370211839676 -0.01216325256973505 0.15800000727176666 154 99 107
0.09548521786928177 -0.01216325256973505 0.15800000727176666 150 95 103
0.09646342694759369 -0.012240234762430191 0.1589999943971634 165 92 95
0.0552414245903492 -0.012612675316631794 0.16899999976158142 255 177 182
0.055309586226940155 -0.012538043782114983 0.1679999977350235 255 178 183
0.055373046547174454 -0.012463413178920746 0.16699999570846558 247 168 173
0.055765729397535324 -0.012463413178920746 0.16699999570846558 230 183 182
0.056158412247896194 -0.012463413178920746 0.16699999570846558 255 240 239
0.05621246621012688 -0.012388781644403934 0.16599999368190765 255 255 241
0.05660279467701912 -0.012388781644403934 0.16599999368190765 255 255 241
0.05664979666471481 -0.012314150109887123 0.16500000655651093 254 255 247
0.057037774473428726 -0.012314150109887123 0.16500000655651093 254 255 247
0.05742575600743294 -0.012314150109887123 0.16500000655651093 254 255 249
0.05746334791183472 -0.012239519506692886 0.164000004529953 254 255 249
0.0578489787876606 -0.012239519506692886 0.164000004529953 254 255 249
0.05823460593819618 -0.012239519506692886 0.164000004529953 254 255 249
0.058262795209884644 -0.012164887972176075 0.16300000250339508 255 253 247
0.0586460717022419 -0.012164887972176075 0.16300000250339508 253 246 240
0.05866720527410507 -0.012090256437659264 0.16200000047683716 246 194 201
0.059048131108284 -0.012090256437659264 0.16200000047683716 203 151 158
0.06020025908946991 -0.011940994299948215 0.1599999964237213 255 244 237
0.06057647988200188 -0.011940994299948215 0.1599999964237213 255 246 239
0.06095270439982414 -0.011940994299948215 0.1599999964237213 255 255 243
0.06132892519235611 -0.011940994299948215 0.1599999964237213 255 255 243
0.061705149710178375 -0.011940994299948215 0.1599999964237213 254 255 245
0.06169336289167404 -0.011866362765431404 0.1589999943971634 254 255 245
0.06206723675131798 -0.011866362765431404 0.1589999943971634 254 255 245
0.062441106885671616 -0.011866362765431404 0.1589999943971634 254 255 245
0.062419917434453964 -0.011791732162237167 0.15800000727176666 255 251 244
0.06279143691062927 -0.011791732162237167 0.15800000727176666 255 250 243
0.06276319175958633 -0.011717100627720356 0.15700000524520874 255 225 221
0.06313236057758331 -0.011717100627720356 0.15700000524520874 239 200 196
0.06309705972671509 -0.011642469093203545 0.15600000321865082 235 170 170
0.06346388161182404 -0.011642469093203545 0.15600000321865082 201 136 136
0.06590927392244339 -0.011493206955492496 0.15399999916553497 247 194 177
0.06627138704061508 -0.011493206955492496 0.15399999916553497 241 188 171
0.06620081514120102 -0.01141857635229826 0.15299999713897705 235 187 172
0.06656058132648468 -0.01141857635229826 0.15299999713897705 231 183 168
0.06692034006118774 -0.01141857635229826 0.15299999713897705 228 175 173
0.06684036552906036 -0.011343944817781448 0.15199999511241913 224 171 169
0.0671977773308754 -0.011343944817781448 0.15199999511241913 221 160 165
0.06755518913269043 -0.011343944817781448 0.15199999511241913 217 156 161
0.06791260093450546 -0.011343944817781448 0.15199999511241913 219 151 159
0.0682700127363205 -0.011343944817781448 0.15199999511241913 207 139 147
0.06862742453813553 -0.011343944817781448 0.15199999511241913 189 127 128
0.06898483633995056 -0.011343944817781448 0.15199999511241913 177 115 116
0.0693422481417656 -0.011343944817781448 0.15199999511241913 167 106 111
0.06924111396074295 -0.011269313283264637 0.1509999930858612 165 104 109
0.06959617137908936 -0.011269313283264637 0.1509999930858612 191 116 131
0.06995122879743576 -0.011269313283264637 0.1509999930858612 160 85 100
0.07618945091962814 -0.0111946826800704 0.15000000596046448 131 52 70
0.07654216140508652 -0.0111946826800704 0.15000000596046448 142 63 81
0.07689487189054489 -0.0111946826800704 0.15000000596046448 145 69 86
0.07724758237600327 -0.0111946826800704 0.15000000596046448 135 59 76
0.07760028541088104 -0.0111946826800704 0.15000000596046448 121 49 65
0.07795299589633942 -0.0111946826800704 0.15000000596046448 116 44 60
0.07830570638179779 -0.0111946826800704 0.15000000596046448 129 54 62
0.07865841686725616 -0.0111946826800704 0.15000000596046448 121 46 54
0.08095810562372208 -0.011269313283264637 0.1509999930858612 107 29 29
0.08131317049264908 -0.011269313283264637 0.1509999930858612 126 48 48
0.08166822791099548 -0.011269313283264637 0.1509999930858612 158 88 88
0.08256649225950241 -0.011343944817781448 0.15199999511241913 160 90 90
0.0834694504737854 -0.01141857635229826 0.15299999713897705 149 94 91
0.08437711745500565 -0.011493206955492496 0.15399999916553497 154 99 96
0.08528948575258255 -0.011567838490009308 0.1550000011920929 163 109 110
0.08620656281709671 -0.011642469093203545 0.15600000321865082 175 121 122
0.08712833374738693 -0.011717100627720356 0.15700000524520874 165 118 117
0.08749750256538391 -0.011717100627720356 0.15700000524520874 176 129 128
0.08786667138338089 -0.011717100627720356 0.15700000524520874 171 126 129
0.08879785239696503 -0.011791732162237167 0.15800000727176666 164 119 122
0.08916937559843063 -0.011791732162237167 0.15800000727176666 141 89 98
0.09010761231184006 -0.011866362765431404 0.1589999943971634 139 87 96
0.0904814824461937 -0.011866362765431404 0.1589999943971634 151 89 101
0.09085535258054733 -0.011866362765431404 0.1589999943971634 145 83 95
0.09122922271490097 -0.011866362765431404 0.1589999943971634 135 78 85
0.09160309284925461 -0.011866362765431404 0.1589999943971634 146 89 96
0.09197697043418884 -0.011866362765431404 0.1589999943971634 137 86 86
0.09235084056854248 -0.011866362765431404 0.1589999943971634 158 107 107
0.0921415388584137 -0.011791732162237167 0.15800000727176666 150 102 98
0.0925130546092987 -0.011791732162237167 0.15800000727176666 173 125 121
0.09288457781076431 -0.011791732162237167 0.15800000727176666 180 137 132
0.09384632855653763 -0.011866362765431404 0.1589999943971634 175 132 127
0.09422019869089127 -0.011866362765431404 0.1589999943971634 165 126 122
0.0945940688252449 -0.011866362765431404 0.1589999943971634 170 131 127
0.09496793895959854 -0.011866362765431404 0.1589999943971634 160 117 123
0.09534181654453278 -0.011866362765431404 0.1589999943971634 145 102 108
0.09631767123937607 -0.011940994299948215 0.1599999964237213 150 100 106
0.09729822725057602 -0.012015625834465027 0.16099999845027924 149 99 105
0.09767680615186691 -0.012015625834465027 0.16099999845027924 161 91 93
0.0552414245903492 -0.01221529021859169 0.16899999976158142 255 177 183
0.055309586226940155 -0.012143010273575783 0.1679999977350235 255 180 183
0.055704619735479355 -0.012143010273575783 0.1679999977350235 245 166 169
0.055765729397535324 -0.012070730328559875 0.16699999570846558 219 166 162
0.056158412247896194 -0.012070730328559875 0.16699999570846558 255 231 227
0.05621246621012688 -0.011998450383543968 0.16599999368190765 255 254 241
0.05660279467701912 -0.011998450383543968 0.16599999368190765 255 254 241
0.05664979666471481 -0.011926170438528061 0.16500000655651093 254 255 247
0.057037774473428726 -0.011926170438528061 0.16500000655651093 254 255 247
0.05742575600743294 -0.011926170438528061 0.16500000655651093 254 255 249
0.05746334791183472 -0.011853890493512154 0.164000004529953 254 255 249
0.0578489787876606 -0.011853890493512154 0.164000004529953 254 255 249
0.05823460593819618 -0.011853890493512154 0.164000004529953 254 255 249
0.058262795209884644 -0.011781610548496246 0.16300000250339508 255 247 242
0.0586460717022419 -0.011781610548496246 0.16300000250339508 238 217 212
0.05866720527410507 -0.011709330603480339 0.16200000047683716 217 146 155
0.059048131108284 -0.011709330603480339 0.16200000047683716 165 94 103
0.06020025908946991 -0.011564771644771099 0.1599999964237213 255 203 205
0.06057647988200188 -0.011564771644771099 0.1599999964237213 255 230 232
0.06095270439982414 -0.011564771644771099 0.1599999964237213 255 251 241
0.06132892519235611 -0.011564771644771099 0.1599999964237213 255 251 241
0.061705149710178375 -0.011564771644771099 0.1599999964237213 255 252 243
0.06169336289167404 -0.011492491699755192 0.1589999943971634 255 252 243
0.06206723675131798 -0.011492491699755192 0.1589999943971634 255 248 242
0.062441106885671616 -0.011492491699755192 0.1589999943971634 255 239 233
0.062419917434453964 -0.011420211754739285 0.15800000727176666 255 215 213
0.06279143691062927 -0.011420211754739285 0.15800000727176666 238 194 192
0.06276319175958633 -0.011347931809723377 0.15700000524520874 218 148 148
0.06313236057758331 -0.011347931809723377 0.15700000524520874 187 117 117
0.0693422481417656 -0.010986533015966415 0.15199999511241913 81 7 12
0.06924111396074295 -0.010914253070950508 0.1509999930858612 81 7 12
0.06959617137908936 -0.010914253070950508 0.1509999930858612 101 23 32
0.06995122879743576 -0.010914253070950508 0.1509999930858612 134 56 65
0.08859101682901382 -0.011637051589787006 0.16099999845027924 153 95 95
0.08786437660455704 -0.011492491699755192 0.1589999943971634 170 112 112
0.08823825418949127 -0.011492491699755192 0.1589999943971634 173 123 120
0.08861212432384491 -0.011492491699755192 0.1589999943971634 178 128 125
0.08898599445819855 -0.011492491699755192 0.1589999943971634 173 126 127
0.08992187678813934 -0.011564771644771099 0.1599999964237213 159 112 113
0.09029810130596161 -0.011564771644771099 0.1599999964237213 149 94 104
0.09124103933572769 -0.011637051589787006 0.16099999845027924 146 91 101
0.09161961078643799 -0.011637051589787006 0.16099999845027924 148 88 100
0.09199818968772888 -0.011637051589787006 0.16099999845027924 148 88 100
0.09180299192667007 -0.011564771644771099 0.1599999964237213 139 79 87
0.09217921644449234 -0.011564771644771099 0.1599999964237213 142 82 90
0.0925554409623146 -0.011564771644771099 0.1599999964237213 137 81 85
0.09293166548013687 -0.011564771644771099 0.1599999964237213 146 90 94
0.09330788254737854 -0.011564771644771099 0.1599999964237213 162 106 108
0.0936841070652008 -0.011564771644771099 0.1599999964237213 157 101 103
0.09347245842218399 -0.011492491699755192 0.1589999943971634 146 96 93
0.09384632855653763 -0.011492491699755192 0.1589999943971634 154 104 101
0.09422019869089127 -0.011492491699755192 0.1589999943971634 170 123 122
0.0945940688252449 -0.011492491699755192 0.1589999943971634 168 121 120
0.09496793895959854 -0.011492491699755192 0.1589999943971634 159 114 121
0.09534181654453278 -0.011492491699755192 0.1589999943971634 150 105 112
0.09631767123937607 -0.011564771644771099 0.1599999964237213 150 100 108
0.09729822725057602 -0.011637051589787006 0.16099999845027924 150 100 108
0.09767680615186691 -0.011637051589787006 0.16099999845027924 161 91 95
0.10049153864383698 -0.011926170438528061 0.16500000655651093 161 91 95
0.05419984087347984 -0.012027689255774021 0.1720000058412552 255 184 179
0.05428681522607803 -0.011957760900259018 0.17100000381469727 255 184 179
0.05468890443444252 -0.011957760900259018 0.17100000381469727 253 179 180
0.054768823087215424 -0.011887832544744015 0.17000000178813934 251 177 178
0.05516855791211128 -0.011887832544744015 0.17000000178813934 255 185 188
0.0552414245903492 -0.011817904189229012 0.16899999976158142 249 175 178
0.055309586226940155 -0.011747975833714008 0.1679999977350235 251 174 176
0.055704619735479355 -0.011747975833714008 0.1679999977350235 244 167 169
0.055765729397535324 -0.011678047478199005 0.16699999570846558 207 149 145
0.056158412247896194 -0.011678047478199005 0.16699999570846558 255 212 208
0.05621246621012688 -0.011608119122684002 0.16599999368190765 255 253 239
0.05660279467701912 -0.011608119122684002 0.16599999368190765 255 253 239
0.05699312686920166 -0.011608119122684002 0.16599999368190765 254 255 247
0.057037774473428726 -0.011538190767168999 0.16500000655651093 254 255 247
0.05742575600743294 -0.011538190767168999 0.16500000655651093 254 255 249
0.05746334791183472 -0.011468262411653996 0.164000004529953 254 255 249
0.0578489787876606 -0.011468262411653996 0.164000004529953 255 253 244
0.05823460593819618 -0.011468262411653996 0.164000004529953 255 254 245
0.058262795209884644 -0.011398334056138992 0.16300000250339508 255 224 227
0.0586460717022419 -0.011398334056138992 0.16300000250339508 203 158 161
0.06095270439982414 -0.011188548058271408 0.1599999964237213 255 205 208
0.06132892519235611 -0.011188548058271408 0.1599999964237213 255 206 209
0.061705149710178375 -0.011188548058271408 0.1599999964237213 248 205 207
0.06208137422800064 -0.011188548058271408 0.1599999964237213 237 194 196
0.06206723675131798 -0.011118619702756405 0.1589999943971634 227 171 175
0.062441106885671616 -0.011118619702756405 0.1589999943971634 210 154 158
0.062419917434453964 -0.011048691347241402 0.15800000727176666 198 121 125
0.06279143691062927 -0.011048691347241402 0.15800000727176666 164 87 91
0.0693422481417656 -0.010629121214151382 0.15199999511241913 90 14 13
0.06924111396074295 -0.01055919285863638 0.1509999930858612 78 2 1
0.06959617137908936 -0.01055919285863638 0.1509999930858612 79 6 4
0.08859101682901382 -0.011258476413786411 0.16099999845027924 167 107 105
0.08896959573030472 -0.011258476413786411 0.16099999845027924 178 118 116
0.08934816718101501 -0.011258476413786411 0.16099999845027924 180 127 125
0.09028404951095581 -0.011328404769301414 0.16200000047683716 171 118 116
0.09066497534513474 -0.011328404769301414 0.16200000047683716 161 109 114
0.09104590117931366 -0.011328404769301414 0.16200000047683716 150 98 103
0.09142682701349258 -0.011328404769301414 0.16200000047683716 150 93 104
0.09180775284767151 -0.011328404769301414 0.16200000047683716 146 89 100
0.09218867868185043 -0.011328404769301414 0.16200000047683716 143 86 95
0.09256960451602936 -0.011328404769301414 0.16200000047683716 154 97 106
0.09295053035020828 -0.011328404769301414 0.16200000047683716 157 101 105
0.09333145618438721 -0.011328404769301414 0.16200000047683716 150 94 98
0.09313391149044037 -0.011258476413786411 0.16099999845027924 140 84 88
0.09351248294115067 -0.011258476413786411 0.16099999845027924 142 86 90
0.09389106184244156 -0.011258476413786411 0.16099999845027924 142 86 90
0.09426963329315186 -0.011258476413786411 0.16099999845027924 154 98 102
0.09464821219444275 -0.011258476413786411 0.16099999845027924 157 107 104
0.09502678364515305 -0.011258476413786411 0.16099999845027924 158 108 105
0.0948127806186676 -0.011188548058271408 0.1599999964237213 161 111 108
0.09518899768590927 -0.011188548058271408 0.1599999964237213 151 101 98
0.09556522220373154 -0.011188548058271408 0.1599999964237213 160 110 116
0.09654108434915543 -0.011258476413786411 0.16099999845027924 157 107 113
0.09691965579986572 -0.011258476413786411 0.16099999845027924 152 100 109
0.0979025661945343 -0.011328404769301414 0.16200000047683716 150 98 107
0.09889017790555954 -0.011398334056138992 0.16300000250339508 158 92 97
0.10049153864383698 -0.011538190767168999 0.16500000655651093 157 91 96
0.05419984087347984 -0.011623249389231205 0.1720000058412552 255 186 185
0.05428681522607803 -0.011555672623217106 0.17100000381469727 255 181 180
0.05468890443444252 -0.011555672623217106 0.17100000381469727 255 188 197
0.054768823087215424 -0.011488095857203007 0.17000000178813934 255 195 204
0.05516855791211128 -0.011488095857203007 0.17000000178813934 255 194 203
0.0552414245903492 -0.011420518159866333 0.16899999976158142 255 186 195
0.05563880875706673 -0.011420518159866333 0.16899999976158142 245 172 175
0.055704619735479355 -0.011352941393852234 0.1679999977350235 226 153 156
0.055765729397535324 -0.011285364627838135 0.16699999570846558 189 129 125
0.056158412247896194 -0.011285364627838135 0.16699999570846558 243 183 179
0.056551095098257065 -0.011285364627838135 0.16699999570846558 255 250 236
0.05660279467701912 -0.011217787861824036 0.16599999368190765 255 251 237
0.05699312686920166 -0.011217787861824036 0.16599999368190765 255 255 243
0.057037774473428726 -0.011150210164487362 0.16500000655651093 255 255 243
0.05742575600743294 -0.011150210164487362 0.16500000655651093 254 255 245
0.05746334791183472 -0.011082633398473263 0.164000004529953 254 255 245
0.0578489787876606 -0.011082633398473263 0.164000004529953 255 248 244
0.05823460593819618 -0.011082633398473263 0.164000004529953 246 227 223
0.058620233088731766 -0.011082633398473263 0.164000004529953 226 165 168
0.0586460717022419 -0.011015056632459164 0.16300000250339508 164 103 106
0.09062740951776505 -0.011082633398473263 0.164000004529953 163 101 98
0.09101303666830063 -0.011082633398473263 0.164000004529953 168 108 108
0.09139867126941681 -0.011082633398473263 0.164000004529953 167 107 107
0.09178429841995239 -0.011082633398473263 0.164000004529953 165 109 113
0.09216992557048798 -0.011082633398473263 0.164000004529953 155 99 103
0.09255555272102356 -0.011082633398473263 0.164000004529953 148 93 101
0.09294117987155914 -0.011082633398473263 0.164000004529953 150 95 103
0.09332681447267532 -0.011082633398473263 0.164000004529953 157 102 110
0.09314101934432983 -0.011015056632459164 0.16300000250339508 163 108 116
0.09352429956197739 -0.011015056632459164 0.16300000250339508 161 104 111
0.09390757977962494 -0.011015056632459164 0.16300000250339508 150 93 100
0.0942908525466919 -0.011015056632459164 0.16300000250339508 139 82 89
0.09467413276433945 -0.011015056632459164 0.16300000250339508 142 85 92
0.0950574055314064 -0.011015056632459164 0.16300000250339508 139 85 88
0.0948551595211029 -0.01094747893512249 0.16200000047683716 145 91 94
0.09523608535528183 -0.01094747893512249 0.16200000047683716 153 103 100
0.09561701118946075 -0.01094747893512249 0.16200000047683716 157 107 104
0.09599793702363968 -0.01094747893512249 0.16200000047683716 164 116 112
0.0963788628578186 -0.01094747893512249 0.16200000047683716 154 106 102
0.09675978869199753 -0.01094747893512249 0.16200000047683716 159 108 110
0.09714071452617645 -0.01094747893512249 0.16200000047683716 160 109 111
0.09812362492084503 -0.011015056632459164 0.16300000250339508 157 100 107
0.09911124408245087 -0.011082633398473263 0.164000004529953 151 94 101
0.09949687123298645 -0.011082633398473263 0.164000004529953 160 94 101
0.10110057890415192 -0.011217787861824036 0.16599999368190765 162 96 103
0.10210230201482773 -0.011285364627838135 0.16699999570846558 168 91 95
0.1037224680185318 -0.011420518159866333 0.16899999976158142 166 89 93
0.05419984087347984 -0.011218809522688389 0.1720000058412552 255 185 191
0.05428681522607803 -0.011153584346175194 0.17100000381469727 255 191 197
0.05468890443444252 -0.011153584346175194 0.17100000381469727 255 193 212
0.054768823087215424 -0.011088358238339424 0.17000000178813934 255 191 210
0.05516855791211128 -0.011088358238339424 0.17000000178813934 242 173 184
0.0552414245903492 -0.011023133061826229 0.16899999976158142 230 161 172
0.05563880875706673 -0.011023133061826229 0.16899999976158142 227 153 161
0.055704619735479355 -0.01095790695399046 0.1679999977350235 197 123 131
0.056099653244018555 -0.01095790695399046 0.1679999977350235 169 102 103
0.056158412247896194 -0.010892681777477264 0.16699999570846558 200 133 134
0.056551095098257065 -0.010892681777477264 0.16699999570846558 255 236 223
0.05660279467701912 -0.010827455669641495 0.16599999368190765 255 246 233
0.05699312686920166 -0.010827455669641495 0.16599999368190765 255 255 239
0.0573834590613842 -0.010827455669641495 0.16599999368190765 255 255 239
0.05742575600743294 -0.0107622304931283 0.16500000655651093 255 255 245
0.05781373381614685 -0.0107622304931283 0.16500000655651093 255 255 245
0.05820171535015106 -0.0107622304931283 0.16500000655651093 255 224 226
0.05823460593819618 -0.01069700438529253 0.164000004529953 196 160 162
0.058620233088731766 -0.01069700438529253 0.164000004529953 177 107 111
0.05900586396455765 -0.01069700438529253 0.164000004529953 135 65 69
0.09149986505508423 -0.010892681777477264 0.16699999570846558 168 100 90
0.0918925479054451 -0.010892681777477264 0.16699999570846558 170 104 100
0.09173262119293213 -0.010827455669641495 0.16599999368190765 169 103 99
0.09212295711040497 -0.010827455669641495 0.16599999368190765 165 100 102
0.09251328557729721 -0.010827455669641495 0.16599999368190765 168 103 105
0.09290361404418945 -0.010827455669641495 0.16599999368190765 171 110 115
0.09329394996166229 -0.010827455669641495 0.16599999368190765 167 106 111
0.09311991930007935 -0.0107622304931283 0.16500000655651093 170 111 116
0.09350789338350296 -0.0107622304931283 0.16500000655651093 178 119 124
0.09389587491750717 -0.0107622304931283 0.16500000655651093 164 109 115
0.09428385645151138 -0.0107622304931283 0.16500000655651093 160 105 111
0.0946718379855156 -0.0107622304931283 0.16500000655651093 155 98 107
0.0950598195195198 -0.0107622304931283 0.16500000655651093 148 91 100
0.09486932307481766 -0.01069700438529253 0.164000004529953 136 79 86
0.09525495767593384 -0.01069700438529253 0.164000004529953 140 83 90
0.09564058482646942 -0.01069700438529253 0.164000004529953 142 86 90
0.096026211977005 -0.01069700438529253 0.164000004529953 148 92 96
0.09641183912754059 -0.01069700438529253 0.164000004529953 151 101 98
0.09679746627807617 -0.01069700438529253 0.164000004529953 159 109 106
0.09718310087919235 -0.01069700438529253 0.164000004529953 169 123 117
0.09756872802972794 -0.01069700438529253 0.164000004529953 163 117 111
0.09795435518026352 -0.01069700438529253 0.164000004529953 159 111 107
0.0983399823307991 -0.01069700438529253 0.164000004529953 150 102 98
0.09872560948133469 -0.01069700438529253 0.164000004529953 161 99 107
0.09971557557582855 -0.0107622304931283 0.16500000655651093 148 86 94
0.10071024298667908 -0.010827455669641495 0.16599999368190765 159 91 99
0.10170961916446686 -0.010892681777477264 0.16699999570846558 163 95 103
0.1027136892080307 -0.01095790695399046 0.1679999977350235 166 92 97
0.1037224680185318 -0.011023133061826229 0.16899999976158142 167 93 98
0.05419984087347984 -0.010814369656145573 0.1720000058412552 250 172 183
0.05460428074002266 -0.010814369656145573 0.1720000058412552 255 186 197
0.05468890443444252 -0.010751496069133282 0.17100000381469727 255 181 203
0.05509099364280701 -0.010751496069133282 0.17100000381469727 241 165 187
0.05516855791211128 -0.010688621550798416 0.17000000178813934 239 167 179
0.05556829646229744 -0.010688621550798416 0.17000000178813934 225 153 165
0.05563880875706673 -0.01062574703246355 0.16899999976158142 185 115 119
0.056036196649074554 -0.01062574703246355 0.16899999976158142 161 91 95
0.056099653244018555 -0.01056287344545126 0.1679999977350235 160 90 90
0.05649469047784805 -0.01056287344545126 0.1679999977350235 163 93 93
0.056551095098257065 -0.010499998927116394 0.16699999570846558 205 150 145
0.056943777948617935 -0.010499998927116394 0.16699999570846558 255 228 223
0.057336460798978806 -0.010499998927116394 0.16699999570846558 255 250 237
0.0573834590613842 -0.010437124408781528 0.16599999368190765 255 250 237
0.05742575600743294 -0.010374250821769238 0.16500000655651093 255 247 245
0.05781373381614685 -0.010374250821769238 0.16500000655651093 255 230 228
0.05820171535015106 -0.010374250821769238 0.16500000655651093 211 161 165
0.05858969688415527 -0.010374250821769238 0.16500000655651093 163 113 117
0.058620233088731766 -0.010311376303434372 0.164000004529953 163 90 93
0.05900586396455765 -0.010311376303434372 0.164000004529953 140 67 70
0.0918925479054451 -0.010499998927116394 0.16699999570846558 184 115 112
0.09228523075580597 -0.010499998927116394 0.16699999570846558 179 110 107
0.09267791360616684 -0.010499998927116394 0.16699999570846558 174 109 111
0.09307059645652771 -0.010499998927116394 0.16699999570846558 174 109 111
0.09346327930688858 -0.010499998927116394 0.16699999570846558 180 119 122
0.09385596215724945 -0.010499998927116394 0.16699999570846558 185 124 127
0.09424864500761032 -0.010499998927116394 0.16699999570846558 179 123 127
0.09464132785797119 -0.010499998927116394 0.16699999570846558 181 125 129
0.09446494281291962 -0.010437124408781528 0.16599999368190765 179 123 127
0.09485527127981186 -0.010437124408781528 0.16599999368190765 161 105 109
0.0952456071972847 -0.010437124408781528 0.16599999368190765 152 92 100
0.09563593566417694 -0.010437124408781528 0.16599999368190765 145 85 93
0.09602627158164978 -0.010437124408781528 0.16599999368190765 140 78 86
0.09641660004854202 -0.010437124408781528 0.16599999368190765 139 77 85
0.09680692851543427 -0.010437124408781528 0.16599999368190765 145 84 89
0.0971972644329071 -0.010437124408781528 0.16599999368190765 145 84 89
0.09699971973896027 -0.010374250821769238 0.16500000655651093 153 98 97
0.09738769382238388 -0.010374250821769238 0.16500000655651093 165 110 109
0.09836825728416443 -0.010437124408781528 0.16599999368190765 168 120 114
0.09875858575105667 -0.010437124408781528 0.16599999368190765 172 124 118
0.09914892166852951 -0.010437124408781528 0.16599999368190765 170 122 118
0.09953925013542175 -0.010437124408781528 0.16599999368190765 163 115 111
0.09992958605289459 -0.010437124408781528 0.16599999368190765 160 101 106
0.10092425346374512 -0.010499998927116394 0.16699999570846558 150 91 96
0.10131693631410599 -0.010499998927116394 0.16699999570846558 157 91 98
0.1023186594247818 -0.01056287344545126 0.1679999977350235 158 92 99
0.10332508385181427 -0.01062574703246355 0.16899999976158142 160 86 94
0.1037224680185318 -0.01062574703246355 0.16899999976158142 168 94 102
0.05460428074002266 -0.010409930720925331 0.1720000058412552 255 184 200
0.05468890443444252 -0.01034940779209137 0.17100000381469727 255 179 199
0.05509099364280701 -0.01034940779209137 0.17100000381469727 238 161 181
0.055493079125881195 -0.01034940779209137 0.17100000381469727 224 149 162
0.05556829646229744 -0.010288884863257408 0.17000000178813934 195 120 133
0.0559680350124836 -0.010288884863257408 0.17000000178813934 157 87 89
0.056367769837379456 -0.010288884863257408 0.17000000178813934 167 97 99
0.056433580815792084 -0.010228361934423447 0.16899999976158142 166 93 91
0.05683096498250961 -0.010228361934423447 0.16899999976158142 171 98 96
0.05688972398638725 -0.010167839005589485 0.1679999977350235 176 103 101
0.05728475749492645 -0.010167839005589485 0.1679999977350235 233 160 158
0.057336460798978806 -0.010107316076755524 0.16699999570846558 255 217 213
0.057729143649339676 -0.010107316076755524 0.16699999570846558 255 229 225
0.05777379125356674 -0.010046793147921562 0.16599999368190765 255 219 223
0.058164119720458984 -0.010046793147921562 0.16599999368190765 213 170 174
0.058554451912641525 -0.010046793147921562 0.16599999368190765 170 116 119
0.05858969688415527 -0.0099862702190876 0.16500000655651093 153 99 102
0.058977674692869186 -0.0099862702190876 0.16500000655651093 166 92 95
0.05900586396455765 -0.00992574729025364 0.164000004529953 148 74 77
0.09244280308485031 -0.010167839005589485 0.1679999977350235 180 114 110
0.09283783286809921 -0.010167839005589485 0.1679999977350235 172 106 102
0.09323287010192871 -0.010167839005589485 0.1679999977350235 171 106 106
0.09362790733575821 -0.010167839005589485 0.1679999977350235 174 109 109
0.09402293711900711 -0.010167839005589485 0.1679999977350235 179 119 119
0.09441797435283661 -0.010167839005589485 0.1679999977350235 181 121 121
0.09481300413608551 -0.010167839005589485 0.1679999977350235 179 121 121
0.09520804136991501 -0.010167839005589485 0.1679999977350235 176 118 118
0.09503401070833206 -0.010107316076755524 0.16699999570846558 158 102 106
0.09542669355869293 -0.010107316076755524 0.16699999570846558 155 99 103
0.0958193764090538 -0.010107316076755524 0.16699999570846558 148 89 92
0.09621205925941467 -0.010107316076755524 0.16699999570846558 138 79 82
0.09660474210977554 -0.010107316076755524 0.16699999570846558 141 75 80
0.09699742496013641 -0.010107316076755524 0.16699999570846558 137 71 76
0.09739010781049728 -0.010107316076755524 0.16699999570846558 145 74 81
0.09778279066085815 -0.010107316076755524 0.16699999570846558 136 65 72
0.09817547351121902 -0.010107316076755524 0.16699999570846558 138 78 78
0.0985681563615799 -0.010107316076755524 0.16699999570846558 153 93 93
0.09896083921194077 -0.010107316076755524 0.16699999570846558 156 103 97
0.09935352206230164 -0.010107316076755524 0.16699999570846558 161 108 102
0.0997462049126625 -0.010107316076755524 0.16699999570846558 162 109 105
0.10013888776302338 -0.010107316076755524 0.16699999570846558 171 118 114
0.10053157061338425 -0.010107316076755524 0.16699999570846558 172 113 116
0.1015285849571228 -0.010167839005589485 0.1679999977350235 149 90 93
0.1019236221909523 -0.010167839005589485 0.1679999977350235 151 88 94
0.10292769223451614 -0.010228361934423447 0.16899999976158142 153 90 96
0.10332508385181427 -0.010228361934423447 0.16899999976158142 160 86 94
0.1043362095952034 -0.010288884863257408 0.17000000178813934 166 92 100
0.05451495945453644 -0.010063662193715572 0.17299999296665192 255 181 191
0.05460428074002266 -0.010005490854382515 0.1720000058412552 255 179 189
0.055493079125881195 -0.009947319515049458 0.17100000381469727 188 113 121
0.05589516833424568 -0.009947319515049458 0.17100000381469727 161 86 94
0.05629725754261017 -0.009947319515049458 0.17100000381469727 160 86 87
0.056367769837379456 -0.009889147244393826 0.17000000178813934 163 89 90
0.05676750838756561 -0.009889147244393826 0.17000000178813934 169 93 90
0.05716724321246147 -0.009889147244393826 0.17000000178813934 176 100 97
0.05767979100346565 -0.00977280456572771 0.1679999977350235 202 129 127
0.057729143649339676 -0.009714633226394653 0.16699999570846558 217 144 142
0.058121826499700546 -0.009714633226394653 0.16699999570846558 204 148 150
0.058164119720458984 -0.009656461887061596 0.16599999368190765 179 123 125
0.058554451912641525 -0.009656461887061596 0.16599999368190765 172 112 112
0.058944784104824066 -0.009656461887061596 0.16599999368190765 168 108 108
0.092595674097538 -0.009830975905060768 0.16899999976158142 166 98 88
0.09299305826425552 -0.009830975905060768 0.16899999976158142 171 107 102
0.09339044243097305 -0.009830975905060768 0.16899999976158142 168 104 99
0.09378782659769058 -0.009830975905060768 0.16899999976158142 169 110 103
0.09418521076440811 -0.009830975905060768 0.16899999976158142 171 112 105
0.09458259493112564 -0.009830975905060768 0.16899999976158142 166 108 106
0.09497998654842377 -0.009830975905060768 0.16899999976158142 177 119 117
0.0953773707151413 -0.009830975905060768 0.16899999976158142 178 123 122
0.09577475488185883 -0.009830975905060768 0.16899999976158142 168 113 112
0.09560307115316391 -0.00977280456572771 0.1679999977350235 148 92 94
0.09599810838699341 -0.00977280456572771 0.1679999977350235 151 95 97
0.0963931456208229 -0.00977280456572771 0.1679999977350235 152 91 94
0.09678817540407181 -0.00977280456572771 0.1679999977350235 147 86 89
0.0971832126379013 -0.00977280456572771 0.1679999977350235 139 69 69
0.09699742496013641 -0.009714633226394653 0.16699999570846558 137 67 67
0.09739010781049728 -0.009714633226394653 0.16699999570846558 151 74 78
0.09778279066085815 -0.009714633226394653 0.16699999570846558 138 61 65
0.09817547351121902 -0.009714633226394653 0.16699999570846558 142 77 77
0.0985681563615799 -0.009714633226394653 0.16699999570846558 144 79 79
0.0995534136891365 -0.00977280456572771 0.1679999977350235 143 89 81
0.099948450922966 -0.00977280456572771 0.1679999977350235 143 89 81
0.1003434881567955 -0.00977280456572771 0.1679999977350235 162 110 101
0.1007385179400444 -0.00977280456572771 0.1679999977350235 166 114 105
0.1011335551738739 -0.00977280456572771 0.1679999977350235 167 114 110
0.1015285849571228 -0.00977280456572771 0.1679999977350235 162 109 105
0.10253030806779861 -0.009830975905060768 0.16899999976158142 163 97 102
0.10292769223451614 -0.009830975905060768 0.16899999976158142 156 90 95
0.10332508385181427 -0.009830975905060768 0.16899999976158142 160 86 89
0.1043362095952034 -0.009889147244393826 0.17000000178813934 162 88 91
0.05846985802054405 -0.009377770125865936 0.1679999977350235 196 127 122
0.05851450935006142 -0.009321950376033783 0.16699999570846558 198 129 124
0.05890719220042229 -0.009321950376033783 0.16699999570846558 188 115 113
0.05929987505078316 -0.009321950376033783 0.16699999570846558 150 77 75
0.09354331344366074 -0.009489410556852818 0.17000000178813934 174 111 101
0.0939430445432663 -0.009489410556852818 0.17000000178813934 175 112 102
0.09434278309345245 -0.009489410556852818 0.17000000178813934 170 113 104
0.09474252164363861 -0.009489410556852818 0.17000000178813934 170 113 104
0.09514226019382477 -0.009489410556852818 0.17000000178813934 163 108 105
0.09554199874401093 -0.009489410556852818 0.17000000178813934 164 109 106
0.09594172984361649 -0.009489410556852818 0.17000000178813934 177 122 121
0.09634146839380264 -0.009489410556852818 0.17000000178813934 165 110 109
0.0967412069439888 -0.009489410556852818 0.17000000178813934 150 94 96
0.09656952321529388 -0.009433590807020664 0.16899999976158142 146 90 92
0.09696691483259201 -0.009433590807020664 0.16899999976158142 149 82 83
0.09736429899930954 -0.009433590807020664 0.16899999976158142 150 83 84
0.0987633466720581 -0.009377770125865936 0.1679999977350235 152 79 80
0.0991583839058876 -0.009377770125865936 0.1679999977350235 156 83 84
0.0995534136891365 -0.009377770125865936 0.1679999977350235 148 91 82
0.099948450922966 -0.009377770125865936 0.1679999977350235 151 94 85
0.1003434881567955 -0.009377770125865936 0.1679999977350235 155 104 90
0.1007385179400444 -0.009377770125865936 0.1679999977350235 154 103 89
