-0.02662985 0.01901235 0.23600002 167 119 111 2.000000
-0.02596444 0.01893179 0.23500001 167 119 111 2.000000
-0.02541186 0.01893179 0.23500001 171 123 115 2.000000
-0.02475350 0.01885123 0.23400001 171 125 117 2.000000
-0.02420327 0.01885123 0.23400001 172 126 118 2.000000
-0.02365305 0.01885123 0.23400001 171 125 119 2.000000
-0.02300409 0.01877067 0.23300001 169 123 117 2.000000
-0.02245621 0.01877067 0.23300001 166 118 112 2.000000
-0.02190834 0.01877067 0.23300001 173 125 119 2.000000
-0.02126879 0.01869011 0.23200001 178 128 123 2.000000
-0.02072326 0.01869011 0.23200001 173 123 118 2.000000
-0.02017774 0.01869011 0.23200001 171 123 117 2.000000
-0.01963222 0.01869011 0.23200001 173 125 119 2.000000
-0.01908669 0.01869011 0.23200001 174 124 117 2.000000
-0.01854117 0.01869011 0.23200001 174 124 117 2.000000
-0.01791808 0.01860954 0.23100001 172 122 115 2.000000
-0.01737491 0.01860954 0.23100001 172 122 115 2.000000
-0.01683174 0.01860954 0.23100001 157 104 98 2.000000
-0.01628856 0.01860954 0.23100001 170 117 111 2.000000
-0.01574539 0.01860954 0.23100001 173 120 114 2.000000
-0.01520222 0.01860954 0.23100001 174 121 115 2.000000
-0.01465905 0.01860954 0.23100001 175 122 116 2.000000
-0.01411588 0.01860954 0.23100001 175 122 116 2.000000
-0.01363146 0.01869011 0.23200001 174 122 113 2.000000
-0.01308594 0.01869011 0.23200001 174 122 113 2.000000
-0.01254041 0.01869011 0.23200001 174 120 110 2.000000
-0.01199489 0.01869011 0.23200001 175 121 111 2.000000
-0.01144937 0.01869011 0.23200001 171 115 103 2.000000
-0.01090384 0.01869011 0.23200001 171 115 103 2.000000
-0.01035832 0.01869011 0.23200001 177 121 109 2.000000
-0.00981280 0.01869011 0.23200001 179 123 111 2.000000
-0.00930722 0.01877067 0.23300001 178 125 112 2.000000
-0.00875934 0.01877067 0.23300001 179 126 113 2.000000
-0.00824671 0.01885123 0.23400001 181 127 117 2.000000
-0.00769648 0.01885123 0.23400001 182 128 118 2.000000
-0.00714626 0.01885123 0.23400001 173 116 107 2.000000
-0.00659603 0.01885123 0.23400001 156 96 85 2.000000
-0.00607164 0.01893179 0.23500001 167 107 96 2.000000
-0.00554255 0.01901235 0.23600002 176 118 106 2.000000
-0.00498762 0.01901235 0.23600002 180 122 110 2.000000
-0.00443269 0.01901235 0.23600002 181 122 113 2.000000
-0.00389419 0.01909291 0.23700002 183 124 115 2.000000
-0.00333691 0.01909291 0.23700002 185 126 117 2.000000
-0.00277963 0.01909291 0.23700002 186 127 118 2.000000
-0.00223173 0.01917347 0.23800001 182 124 112 2.000000
-0.00167210 0.01917347 0.23800001 179 121 109 2.000000
-0.00111247 0.01917347 0.23800001 179 114 105 2.000000
-0.00055516 0.01925403 0.23900001 161 96 87 2.000000
0.00000683 0.01925403 0.23900001 171 103 95 2.000000
0.00057119 0.01933459 0.24000001 173 105 97 2.000000
0.00113552 0.01933459 0.24000001 180 109 102 2.000000
0.00170694 0.01941515 0.24100001 183 112 105 2.000000
0.00227363 0.01941515 0.24100001 187 112 106 2.000000
0.00284031 0.01941515 0.24100001 193 118 112 2.000000
0.00342114 0.01949571 0.24200001 203 111 107 2.000000
0.00400666 0.01957627 0.24300002 182 90 86 2.000000
0.00457805 0.01957627 0.24300002 191 86 79 2.000000
0.00514944 0.01957627 0.24300002 186 81 74 2.000000
0.00574437 0.01965684 0.24400002 194 84 72 2.000000
0.00631811 0.01965684 0.24400002 195 85 73 2.000000
0.00692010 0.01973739 0.24500000 197 81 67 2.000000
-0.04540737 0.02164008 0.26100001 124 42 30 2.000000
-0.04462203 0.02155717 0.26000002 126 44 32 2.000000
-0.04384140 0.02147426 0.25900000 133 53 45 2.000000
-0.04289855 0.02130843 0.25700000 143 63 55 2.000000
-0.04196510 0.02114261 0.25500003 143 71 64 2.000000
-0.04104107 0.02097678 0.25300002 135 63 56 2.000000
-0.04012642 0.02081096 0.25100002 133 67 61 2.000000
-0.03922120 0.02064513 0.24900001 140 74 68 2.000000
-0.03832537 0.02047931 0.24700001 142 86 74 2.000000
-0.03759177 0.02039640 0.24600001 146 93 78 2.000000
-0.03686286 0.02031349 0.24500000 151 98 83 2.000000
-0.03599055 0.02014766 0.24300002 156 110 92 2.000000
-0.03541917 0.02014766 0.24300002 156 110 92 2.000000
-0.03470437 0.02006475 0.24200001 152 108 90 2.000000
-0.03413533 0.02006475 0.24200001 150 106 88 2.000000
-0.03342759 0.01998184 0.24100001 150 106 90 2.000000
-0.03272455 0.01989892 0.24000001 150 106 90 2.000000
-0.03216022 0.01989892 0.24000001 160 118 104 2.000000
-0.03146423 0.01981601 0.23900001 168 126 112 2.000000
-0.03077295 0.01973310 0.23800001 166 128 117 2.000000
-0.03021332 0.01973310 0.23800001 163 125 114 2.000000
-0.02952909 0.01965019 0.23700002 160 124 112 2.000000
-0.02897181 0.01965019 0.23700002 158 122 110 2.000000
-0.02829464 0.01956728 0.23600002 158 120 109 2.000000
-0.02773971 0.01956728 0.23600002 153 115 104 2.000000
-0.02718478 0.01956728 0.23600002 155 112 103 2.000000
-0.02662985 0.01956728 0.23600002 159 116 107 2.000000
-0.02596444 0.01948437 0.23500001 163 117 109 2.000000
-0.02541186 0.01948437 0.23500001 166 120 112 2.000000
-0.02475350 0.01940145 0.23400001 171 125 117 2.000000
-0.02420327 0.01940145 0.23400001 170 124 116 2.000000
-0.02365305 0.01940145 0.23400001 168 122 114 2.000000
-0.02300409 0.01931854 0.23300001 166 120 112 2.000000
-0.02245621 0.01931854 0.23300001 164 116 108 2.000000
-0.02190834 0.01931854 0.23300001 166 118 110 2.000000
-0.02126879 0.01923563 0.23200001 171 123 115 2.000000
-0.02072326 0.01923563 0.23200001 168 120 112 2.000000
-0.02017774 0.01923563 0.23200001 167 119 111 2.000000
-0.01963222 0.01923563 0.23200001 170 122 114 2.000000
-0.01908669 0.01923563 0.23200001 170 122 114 2.000000
-0.01854117 0.01923563 0.23200001 170 122 114 2.000000
-0.01791808 0.01915272 0.23100001 168 120 112 2.000000
-0.01737491 0.01915272 0.23100001 166 118 110 2.000000
-0.01683174 0.01915272 0.23100001 164 114 107 2.000000
-0.01628856 0.01915272 0.23100001 165 115 108 2.000000
-0.01574539 0.01915272 0.23100001 168 115 109 2.000000
-0.01520222 0.01915272 0.23100001 170 117 111 2.000000
-0.01465905 0.01915272 0.23100001 171 118 112 2.000000
-0.01417698 0.01923563 0.23200001 171 118 112 2.000000
-0.01363146 0.01923563 0.23200001 171 118 112 2.000000
-0.01308594 0.01923563 0.23200001 170 117 111 2.000000
-0.01254041 0.01923563 0.23200001 171 117 107 2.000000
-0.01199489 0.01923563 0.23200001 171 117 107 2.000000
-0.01144937 0.01923563 0.23200001 166 108 96 2.000000
-0.01090384 0.01923563 0.23200001 175 117 105 2.000000
-0.01035832 0.01923563 0.23200001 176 118 106 2.000000
-0.00985509 0.01931854 0.23300001 179 121 109 2.000000
-0.00930722 0.01931854 0.23300001 181 123 111 2.000000
-0.00875934 0.01931854 0.23300001 182 124 112 2.000000
-0.00824671 0.01940145 0.23400001 181 123 111 2.000000
-0.00769648 0.01940145 0.23400001 181 123 111 2.000000
-0.00714626 0.01940145 0.23400001 172 113 104 2.000000
-0.00662422 0.01948437 0.23500001 149 89 78 2.000000
-0.00607164 0.01948437 0.23500001 162 102 91 2.000000
-0.00554255 0.01956728 0.23600002 174 114 103 2.000000
-0.00498762 0.01956728 0.23600002 180 120 109 2.000000
-0.00443269 0.01956728 0.23600002 181 121 110 2.000000
-0.00387776 0.01956728 0.23600002 182 122 111 2.000000
-0.00333691 0.01965019 0.23700002 181 123 111 2.000000
-0.00277963 0.01965019 0.23700002 183 125 113 2.000000
-0.00222235 0.01965019 0.23700002 183 122 114 2.000000
-0.00167210 0.01973310 0.23800001 180 119 111 2.000000
-0.00111247 0.01973310 0.23800001 188 117 110 2.000000
-0.00055283 0.01973310 0.23800001 163 92 85 2.000000
0.00000683 0.01981601 0.23900001 166 94 85 2.000000
0.00056881 0.01981601 0.23900001 169 97 88 2.000000
0.00113079 0.01981601 0.23900001 176 101 93 2.000000
0.00169986 0.01989892 0.24000001 184 109 101 2.000000
0.00226419 0.01989892 0.24000001 187 107 101 2.000000
0.00282853 0.01989892 0.24000001 188 108 102 2.000000
0.00340700 0.01998184 0.24100001 201 106 100 2.000000
0.00397369 0.01998184 0.24100001 183 88 82 2.000000
0.00454037 0.01998184 0.24100001 191 84 74 2.000000
0.00510706 0.01998184 0.24100001 187 80 70 2.000000
0.00569729 0.02006475 0.24200001 196 83 68 2.000000
-0.04619741 0.02233906 0.26200002 125 42 30 2.000000
-0.04540737 0.02225379 0.26100001 127 45 33 2.000000
-0.04462203 0.02216853 0.26000002 128 46 34 2.000000
-0.04367213 0.02199800 0.25800002 129 49 41 2.000000
-0.04289855 0.02191274 0.25700000 134 54 46 2.000000
-0.04196510 0.02174222 0.25500003 134 57 52 2.000000
-0.04104107 0.02157169 0.25300002 136 59 54 2.000000
-0.04012642 0.02140116 0.25100002 133 68 59 2.000000
-0.03922120 0.02123063 0.24900001 134 69 60 2.000000
-0.03832537 0.02106011 0.24700001 141 85 71 2.000000
-0.03743895 0.02088958 0.24500000 147 94 79 2.000000
-0.03671240 0.02080432 0.24400002 151 98 83 2.000000
-0.03599055 0.02071905 0.24300002 155 107 90 2.000000
-0.03527341 0.02063379 0.24200001 158 110 93 2.000000
-0.03456096 0.02054852 0.24100001 156 110 92 2.000000
-0.03385322 0.02046326 0.24000001 151 105 87 2.000000
-0.03328888 0.02046326 0.24000001 151 105 87 2.000000
-0.03258820 0.02037800 0.23900001 151 105 87 2.000000
-0.03202622 0.02037800 0.23900001 156 114 100 2.000000
-0.03133258 0.02029273 0.23800001 163 121 107 2.000000
-0.03077295 0.02029273 0.23800001 164 127 113 2.000000
-0.03008637 0.02020747 0.23700002 164 127 113 2.000000
-0.02940450 0.02012221 0.23600002 163 125 114 2.000000
-0.02884957 0.02012221 0.23600002 161 123 112 2.000000
-0.02829464 0.02012221 0.23600002 159 118 108 2.000000
-0.02773971 0.02012221 0.23600002 153 112 102 2.000000
-0.02718478 0.02012221 0.23600002 157 112 101 2.000000
-0.02651701 0.02003694 0.23500001 163 118 107 2.000000
-0.02596444 0.02003694 0.23500001 165 118 107 2.000000
-0.02541186 0.02003694 0.23500001 167 120 109 2.000000
-0.02475350 0.01995168 0.23400001 170 123 112 2.000000
-0.02420327 0.01995168 0.23400001 168 121 110 2.000000
-0.02365305 0.01995168 0.23400001 167 120 109 2.000000
-0.02310282 0.01995168 0.23400001 166 119 108 2.000000
-0.02245621 0.01986641 0.23300001 163 116 105 2.000000
-0.02190834 0.01986641 0.23300001 164 117 106 2.000000
-0.02136046 0.01986641 0.23300001 166 119 108 2.000000
-0.02072326 0.01978115 0.23200001 166 119 108 2.000000
-0.02017774 0.01978115 0.23200001 165 117 109 2.000000
-0.01963222 0.01978115 0.23200001 166 118 110 2.000000
-0.01908669 0.01978115 0.23200001 168 118 111 2.000000
-0.01854117 0.01978115 0.23200001 171 121 114 2.000000
-0.01799565 0.01978115 0.23200001 169 120 110 2.000000
-0.01745012 0.01978115 0.23200001 166 117 107 2.000000
-0.01690460 0.01978115 0.23200001 166 114 103 2.000000
-0.01635908 0.01978115 0.23200001 167 115 104 2.000000
-0.01581355 0.01978115 0.23200001 169 115 105 2.000000
-0.01526803 0.01978115 0.23200001 169 115 105 2.000000
-0.01472251 0.01978115 0.23200001 172 115 106 2.000000
-0.01417698 0.01978115 0.23200001 172 115 106 2.000000
-0.01363146 0.01978115 0.23200001 171 114 107 2.000000
-0.01308594 0.01978115 0.23200001 173 116 109 2.000000
-0.01254041 0.01978115 0.23200001 173 116 107 2.000000
-0.01199489 0.01978115 0.23200001 173 116 107 2.000000
-0.01144937 0.01978115 0.23200001 159 101 89 2.000000
-0.01090384 0.01978115 0.23200001 162 104 92 2.000000
-0.01040297 0.01986641 0.23300001 167 109 97 2.000000
-0.00985509 0.01986641 0.23300001 173 115 103 2.000000
-0.00930722 0.01986641 0.23300001 181 121 110 2.000000
-0.00875934 0.01986641 0.23300001 181 121 110 2.000000
-0.00824671 0.01995168 0.23400001 180 120 109 2.000000
-0.00769648 0.01995168 0.23400001 179 119 108 2.000000
-0.00714626 0.01995168 0.23400001 169 108 100 2.000000
-0.00662422 0.02003694 0.23500001 147 84 74 2.000000
-0.00607164 0.02003694 0.23500001 156 93 83 2.000000
-0.00554255 0.02012221 0.23600002 170 107 95 2.000000
-0.00498762 0.02012221 0.23600002 179 116 104 2.000000
-0.00443269 0.02012221 0.23600002 179 116 104 2.000000
-0.00387776 0.02012221 0.23600002 181 118 106 2.000000
-0.00333691 0.02020747 0.23700002 183 120 110 2.000000
-0.00277963 0.02020747 0.23700002 185 122 112 2.000000
-0.00222235 0.02020747 0.23700002 184 119 110 2.000000
-0.00166507 0.02020747 0.23700002 180 115 106 2.000000
-0.00110779 0.02020747 0.23700002 182 110 101 2.000000
-0.00055283 0.02029273 0.23800001 164 92 83 2.000000
0.00000680 0.02029273 0.23800001 167 90 81 2.000000
0.00056643 0.02029273 0.23800001 169 92 83 2.000000
0.00113079 0.02037800 0.23900001 173 94 83 2.000000
0.00169278 0.02037800 0.23900001 186 107 96 2.000000
0.00225476 0.02037800 0.23900001 190 104 95 2.000000
0.00281674 0.02037800 0.23900001 187 101 92 2.000000
0.00337873 0.02037800 0.23900001 189 92 82 2.000000
0.00394071 0.02037800 0.23900001 187 90 80 2.000000
-0.04445041 0.02269228 0.25900000 132 50 38 2.000000
-0.04367213 0.02260466 0.25800002 130 51 40 2.000000
-0.04273163 0.02242943 0.25600001 129 50 39 2.000000
-0.04180053 0.02225420 0.25400001 127 50 41 2.000000
-0.04087884 0.02207897 0.25200000 124 47 38 2.000000
-0.03996656 0.02190374 0.25000000 121 53 45 2.000000
-0.03906368 0.02172852 0.24800001 137 69 61 2.000000
-0.03817021 0.02155329 0.24600001 146 90 74 2.000000
-0.03743895 0.02146567 0.24500000 146 93 76 2.000000
-0.03656194 0.02129044 0.24300002 153 100 83 2.000000
-0.03584244 0.02120283 0.24200001 155 107 90 2.000000
-0.03527341 0.02120283 0.24200001 157 109 92 2.000000
-0.03456096 0.02111521 0.24100001 154 106 89 2.000000
-0.03385322 0.02102759 0.24000001 151 103 86 2.000000
-0.03315018 0.02093998 0.23900001 149 103 87 2.000000
-0.03258820 0.02093998 0.23900001 150 104 88 2.000000
-0.03202622 0.02093998 0.23900001 159 114 101 2.000000
-0.03133258 0.02085236 0.23800001 163 118 105 2.000000
-0.03064365 0.02076475 0.23700002 165 125 112 2.000000
-0.03008637 0.02076475 0.23700002 165 125 112 2.000000
-0.02940450 0.02067714 0.23600002 162 122 109 2.000000
-0.02884957 0.02067714 0.23600002 160 120 107 2.000000
-0.02829464 0.02067714 0.23600002 159 116 107 2.000000
-0.02773971 0.02067714 0.23600002 153 110 101 2.000000
-0.02718478 0.02067714 0.23600002 154 108 100 2.000000
-0.02662985 0.02067714 0.23600002 162 116 108 2.000000
-0.02596444 0.02058952 0.23500001 164 117 104 2.000000
-0.02541186 0.02058952 0.23500001 165 118 105 2.000000
-0.02485928 0.02058952 0.23500001 165 118 105 2.000000
-0.02420327 0.02050191 0.23400001 166 119 106 2.000000
-0.02365305 0.02050191 0.23400001 167 118 106 2.000000
-0.02310282 0.02050191 0.23400001 164 115 103 2.000000
-0.02255259 0.02050191 0.23400001 160 111 99 2.000000
-0.02190834 0.02041429 0.23300001 161 112 100 2.000000
-0.02136046 0.02041429 0.23300001 167 115 104 2.000000
-0.02081259 0.02041429 0.23300001 167 115 104 2.000000
-0.02026471 0.02041429 0.23300001 166 114 103 2.000000
-0.01963222 0.02032668 0.23200001 167 115 104 2.000000
-0.01908669 0.02032668 0.23200001 169 115 105 2.000000
-0.01854117 0.02032668 0.23200001 170 116 106 2.000000
-0.01799565 0.02032668 0.23200001 168 114 104 2.000000
-0.01745012 0.02032668 0.23200001 167 113 103 2.000000
-0.01690460 0.02032668 0.23200001 160 104 92 2.000000
-0.01635908 0.02032668 0.23200001 162 106 94 2.000000
-0.01581355 0.02032668 0.23200001 170 110 97 2.000000
-0.01526803 0.02032668 0.23200001 173 113 100 2.000000
-0.01472251 0.02032668 0.23200001 173 114 105 2.000000
-0.01417698 0.02032668 0.23200001 171 112 103 2.000000
-0.01363146 0.02032668 0.23200001 172 113 104 2.000000
-0.01308594 0.02032668 0.23200001 174 115 106 2.000000
-0.01254041 0.02032668 0.23200001 171 115 103 2.000000
-0.01199489 0.02032668 0.23200001 174 118 106 2.000000
-0.01149872 0.02041429 0.23300001 154 96 84 2.000000
-0.01095084 0.02041429 0.23300001 158 100 88 2.000000
-0.01040297 0.02041429 0.23300001 168 108 95 2.000000
-0.00985509 0.02041429 0.23300001 174 114 101 2.000000
-0.00930722 0.02041429 0.23300001 182 119 107 2.000000
-0.00879694 0.02050191 0.23400001 179 116 104 2.000000
-0.00824671 0.02050191 0.23400001 174 114 103 2.000000
-0.00769648 0.02050191 0.23400001 175 115 104 2.000000
-0.00714626 0.02050191 0.23400001 168 108 97 2.000000
-0.00662422 0.02058952 0.23500001 146 83 71 2.000000
-0.00607164 0.02058952 0.23500001 144 81 69 2.000000
-0.00551907 0.02058952 0.23500001 166 98 86 2.000000
-0.00498762 0.02067714 0.23600002 178 110 98 2.000000
-0.00443269 0.02067714 0.23600002 180 115 104 2.000000
-0.00387776 0.02067714 0.23600002 178 113 102 2.000000
-0.00332283 0.02067714 0.23600002 180 115 106 2.000000
-0.00277963 0.02076475 0.23700002 182 117 108 2.000000
-0.00222235 0.02076475 0.23700002 182 114 104 2.000000
-0.00166507 0.02076475 0.23700002 181 113 103 2.000000
-0.00110779 0.02076475 0.23700002 180 105 95 2.000000
-0.00055051 0.02076475 0.23700002 169 94 84 2.000000
0.00000677 0.02076475 0.23700002 171 89 77 2.000000
0.00056405 0.02076475 0.23700002 171 89 77 2.000000
0.00112606 0.02085236 0.23800001 172 86 75 2.000000
0.00168569 0.02085236 0.23800001 173 87 76 2.000000
0.00224532 0.02085236 0.23800001 178 85 74 2.000000
-0.04367213 0.02321132 0.25800002 131 52 39 2.000000
-0.04273163 0.02303139 0.25600001 128 49 36 2.000000
-0.04180053 0.02285146 0.25400001 127 51 39 2.000000
-0.04087884 0.02267153 0.25200000 127 51 39 2.000000
-0.03996656 0.02249159 0.25000000 117 49 37 2.000000
-0.03906368 0.02231166 0.24800001 135 67 55 2.000000
-0.03817021 0.02213173 0.24600001 142 82 67 2.000000
-0.03728614 0.02195180 0.24400002 140 87 70 2.000000
-0.03656194 0.02186183 0.24300002 155 102 85 2.000000
-0.03584244 0.02177186 0.24200001 154 103 87 2.000000
-0.03512765 0.02168190 0.24100001 154 103 87 2.000000
-0.03456096 0.02168190 0.24100001 148 100 85 2.000000
-0.03385322 0.02159193 0.24000001 147 99 84 2.000000
-0.03315018 0.02150196 0.23900001 146 97 85 2.000000
-0.03258820 0.02150196 0.23900001 145 96 84 2.000000
-0.03202622 0.02150196 0.23900001 159 112 99 2.000000
-0.03133258 0.02141200 0.23800001 166 119 106 2.000000
-0.03064365 0.02132203 0.23700002 163 121 107 2.000000
-0.03008637 0.02132203 0.23700002 164 122 108 2.000000
-0.02952909 0.02132203 0.23700002 163 121 109 2.000000
-0.02884957 0.02123206 0.23600002 159 117 105 2.000000
-0.02829464 0.02123206 0.23600002 155 109 101 2.000000
-0.02773971 0.02123206 0.23600002 149 103 95 2.000000
-0.02718478 0.02123206 0.23600002 144 96 88 2.000000
-0.02662985 0.02123206 0.23600002 158 110 102 2.000000
-0.02596444 0.02114210 0.23500001 158 109 99 2.000000
-0.02541186 0.02114210 0.23500001 162 113 103 2.000000
-0.02485928 0.02114210 0.23500001 162 113 103 2.000000
-0.02430671 0.02114210 0.23500001 165 116 106 2.000000
-0.02365305 0.02105213 0.23400001 167 115 106 2.000000
-0.02310282 0.02105213 0.23400001 164 112 103 2.000000
-0.02255259 0.02105213 0.23400001 159 102 95 2.000000
-0.02200237 0.02105213 0.23400001 158 101 94 2.000000
-0.02136046 0.02096217 0.23300001 170 114 102 2.000000
-0.02081259 0.02096217 0.23300001 167 111 99 2.000000
-0.02026471 0.02096217 0.23300001 169 113 101 2.000000
-0.01971684 0.02096217 0.23300001 170 114 102 2.000000
-0.01908669 0.02087220 0.23200001 172 116 104 2.000000
-0.01854117 0.02087220 0.23200001 172 116 104 2.000000
-0.01799565 0.02087220 0.23200001 169 113 101 2.000000
-0.01745012 0.02087220 0.23200001 167 111 99 2.000000
-0.01690460 0.02087220 0.23200001 158 100 88 2.000000
-0.01635908 0.02087220 0.23200001 150 92 80 2.000000
-0.01581355 0.02087220 0.23200001 169 104 93 2.000000
-0.01526803 0.02087220 0.23200001 172 107 96 2.000000
-0.01472251 0.02087220 0.23200001 171 108 98 2.000000
-0.01417698 0.02087220 0.23200001 171 108 98 2.000000
-0.01363146 0.02087220 0.23200001 172 112 101 2.000000
-0.01308594 0.02087220 0.23200001 174 114 103 2.000000
-0.01254041 0.02087220 0.23200001 169 111 99 2.000000
-0.01204659 0.02096217 0.23300001 174 116 104 2.000000
-0.01144937 0.02087220 0.23200001 147 89 77 2.000000
-0.01095084 0.02096217 0.23300001 141 83 71 2.000000
-0.01040297 0.02096217 0.23300001 160 100 87 2.000000
-0.00985509 0.02096217 0.23300001 176 116 103 2.000000
-0.00930722 0.02096217 0.23300001 176 113 99 2.000000
-0.00879694 0.02105213 0.23400001 178 115 101 2.000000
-0.00824671 0.02105213 0.23400001 176 113 99 2.000000
-0.00769648 0.02105213 0.23400001 177 114 100 2.000000
-0.00714626 0.02105213 0.23400001 167 104 92 2.000000
-0.00662422 0.02114210 0.23500001 151 83 73 2.000000
-0.00607164 0.02114210 0.23500001 151 83 73 2.000000
-0.00551907 0.02114210 0.23500001 162 91 82 2.000000
-0.00496649 0.02114210 0.23500001 172 101 92 2.000000
-0.00443269 0.02123206 0.23600002 179 108 99 2.000000
-0.00387776 0.02123206 0.23600002 181 110 101 2.000000
-0.00332283 0.02123206 0.23600002 182 111 102 2.000000
-0.00276791 0.02123206 0.23600002 184 113 104 2.000000
-0.00221298 0.02123206 0.23600002 184 113 102 2.000000
-0.00165805 0.02123206 0.23600002 186 115 104 2.000000
-0.00110312 0.02123206 0.23600002 192 113 100 2.000000
-0.00054819 0.02123206 0.23600002 175 96 83 2.000000
0.00000674 0.02123206 0.23600002 174 87 74 2.000000
0.00056167 0.02123206 0.23600002 174 87 74 2.000000
-0.04350286 0.02372566 0.25700000 123 44 31 2.000000
-0.04256471 0.02354103 0.25500003 123 44 31 2.000000
-0.04163596 0.02335639 0.25300002 127 51 37 2.000000
-0.04071663 0.02317176 0.25100002 130 54 40 2.000000
-0.03980669 0.02298712 0.24900001 129 55 42 2.000000
-0.03890617 0.02280249 0.24700001 136 62 49 2.000000
-0.03801505 0.02261785 0.24500000 138 73 60 2.000000
-0.03728614 0.02252554 0.24400002 137 81 67 2.000000
-0.03656194 0.02243322 0.24300002 155 99 85 2.000000
-0.03584244 0.02234090 0.24200001 150 102 87 2.000000
-0.03512765 0.02224858 0.24100001 150 102 87 2.000000
-0.03456096 0.02224858 0.24100001 147 99 84 2.000000
-0.03385322 0.02215626 0.24000001 144 96 81 2.000000
-0.03315018 0.02206394 0.23900001 141 92 80 2.000000
-0.03258820 0.02206394 0.23900001 141 92 80 2.000000
-0.03202622 0.02206394 0.23900001 164 113 99 2.000000
-0.03133258 0.02197163 0.23800001 168 117 103 2.000000
-0.03077295 0.02197163 0.23800001 167 121 105 2.000000
-0.03008637 0.02187931 0.23700002 168 122 106 2.000000
-0.02952909 0.02187931 0.23700002 164 122 108 2.000000
-0.02884957 0.02178699 0.23600002 157 115 101 2.000000
-0.02829464 0.02178699 0.23600002 154 108 100 2.000000
-0.02773971 0.02178699 0.23600002 148 102 94 2.000000
-0.02718478 0.02178699 0.23600002 138 90 82 2.000000
-0.02662985 0.02178699 0.23600002 152 104 96 2.000000
-0.02607493 0.02178699 0.23600002 159 107 96 2.000000
-0.02541186 0.02169468 0.23500001 162 110 99 2.000000
-0.02485928 0.02169468 0.23500001 164 112 101 2.000000
-0.02430671 0.02169468 0.23500001 167 115 104 2.000000
-0.02365305 0.02160236 0.23400001 165 111 101 2.000000
-0.02310282 0.02160236 0.23400001 163 109 99 2.000000
-0.02255259 0.02160236 0.23400001 164 100 93 2.000000
-0.02200237 0.02160236 0.23400001 153 89 82 2.000000
-0.02145214 0.02160236 0.23400001 166 106 93 2.000000
-0.02081259 0.02151004 0.23300001 170 110 97 2.000000
-0.02026471 0.02151004 0.23300001 167 111 95 2.000000
-0.01971684 0.02151004 0.23300001 170 114 98 2.000000
-0.01916897 0.02151004 0.23300001 169 113 99 2.000000
-0.01854117 0.02141772 0.23200001 167 111 97 2.000000
-0.01799565 0.02141772 0.23200001 167 109 95 2.000000
-0.01745012 0.02141772 0.23200001 172 114 100 2.000000
-0.01690460 0.02141772 0.23200001 161 98 86 2.000000
-0.01635908 0.02141772 0.23200001 142 79 67 2.000000
-0.01581355 0.02141772 0.23200001 170 102 90 2.000000
-0.01526803 0.02141772 0.23200001 171 103 91 2.000000
-0.01472251 0.02141772 0.23200001 170 107 95 2.000000
-0.01417698 0.02141772 0.23200001 171 108 96 2.000000
-0.01363146 0.02141772 0.23200001 172 109 97 2.000000
-0.01308594 0.02141772 0.23200001 171 108 96 2.000000
-0.01254041 0.02141772 0.23200001 169 109 96 2.000000
-0.01199489 0.02141772 0.23200001 169 109 96 2.000000
-0.01149872 0.02151004 0.23300001 147 89 77 2.000000
-0.01095084 0.02151004 0.23300001 139 81 69 2.000000
-0.01040297 0.02151004 0.23300001 145 85 72 2.000000
-0.00985509 0.02151004 0.23300001 175 115 102 2.000000
-0.00930722 0.02151004 0.23300001 176 111 98 2.000000
-0.00879694 0.02160236 0.23400001 178 113 100 2.000000
-0.00824671 0.02160236 0.23400001 180 116 100 2.000000
-0.00769648 0.02160236 0.23400001 178 114 98 2.000000
-0.00714626 0.02160236 0.23400001 154 89 76 2.000000
-0.00659603 0.02160236 0.23400001 156 84 75 2.000000
-0.00604581 0.02160236 0.23400001 156 84 75 2.000000
-0.00551907 0.02169468 0.23500001 159 84 76 2.000000
-0.00496649 0.02169468 0.23500001 163 88 80 2.000000
-0.00441391 0.02169468 0.23500001 171 99 90 2.000000
-0.00386133 0.02169468 0.23500001 181 109 100 2.000000
-0.00330875 0.02169468 0.23500001 183 112 103 2.000000
-0.00276791 0.02178699 0.23600002 182 111 102 2.000000
-0.00221298 0.02178699 0.23600002 183 112 96 2.000000
-0.00165805 0.02178699 0.23600002 187 116 100 2.000000
-0.04239779 0.02404597 0.25400001 124 45 32 2.000000
-0.04147139 0.02385663 0.25200000 124 48 34 2.000000
-0.04055441 0.02366729 0.25000000 129 53 39 2.000000
-0.03964683 0.02347795 0.24800001 130 56 41 2.000000
-0.03874865 0.02328861 0.24600001 133 59 44 2.000000
-0.03801505 0.02319394 0.24500000 131 59 48 2.000000
-0.03713333 0.02300461 0.24300002 134 76 62 2.000000
-0.03656194 0.02300461 0.24300002 157 99 85 2.000000
-0.03584244 0.02290994 0.24200001 150 99 85 2.000000
-0.03512765 0.02281527 0.24100001 149 98 84 2.000000
-0.03456096 0.02281527 0.24100001 146 98 83 2.000000
-0.03385322 0.02272060 0.24000001 144 96 81 2.000000
-0.03315018 0.02262593 0.23900001 136 87 75 2.000000
-0.03258820 0.02262593 0.23900001 136 87 75 2.000000
-0.03202622 0.02262593 0.23900001 147 93 83 2.000000
-0.03133258 0.02253126 0.23800001 161 107 97 2.000000
-0.03077295 0.02253126 0.23800001 162 113 101 2.000000
-0.03008637 0.02243659 0.23700002 164 115 103 2.000000
-0.02952909 0.02243659 0.23700002 160 113 100 2.000000
-0.02897181 0.02243659 0.23700002 158 111 98 2.000000
-0.02841453 0.02243659 0.23700002 154 107 96 2.000000
-0.02773971 0.02234192 0.23600002 152 105 94 2.000000
-0.02718478 0.02234192 0.23600002 136 84 73 2.000000
-0.02662985 0.02234192 0.23600002 145 93 82 2.000000
-0.02607493 0.02234192 0.23600002 162 109 96 2.000000
-0.02541186 0.02224725 0.23500001 162 109 96 2.000000
-0.02485928 0.02224725 0.23500001 164 111 98 2.000000
-0.02430671 0.02224725 0.23500001 165 112 99 2.000000
-0.02375413 0.02224725 0.23500001 165 109 97 2.000000
-0.02310282 0.02215258 0.23400001 162 106 94 2.000000
-0.02255259 0.02215258 0.23400001 165 102 92 2.000000
-0.02200237 0.02215258 0.23400001 147 84 74 2.000000
-0.02145214 0.02215258 0.23400001 151 86 73 2.000000
-0.02081259 0.02205792 0.23300001 177 112 99 2.000000
-0.02026471 0.02205792 0.23300001 169 111 95 2.000000
-0.01971684 0.02205792 0.23300001 169 111 95 2.000000
-0.01916897 0.02205792 0.23300001 168 110 94 2.000000
-0.01862109 0.02205792 0.23300001 169 111 95 2.000000
-0.01799565 0.02196324 0.23200001 170 110 97 2.000000
-0.01745012 0.02196324 0.23200001 172 112 99 2.000000
-0.01690460 0.02196324 0.23200001 163 95 83 2.000000
-0.01635908 0.02196324 0.23200001 138 70 58 2.000000
-0.01581355 0.02196324 0.23200001 166 95 84 2.000000
-0.01526803 0.02196324 0.23200001 174 103 92 2.000000
-0.01472251 0.02196324 0.23200001 173 105 95 2.000000
-0.01417698 0.02196324 0.23200001 173 105 95 2.000000
-0.01363146 0.02196324 0.23200001 170 105 94 2.000000
-0.01308594 0.02196324 0.23200001 172 107 96 2.000000
-0.01254041 0.02196324 0.23200001 174 111 99 2.000000
-0.01199489 0.02196324 0.23200001 165 102 90 2.000000
-0.01149872 0.02205792 0.23300001 163 100 88 2.000000
-0.01095084 0.02205792 0.23300001 149 86 74 2.000000
-0.01040297 0.02205792 0.23300001 142 77 64 2.000000
-0.00985509 0.02205792 0.23300001 169 104 91 2.000000
-0.00930722 0.02205792 0.23300001 179 112 97 2.000000
-0.00875934 0.02205792 0.23300001 179 112 97 2.000000
-0.00821147 0.02205792 0.23300001 179 112 97 2.000000
-0.00769648 0.02215258 0.23400001 178 111 96 2.000000
-0.00714626 0.02215258 0.23400001 160 93 78 2.000000
-0.00659603 0.02215258 0.23400001 161 86 76 2.000000
-0.00604581 0.02215258 0.23400001 162 87 77 2.000000
-0.00549558 0.02215258 0.23400001 162 85 76 2.000000
-0.00496649 0.02224725 0.23500001 162 85 76 2.000000
-0.00441391 0.02224725 0.23500001 173 96 87 2.000000
-0.00386133 0.02224725 0.23500001 184 107 98 2.000000
-0.04114226 0.02425514 0.25000000 126 51 34 2.000000
-0.04022998 0.02406110 0.24800001 129 54 37 2.000000
-0.03859114 0.02377004 0.24500000 130 55 38 2.000000
-0.03785989 0.02367302 0.24400002 124 53 37 2.000000
-0.03713333 0.02357600 0.24300002 131 71 60 2.000000
-0.03641148 0.02347898 0.24200001 155 95 84 2.000000
-0.03584244 0.02347898 0.24200001 145 89 77 2.000000
-0.03512765 0.02338195 0.24100001 150 94 82 2.000000
-0.03441756 0.02328493 0.24000001 152 101 85 2.000000
-0.03385322 0.02328493 0.24000001 142 91 75 2.000000
-0.03315018 0.02318791 0.23900001 127 76 60 2.000000
-0.03258820 0.02318791 0.23900001 127 76 60 2.000000
-0.03202622 0.02318791 0.23900001 152 95 86 2.000000
-0.03133258 0.02309089 0.23800001 164 107 98 2.000000
-0.03077295 0.02309089 0.23800001 160 108 97 2.000000
-0.03008637 0.02299387 0.23700002 162 110 99 2.000000
-0.02952909 0.02299387 0.23700002 159 112 99 2.000000
-0.02897181 0.02299387 0.23700002 158 111 98 2.000000
-0.02841453 0.02299387 0.23700002 154 105 93 2.000000
-0.02773971 0.02289685 0.23600002 147 98 86 2.000000
-0.02718478 0.02289685 0.23600002 136 80 68 2.000000
-0.02662985 0.02289685 0.23600002 137 81 69 2.000000
-0.02607493 0.02289685 0.23600002 165 105 94 2.000000
-0.02552000 0.02289685 0.23600002 165 105 94 2.000000
-0.02485928 0.02279983 0.23500001 166 106 93 2.000000
-0.02430671 0.02279983 0.23500001 166 106 93 2.000000
-0.02375413 0.02279983 0.23500001 167 107 94 2.000000
-0.02320155 0.02279983 0.23500001 165 105 92 2.000000
-0.02255259 0.02270281 0.23400001 163 98 89 2.000000
-0.02200237 0.02270281 0.23400001 142 77 68 2.000000
-0.02145214 0.02270281 0.23400001 139 71 59 2.000000
-0.02090191 0.02270281 0.23400001 161 93 81 2.000000
-0.02026471 0.02260579 0.23300001 171 108 94 2.000000
-0.01971684 0.02260579 0.23300001 170 107 93 2.000000
-0.01916897 0.02260579 0.23300001 171 108 94 2.000000
-0.01862109 0.02260579 0.23300001 170 107 93 2.000000
-0.01799565 0.02250877 0.23200001 172 107 94 2.000000
-0.01745012 0.02250877 0.23200001 172 107 94 2.000000
-0.01690460 0.02250877 0.23200001 166 94 85 2.000000
-0.01635908 0.02250877 0.23200001 143 71 62 2.000000
-0.01581355 0.02250877 0.23200001 155 84 73 2.000000
-0.01526803 0.02250877 0.23200001 175 104 93 2.000000
-0.01472251 0.02250877 0.23200001 173 105 95 2.000000
-0.01417698 0.02250877 0.23200001 173 105 95 2.000000
-0.01363146 0.02250877 0.23200001 169 104 93 2.000000
-0.01308594 0.02250877 0.23200001 170 105 94 2.000000
-0.01254041 0.02250877 0.23200001 173 108 95 2.000000
-0.01199489 0.02250877 0.23200001 170 105 92 2.000000
-0.01149872 0.02260579 0.23300001 166 99 84 2.000000
-0.01095084 0.02260579 0.23300001 147 80 65 2.000000
-0.01040297 0.02260579 0.23300001 152 82 68 2.000000
-0.00985509 0.02260579 0.23300001 166 96 82 2.000000
-0.00930722 0.02260579 0.23300001 174 104 90 2.000000
-0.00875934 0.02260579 0.23300001 177 107 93 2.000000
-0.00821147 0.02260579 0.23300001 174 107 92 2.000000
-0.00766359 0.02260579 0.23300001 175 108 93 2.000000
-0.00711572 0.02260579 0.23300001 161 90 76 2.000000
-0.00659603 0.02270281 0.23400001 164 88 76 2.000000
-0.00604581 0.02270281 0.23400001 162 86 74 2.000000
-0.04097769 0.02474362 0.24900001 130 52 36 2.000000
-0.03932709 0.02444550 0.24600001 131 56 39 2.000000
-0.03843362 0.02424676 0.24400002 131 58 40 2.000000
-0.03770472 0.02414738 0.24300002 125 52 34 2.000000
-0.03698052 0.02404801 0.24200001 131 66 55 2.000000
-0.03641148 0.02404801 0.24200001 151 86 75 2.000000
-0.03569433 0.02394864 0.24100001 147 87 76 2.000000
-0.03512765 0.02394864 0.24100001 147 87 76 2.000000
-0.03441756 0.02384927 0.24000001 141 83 69 2.000000
-0.03385322 0.02384927 0.24000001 132 74 60 2.000000
-0.03315018 0.02374990 0.23900001 130 74 60 2.000000
-0.03258820 0.02374990 0.23900001 128 72 58 2.000000
-0.03202622 0.02374990 0.23900001 151 93 81 2.000000
-0.03133258 0.02365052 0.23800001 162 104 92 2.000000
-0.03077295 0.02365052 0.23800001 160 107 94 2.000000
-0.03008637 0.02355115 0.23700002 162 109 96 2.000000
-0.02952909 0.02355115 0.23700002 161 110 96 2.000000
-0.02897181 0.02355115 0.23700002 159 108 94 2.000000
-0.02841453 0.02355115 0.23700002 153 100 87 2.000000
-0.02785725 0.02355115 0.23700002 134 81 68 2.000000
-0.02718478 0.02345178 0.23600002 140 80 67 2.000000
-0.02662985 0.02345178 0.23600002 137 77 64 2.000000
-0.02607493 0.02345178 0.23600002 157 94 82 2.000000
-0.02552000 0.02345178 0.23600002 169 106 94 2.000000
-0.02485928 0.02335241 0.23500001 167 104 92 2.000000
-0.02430671 0.02335241 0.23500001 167 104 92 2.000000
-0.02375413 0.02335241 0.23500001 165 102 90 2.000000
-0.02320155 0.02335241 0.23500001 167 104 92 2.000000
-0.02264897 0.02335241 0.23500001 156 91 80 2.000000
-0.02200237 0.02325304 0.23400001 137 72 61 2.000000
-0.02145214 0.02325304 0.23400001 139 72 57 2.000000
-0.02090191 0.02325304 0.23400001 151 84 69 2.000000
-0.02026471 0.02315366 0.23300001 171 104 89 2.000000
-0.01971684 0.02315366 0.23300001 170 103 88 2.000000
-0.01916897 0.02315366 0.23300001 168 103 90 2.000000
-0.01862109 0.02315366 0.23300001 169 104 91 2.000000
-0.01807321 0.02315366 0.23300001 173 102 91 2.000000
-0.01745012 0.02305429 0.23200001 169 98 87 2.000000
-0.01690460 0.02305429 0.23200001 161 86 78 2.000000
-0.01635908 0.02305429 0.23200001 155 80 72 2.000000
-0.01581355 0.02305429 0.23200001 148 76 67 2.000000
-0.01526803 0.02305429 0.23200001 157 85 76 2.000000
-0.01472251 0.02305429 0.23200001 177 106 95 2.000000
-0.01417698 0.02305429 0.23200001 172 101 90 2.000000
-0.01363146 0.02305429 0.23200001 173 105 93 2.000000
-0.01308594 0.02305429 0.23200001 173 105 93 2.000000
-0.01254041 0.02305429 0.23200001 176 106 92 2.000000
-0.01199489 0.02305429 0.23200001 170 100 86 2.000000
-0.01144937 0.02305429 0.23200001 164 93 79 2.000000
-0.01090384 0.02305429 0.23200001 153 82 68 2.000000
-0.01035832 0.02305429 0.23200001 157 83 70 2.000000
-0.00985509 0.02315366 0.23300001 157 83 70 2.000000
-0.00930722 0.02315366 0.23300001 169 95 82 2.000000
-0.00875934 0.02315366 0.23300001 179 105 92 2.000000
-0.00821147 0.02315366 0.23300001 177 101 87 2.000000
-0.00766359 0.02315366 0.23300001 171 95 81 2.000000
-0.03974332 0.02492222 0.24500000 134 53 38 2.000000
-0.03900736 0.02482050 0.24400002 131 56 37 2.000000
-0.03827611 0.02471877 0.24300002 133 60 40 2.000000
-0.03770472 0.02471877 0.24300002 127 54 34 2.000000
-0.03698052 0.02461705 0.24200001 139 71 61 2.000000
-0.03641148 0.02461705 0.24200001 146 78 68 2.000000
-0.03569433 0.02451533 0.24100001 143 80 70 2.000000
-0.03512765 0.02451533 0.24100001 141 78 68 2.000000
-0.03441756 0.02441360 0.24000001 139 76 66 2.000000
-0.03385322 0.02441360 0.24000001 134 71 61 2.000000
-0.03315018 0.02431188 0.23900001 133 70 60 2.000000
-0.03258820 0.02431188 0.23900001 132 69 59 2.000000
-0.03202622 0.02431188 0.23900001 146 88 74 2.000000
-0.03133258 0.02421016 0.23800001 159 101 87 2.000000
-0.03077295 0.02421016 0.23800001 158 102 90 2.000000
-0.03008637 0.02410843 0.23700002 158 102 90 2.000000
-0.02952909 0.02410843 0.23700002 156 100 88 2.000000
-0.02897181 0.02410843 0.23700002 151 95 83 2.000000
-0.02841453 0.02410843 0.23700002 147 87 76 2.000000
-0.02785725 0.02410843 0.23700002 137 77 66 2.000000
-0.02718478 0.02400671 0.23600002 142 77 66 2.000000
-0.02662985 0.02400671 0.23600002 138 73 62 2.000000
-0.02607493 0.02400671 0.23600002 143 80 68 2.000000
-0.02552000 0.02400671 0.23600002 170 107 95 2.000000
-0.02496507 0.02400671 0.23600002 164 101 89 2.000000
-0.02430671 0.02390498 0.23500001 164 101 89 2.000000
-0.02375413 0.02390498 0.23500001 164 101 89 2.000000
-0.02320155 0.02390498 0.23500001 163 100 88 2.000000
-0.02264897 0.02390498 0.23500001 151 86 73 2.000000
-0.02200237 0.02380326 0.23400001 144 79 66 2.000000
-0.02145214 0.02380326 0.23400001 143 76 61 2.000000
-0.02090191 0.02380326 0.23400001 145 78 63 2.000000
-0.02035169 0.02380326 0.23400001 174 104 90 2.000000
-0.01971684 0.02370154 0.23300001 169 99 85 2.000000
-0.01916897 0.02370154 0.23300001 166 99 84 2.000000
-0.01862109 0.02370154 0.23300001 168 101 86 2.000000
-0.01807321 0.02370154 0.23300001 173 103 89 2.000000
-0.01745012 0.02359981 0.23200001 166 96 82 2.000000
-0.01690460 0.02359981 0.23200001 158 81 72 2.000000
-0.01635908 0.02359981 0.23200001 157 80 71 2.000000
-0.01581355 0.02359981 0.23200001 155 78 69 2.000000
-0.01526803 0.02359981 0.23200001 160 83 74 2.000000
-0.01472251 0.02359981 0.23200001 166 95 81 2.000000
-0.01417698 0.02359981 0.23200001 169 98 84 2.000000
-0.01363146 0.02359981 0.23200001 173 102 88 2.000000
-0.01308594 0.02359981 0.23200001 175 104 90 2.000000
-0.01254041 0.02359981 0.23200001 178 104 91 2.000000
-0.01199489 0.02359981 0.23200001 170 96 83 2.000000
-0.01144937 0.02359981 0.23200001 160 85 68 2.000000
-0.01090384 0.02359981 0.23200001 158 83 66 2.000000
-0.01035832 0.02359981 0.23200001 160 82 66 2.000000
-0.00981280 0.02359981 0.23200001 160 82 66 2.000000
-0.03827611 0.02529016 0.24300002 132 57 38 2.000000
-0.03754956 0.02518609 0.24200001 135 60 41 2.000000
-0.03682771 0.02508201 0.24100001 138 66 55 2.000000
-0.03626102 0.02508201 0.24100001 135 63 52 2.000000
-0.03569433 0.02508201 0.24100001 139 68 61 2.000000
-0.03498189 0.02497794 0.24000001 135 64 57 2.000000
-0.03441756 0.02497794 0.24000001 133 62 55 2.000000
-0.03385322 0.02497794 0.24000001 135 64 57 2.000000
-0.03315018 0.02487386 0.23900001 135 64 57 2.000000
-0.03258820 0.02487386 0.23900001 132 61 54 2.000000
-0.03202622 0.02487386 0.23900001 149 86 74 2.000000
-0.03133258 0.02476979 0.23800001 157 94 82 2.000000
-0.03077295 0.02476979 0.23800001 158 98 87 2.000000
-0.03021332 0.02476979 0.23800001 158 98 87 2.000000
-0.02952909 0.02466571 0.23700002 154 94 83 2.000000
-0.02897181 0.02466571 0.23700002 147 87 76 2.000000
-0.02841453 0.02466571 0.23700002 144 79 70 2.000000
-0.02785725 0.02466571 0.23700002 142 77 68 2.000000
-0.02718478 0.02456164 0.23600002 143 75 67 2.000000
-0.02662985 0.02456164 0.23600002 142 74 66 2.000000
-0.02607493 0.02456164 0.23600002 139 71 63 2.000000
-0.02552000 0.02456164 0.23600002 157 89 81 2.000000
-0.02496507 0.02456164 0.23600002 165 100 89 2.000000
-0.02430671 0.02445756 0.23500001 164 99 88 2.000000
-0.02375413 0.02445756 0.23500001 164 99 86 2.000000
-0.02320155 0.02445756 0.23500001 162 97 84 2.000000
-0.02264897 0.02445756 0.23500001 149 85 69 2.000000
-0.02200237 0.02435349 0.23400001 147 83 67 2.000000
-0.02145214 0.02435349 0.23400001 146 79 64 2.000000
-0.02090191 0.02435349 0.23400001 146 79 64 2.000000
-0.02035169 0.02435349 0.23400001 158 88 74 2.000000
-0.01971684 0.02424941 0.23300001 168 98 84 2.000000
-0.01916897 0.02424941 0.23300001 167 97 83 2.000000
-0.01862109 0.02424941 0.23300001 167 97 83 2.000000
-0.01807321 0.02424941 0.23300001 176 102 89 2.000000
-0.01745012 0.02414534 0.23200001 162 88 75 2.000000
-0.01690460 0.02414534 0.23200001 159 80 69 2.000000
-0.01635908 0.02414534 0.23200001 157 78 67 2.000000
-0.01581355 0.02414534 0.23200001 157 78 67 2.000000
-0.01526803 0.02414534 0.23200001 158 79 68 2.000000
-0.01472251 0.02414534 0.23200001 164 85 74 2.000000
-0.01417698 0.02414534 0.23200001 169 90 79 2.000000
-0.01363146 0.02414534 0.23200001 173 97 85 2.000000
-0.01308594 0.02414534 0.23200001 174 98 86 2.000000
-0.01254041 0.02414534 0.23200001 180 98 88 2.000000
-0.01199489 0.02414534 0.23200001 170 88 78 2.000000
-0.03498189 0.02554227 0.24000001 136 60 48 2.000000
-0.03427415 0.02543584 0.23900001 134 57 48 2.000000
-0.03371216 0.02543584 0.23900001 139 62 53 2.000000
-0.03315018 0.02543584 0.23900001 139 62 55 2.000000
-0.03258820 0.02543584 0.23900001 139 62 55 2.000000
-0.03202622 0.02543584 0.23900001 146 78 70 2.000000
-0.03133258 0.02532942 0.23800001 159 91 83 2.000000
-0.03077295 0.02532942 0.23800001 151 88 78 2.000000
-0.03021332 0.02532942 0.23800001 155 92 82 2.000000
-0.02952909 0.02522299 0.23700002 150 87 77 2.000000
-0.02897181 0.02522299 0.23700002 144 81 71 2.000000
-0.02841453 0.02522299 0.23700002 151 80 73 2.000000
-0.02785725 0.02522299 0.23700002 148 77 70 2.000000
-0.02718478 0.02511657 0.23600002 143 71 64 2.000000
-0.02662985 0.02511657 0.23600002 143 71 64 2.000000
-0.02607493 0.02511657 0.23600002 142 71 64 2.000000
-0.02552000 0.02511657 0.23600002 149 78 71 2.000000
-0.02485928 0.02501014 0.23500001 168 97 90 2.000000
-0.02430671 0.02501014 0.23500001 163 92 85 2.000000
-0.02375413 0.02501014 0.23500001 158 93 80 2.000000
-0.02320155 0.02501014 0.23500001 155 90 77 2.000000
-0.02255259 0.02490371 0.23400001 147 83 65 2.000000
-0.02200237 0.02490371 0.23400001 147 83 65 2.000000
-0.02145214 0.02490371 0.23400001 152 81 65 2.000000
-0.02090191 0.02490371 0.23400001 149 78 62 2.000000
-0.02035169 0.02490371 0.23400001 147 76 62 2.000000
-0.01971684 0.02479729 0.23300001 163 92 78 2.000000
-0.01916897 0.02479729 0.23300001 164 93 79 2.000000
-0.01862109 0.02479729 0.23300001 167 96 82 2.000000
-0.01799565 0.02469086 0.23200001 175 96 85 2.000000
-0.01745012 0.02469086 0.23200001 155 76 65 2.000000
-0.01690460 0.02469086 0.23200001 157 75 63 2.000000
-0.01635908 0.02469086 0.23200001 156 74 62 2.000000
-0.01581355 0.02469086 0.23200001 159 77 65 2.000000
-0.01526803 0.02469086 0.23200001 160 78 66 2.000000
-0.01472251 0.02469086 0.23200001 163 81 69 2.000000
-0.03189221 0.02588905 0.23800001 142 67 57 2.000000
-0.03133258 0.02588905 0.23800001 161 86 76 2.000000
-0.03064365 0.02578028 0.23700002 156 85 76 2.000000
-0.03008637 0.02578028 0.23700002 155 84 75 2.000000
-0.02952909 0.02578028 0.23700002 147 76 67 2.000000
-0.02897181 0.02578028 0.23700002 146 75 66 2.000000
-0.02829464 0.02567150 0.23600002 151 76 70 2.000000
-0.02773971 0.02567150 0.23600002 152 77 71 2.000000
-0.02718478 0.02567150 0.23600002 148 73 67 2.000000
-0.02662985 0.02567150 0.23600002 148 73 67 2.000000
-0.02607493 0.02567150 0.23600002 149 74 68 2.000000
-0.02552000 0.02567150 0.23600002 145 70 64 2.000000
-0.02485928 0.02556272 0.23500001 162 90 81 2.000000
-0.02430671 0.02556272 0.23500001 162 90 81 2.000000
-0.02375413 0.02556272 0.23500001 155 84 70 2.000000
-0.02320155 0.02556272 0.23500001 150 79 65 2.000000
-0.02255259 0.02545394 0.23400001 151 77 62 2.000000
-0.02200237 0.02545394 0.23400001 152 78 63 2.000000
-0.02145214 0.02545394 0.23400001 155 82 64 2.000000
-0.02090191 0.02545394 0.23400001 154 81 63 2.000000
-0.02026471 0.02534516 0.23300001 153 78 61 2.000000
-0.01971684 0.02534516 0.23300001 156 81 64 2.000000
-0.01916897 0.02534516 0.23300001 162 86 72 2.000000
-0.01862109 0.02534516 0.23300001 165 89 75 2.000000
-0.01799565 0.02523639 0.23200001 169 86 74 2.000000
-0.01745012 0.02523639 0.23200001 158 75 63 2.000000
-0.01690460 0.02523639 0.23200001 159 73 62 2.000000
-0.02884957 0.02622643 0.23600002 149 72 65 2.000000
-0.02829464 0.02622643 0.23600002 152 72 66 2.000000
-0.02773971 0.02622643 0.23600002 153 73 67 2.000000
-0.02718478 0.02622643 0.23600002 153 73 67 2.000000
-0.02662985 0.02622643 0.23600002 153 73 67 2.000000
-0.02596444 0.02611530 0.23500001 153 73 67 2.000000
-0.02541186 0.02611530 0.23500001 151 71 65 2.000000
-0.02485928 0.02611530 0.23500001 157 77 71 2.000000
-0.02430671 0.02611530 0.23500001 158 78 72 2.000000
-0.02375413 0.02611530 0.23500001 158 75 65 2.000000
-0.02310282 0.02600417 0.23400001 157 74 64 2.000000
-0.02255259 0.02600417 0.23400001 156 74 59 2.000000
-0.02200237 0.02600417 0.23400001 157 75 60 2.000000
-0.02145214 0.02600417 0.23400001 160 78 63 2.000000
-0.02081259 0.02589304 0.23300001 160 78 63 2.000000
-0.02026471 0.02589304 0.23300001 161 79 64 2.000000
-0.02485928 0.02666787 0.23500001 160 69 62 2.000000
-0.02430671 0.02666787 0.23500001 165 74 67 2.000000
-0.02365305 0.02655439 0.23400001 167 73 67 2.000000
-0.02310282 0.02655439 0.23400001 165 71 65 2.000000
0.01269781 -0.00286390 0.25700000 203 62 54 1.000000
0.00864837 -0.00215408 0.24500000 244 92 83 1.000000
0.00933741 -0.00218046 0.24800001 235 85 75 1.000000
0.01000057 -0.00219805 0.25000000 236 86 76 1.000000
0.01071548 -0.00222442 0.25300002 255 113 101 1.000000
0.01144449 -0.00225080 0.25600001 255 117 105 1.000000
0.01214056 -0.00226838 0.25800002 255 116 111 1.000000
0.01289545 -0.00229476 0.26100001 207 65 60 1.000000
0.00389124 -0.00152003 0.23600002 222 94 86 1.000000
0.00446501 -0.00152647 0.23700002 234 104 97 1.000000
0.00504348 -0.00153291 0.23800001 253 123 116 1.000000
0.00562666 -0.00153935 0.23900001 255 129 120 1.000000
0.00621453 -0.00154579 0.24000001 255 130 121 1.000000
0.00680711 -0.00155223 0.24100001 255 125 116 1.000000
0.00743499 -0.00156511 0.24300002 234 95 86 1.000000
0.00807228 -0.00157799 0.24500000 250 106 94 1.000000
0.00871897 -0.00159087 0.24700001 255 114 102 1.000000
0.00941272 -0.00161020 0.25000000 250 106 94 1.000000
0.01008057 -0.00162308 0.25200000 249 105 93 1.000000
0.01080018 -0.00164240 0.25500003 254 109 100 1.000000
0.01153390 -0.00166172 0.25800002 255 111 102 1.000000
0.01228173 -0.00168105 0.26100001 255 118 114 1.000000
0.00000657 -0.00094056 0.23000000 230 119 110 1.000000
0.00054977 -0.00094465 0.23100001 238 127 118 1.000000
0.00109767 -0.00094874 0.23200001 244 127 120 1.000000
0.00164320 -0.00094874 0.23200001 249 132 125 1.000000
0.00219815 -0.00095283 0.23300001 251 133 124 1.000000
0.00275781 -0.00095692 0.23400001 255 137 128 1.000000
0.00333631 -0.00096510 0.23600002 255 137 132 1.000000
0.00390773 -0.00096919 0.23700002 230 107 102 1.000000
0.00448385 -0.00097328 0.23800001 253 130 125 1.000000
0.00506467 -0.00097737 0.23900001 255 135 130 1.000000
0.00562666 -0.00097737 0.23900001 255 132 127 1.000000
0.00621453 -0.00098145 0.24000001 254 131 126 1.000000
0.00683536 -0.00098963 0.24200001 255 134 125 1.000000
0.00743499 -0.00099372 0.24300002 241 109 100 1.000000
0.00807228 -0.00100190 0.24500000 255 124 109 1.000000
0.00875427 -0.00101417 0.24800001 255 124 109 1.000000
0.00941272 -0.00102235 0.25000000 255 118 105 1.000000
0.01012057 -0.00103462 0.25300002 247 107 94 1.000000
0.01088489 -0.00105097 0.25700000 253 113 100 1.000000
0.01162331 -0.00106324 0.26000002 254 114 101 1.000000
0.01232879 -0.00107142 0.26200002 255 119 115 1.000000
-0.00583911 -0.00039279 0.22600001 236 116 105 1.000000
-0.00530770 -0.00039279 0.22600001 245 125 114 1.000000
-0.00479742 -0.00039453 0.22700001 241 123 112 1.000000
-0.00426365 -0.00039453 0.22700001 243 130 119 1.000000
-0.00374631 -0.00039626 0.22800002 243 130 119 1.000000
-0.00322428 -0.00039800 0.22900002 218 111 103 1.000000
-0.00268581 -0.00039800 0.22900002 184 77 69 1.000000
-0.00215671 -0.00039974 0.23000000 186 87 76 1.000000
-0.00161589 -0.00039974 0.23000000 192 93 82 1.000000
-0.00107507 -0.00039974 0.23000000 214 115 104 1.000000
-0.00053425 -0.00039974 0.23000000 226 127 116 1.000000
0.00000660 -0.00040148 0.23100001 230 125 116 1.000000
0.00055215 -0.00040322 0.23200001 236 131 122 1.000000
0.00109767 -0.00040322 0.23200001 243 134 126 1.000000
0.00165028 -0.00040495 0.23300001 245 136 128 1.000000
0.00220759 -0.00040669 0.23400001 252 138 132 1.000000
0.00276960 -0.00040843 0.23500001 253 139 133 1.000000
0.00333631 -0.00041017 0.23600002 255 139 135 1.000000
0.00390773 -0.00041191 0.23700002 238 119 115 1.000000
0.00448385 -0.00041364 0.23800001 253 132 128 1.000000
0.00506467 -0.00041538 0.23900001 255 134 130 1.000000
0.00562666 -0.00041538 0.23900001 255 134 128 1.000000
0.00621453 -0.00041712 0.24000001 255 134 128 1.000000
0.00683536 -0.00042060 0.24200001 255 131 123 1.000000
0.00746559 -0.00042407 0.24400002 248 120 112 1.000000
0.00807228 -0.00042581 0.24500000 253 124 112 1.000000
0.00875427 -0.00043102 0.24800001 254 125 113 1.000000
0.00941272 -0.00043450 0.25000000 255 122 110 1.000000
0.01016057 -0.00044145 0.25400001 243 107 95 1.000000
0.01088489 -0.00044667 0.25700000 255 117 106 1.000000
0.01162331 -0.00045188 0.26000002 255 119 108 1.000000
0.01237584 -0.00045709 0.26300001 255 118 115 1.000000
-0.01038685 0.00013556 0.22100002 244 119 108 1.000000
-0.00991184 0.00013617 0.22200002 249 122 109 1.000000
-0.00943213 0.00013679 0.22300000 251 124 111 1.000000
