0.01336532 -0.02656503 0.24700001 255 223 169 0.000000
0.01400258 -0.02667258 0.24800001 255 220 168 0.000000
0.01464454 -0.02678013 0.24900001 255 220 168 0.000000
0.01773694 -0.02796319 0.26000002 242 203 152 0.000000
0.02002266 -0.02860850 0.26600000 241 197 140 0.000000
0.02072576 -0.02871605 0.26700002 240 196 139 0.000000
0.02143356 -0.02882360 0.26800001 244 203 141 0.000000
0.02214606 -0.02893115 0.26900002 254 213 151 0.000000
0.02294794 -0.02914625 0.27100003 254 217 154 0.000000
0.02367220 -0.02925380 0.27200001 255 228 165 0.000000
0.02440116 -0.02936135 0.27300000 255 237 172 0.000000
0.02513482 -0.02946890 0.27400002 255 241 176 0.000000
0.02587319 -0.02957645 0.27500001 255 247 182 0.000000
0.02651982 -0.02957645 0.27500001 255 249 186 0.000000
0.02726525 -0.02968401 0.27600002 255 247 184 0.000000
0.02801537 -0.02979155 0.27700001 255 252 190 0.000000
0.02866670 -0.02979155 0.27700001 255 255 193 0.000000
0.02931804 -0.02979155 0.27700001 255 255 193 0.000000
0.02996938 -0.02979155 0.27700001 255 255 193 0.000000
0.03062071 -0.02979155 0.27700001 255 255 199 0.000000
0.03127205 -0.02979155 0.27700001 255 255 199 0.000000
0.03192338 -0.02979155 0.27700001 255 238 217 0.000000
-0.03835583 -0.02640503 0.25100002 255 244 198 0.000000
-0.03731424 -0.02608944 0.24800001 255 251 190 0.000000
-0.03643488 -0.02587904 0.24600001 255 249 188 0.000000
-0.03571068 -0.02577384 0.24500000 255 240 175 0.000000
-0.03499118 -0.02566864 0.24400002 255 237 172 0.000000
-0.03427638 -0.02556344 0.24300002 255 235 166 0.000000
-0.03370500 -0.02556344 0.24300002 255 231 162 0.000000
-0.03299726 -0.02545824 0.24200001 255 255 182 0.000000
-0.03242822 -0.02545824 0.24200001 255 254 179 0.000000
-0.03185918 -0.02545824 0.24200001 255 249 168 0.000000
-0.03129014 -0.02545824 0.24200001 255 236 152 0.000000
-0.03072111 -0.02545824 0.24200001 255 235 151 0.000000
-0.03027667 -0.02556344 0.24300002 254 228 145 0.000000
-0.02970528 -0.02556344 0.24300002 248 222 139 0.000000
-0.02913389 -0.02556344 0.24300002 248 214 134 0.000000
-0.02868004 -0.02566864 0.24400002 248 214 134 0.000000
-0.02810630 -0.02566864 0.24400002 249 213 133 0.000000
-0.02706931 -0.02577384 0.24500000 249 211 134 0.000000
-0.02649321 -0.02577384 0.24500000 249 211 134 0.000000
-0.02602291 -0.02587904 0.24600001 252 214 137 0.000000
-0.02544446 -0.02587904 0.24600001 255 218 141 0.000000
-0.02496710 -0.02598424 0.24700001 255 220 143 0.000000
-0.02438631 -0.02598424 0.24700001 255 224 147 0.000000
-0.02380551 -0.02598424 0.24700001 255 228 148 0.000000
-0.02322472 -0.02598424 0.24700001 255 224 144 0.000000
-0.02264393 -0.02598424 0.24700001 255 224 149 0.000000
-0.02206313 -0.02598424 0.24700001 255 234 159 0.000000
-0.02139536 -0.02587904 0.24600001 255 244 167 0.000000
-0.02081692 -0.02587904 0.24600001 255 249 172 0.000000
-0.02023848 -0.02587904 0.24600001 255 251 179 0.000000
-0.01966004 -0.02587904 0.24600001 255 253 181 0.000000
-0.01900402 -0.02577384 0.24500000 255 253 189 0.000000
-0.01842793 -0.02577384 0.24500000 255 252 188 0.000000
-0.01785184 -0.02577384 0.24500000 255 253 195 0.000000
-0.01720524 -0.02566864 0.24400002 255 253 195 0.000000
-0.01663150 -0.02566864 0.24400002 255 254 195 0.000000
-0.01605776 -0.02566864 0.24400002 255 254 195 0.000000
-0.01548402 -0.02566864 0.24400002 255 254 197 0.000000
-0.01484917 -0.02556344 0.24300002 255 248 191 0.000000
-0.01427778 -0.02556344 0.24300002 255 252 193 0.000000
-0.01370639 -0.02556344 0.24300002 255 253 194 0.000000
-0.01308095 -0.02545824 0.24200001 255 248 185 0.000000
-0.01189352 -0.02535304 0.24100001 255 241 176 0.000000
-0.01132684 -0.02535304 0.24100001 255 235 170 0.000000
-0.01076015 -0.02535304 0.24100001 255 225 157 0.000000
-0.01019347 -0.02535304 0.24100001 250 219 151 0.000000
-0.00966672 -0.02545824 0.24200001 247 208 138 0.000000
-0.00909769 -0.02545824 0.24200001 243 204 134 0.000000
-0.00856389 -0.02556344 0.24300002 245 200 135 0.000000
-0.00748219 -0.02577384 0.24500000 242 194 132 0.000000
-0.00696248 -0.02598424 0.24700001 242 194 132 0.000000
-0.00057839 -0.02619464 0.24900001 243 177 116 0.000000
0.00000711 -0.02619464 0.24900001 244 173 112 0.000000
0.00059261 -0.02619464 0.24900001 244 173 112 0.000000
0.00117811 -0.02619464 0.24900001 246 175 114 0.000000
0.00176360 -0.02619464 0.24900001 246 175 114 0.000000
0.00234910 -0.02619464 0.24900001 250 179 118 0.000000
0.00293460 -0.02619464 0.24900001 252 181 120 0.000000
0.00350596 -0.02608944 0.24800001 252 181 120 0.000000
0.00408910 -0.02608944 0.24800001 249 178 117 0.000000
0.00465341 -0.02598424 0.24700001 250 179 118 0.000000
0.00523420 -0.02598424 0.24700001 251 180 119 0.000000
0.00579146 -0.02587904 0.24600001 249 178 117 0.000000
0.00636990 -0.02587904 0.24600001 250 179 118 0.000000
0.00694834 -0.02587904 0.24600001 252 184 122 0.000000
0.00749619 -0.02577384 0.24500000 255 189 127 0.000000
0.00807228 -0.02577384 0.24500000 255 193 131 0.000000
0.00864837 -0.02577384 0.24500000 255 189 127 0.000000
0.00922446 -0.02577384 0.24500000 248 182 121 0.000000
0.00980055 -0.02577384 0.24500000 243 177 116 0.000000
0.01037665 -0.02577384 0.24500000 242 175 117 0.000000
0.01095274 -0.02577384 0.24500000 240 173 115 0.000000
0.01157588 -0.02587904 0.24600001 236 169 113 0.000000
0.01215433 -0.02587904 0.24600001 240 173 117 0.000000
0.01278453 -0.02598424 0.24700001 247 179 128 0.000000
0.01341944 -0.02608944 0.24800001 248 180 129 0.000000
0.01400258 -0.02608944 0.24800001 251 186 136 0.000000
0.01470335 -0.02629983 0.25000000 255 191 141 0.000000
0.01535237 -0.02640503 0.25100002 253 191 145 0.000000
0.01613311 -0.02672063 0.25400001 250 188 142 0.000000
0.01686211 -0.02693103 0.25600001 244 182 136 0.000000
0.01766872 -0.02724663 0.25900000 241 179 133 0.000000
0.01841887 -0.02745703 0.26100001 239 177 131 0.000000
0.01917843 -0.02766743 0.26300001 242 180 134 0.000000
0.01994739 -0.02787783 0.26500002 245 181 131 0.000000
0.02064813 -0.02798302 0.26600000 241 177 127 0.000000
0.02143356 -0.02819342 0.26800001 245 180 126 0.000000
0.02214606 -0.02829862 0.26900002 251 186 132 0.000000
0.02286326 -0.02840382 0.27000001 253 190 133 0.000000
0.02358517 -0.02850902 0.27100003 252 189 132 0.000000
0.02440116 -0.02871942 0.27300000 246 186 128 0.000000
0.02513482 -0.02882462 0.27400002 243 183 125 0.000000
0.02577911 -0.02882462 0.27400002 244 187 128 0.000000
0.02651982 -0.02892982 0.27500001 254 198 141 0.000000
0.02726525 -0.02903502 0.27600002 247 191 134 0.000000
0.02791423 -0.02903502 0.27600002 247 196 137 0.000000
0.02856321 -0.02903502 0.27600002 255 207 148 0.000000
0.02931804 -0.02914022 0.27700001 255 220 155 0.000000
0.02986119 -0.02903502 0.27600002 255 232 167 0.000000
0.03051017 -0.02903502 0.27600002 255 246 175 0.000000
0.03127205 -0.02914022 0.27700001 255 251 180 0.000000
0.03192338 -0.02914022 0.27700001 255 248 209 0.000000
-0.04032380 -0.02632907 0.25600001 255 240 217 0.000000
-0.03941152 -0.02612338 0.25400001 255 242 183 0.000000
-0.03835583 -0.02581483 0.25100002 255 237 178 0.000000
-0.03746471 -0.02560914 0.24900001 255 236 167 0.000000
-0.03658299 -0.02540344 0.24700001 255 229 160 0.000000
-0.03571068 -0.02519775 0.24500000 253 213 146 0.000000
-0.03499118 -0.02509490 0.24400002 246 206 139 0.000000
-0.03427638 -0.02499205 0.24300002 247 198 131 0.000000
-0.03370500 -0.02499205 0.24300002 247 198 131 0.000000
-0.03313361 -0.02499205 0.24300002 248 192 126 0.000000
-0.03256222 -0.02499205 0.24300002 248 192 126 0.000000
-0.03199083 -0.02499205 0.24300002 251 188 122 0.000000
-0.03141944 -0.02499205 0.24300002 251 181 113 0.000000
-0.03084805 -0.02499205 0.24300002 247 201 125 0.000000
-0.03027667 -0.02499205 0.24300002 245 196 118 0.000000
-0.02970528 -0.02499205 0.24300002 245 196 118 0.000000
-0.02925378 -0.02509490 0.24400002 249 195 117 0.000000
-0.02868004 -0.02509490 0.24400002 251 197 119 0.000000
-0.02822149 -0.02519775 0.24500000 253 196 119 0.000000
-0.02764540 -0.02519775 0.24500000 250 193 116 0.000000
-0.02717979 -0.02530059 0.24600001 250 190 116 0.000000
-0.02660135 -0.02530059 0.24600001 251 191 117 0.000000
-0.02602291 -0.02530059 0.24600001 247 185 114 0.000000
-0.02554790 -0.02540344 0.24700001 246 184 113 0.000000
-0.02496710 -0.02540344 0.24700001 245 183 112 0.000000
-0.02438631 -0.02540344 0.24700001 247 185 114 0.000000
-0.02390189 -0.02550629 0.24800001 251 189 118 0.000000
-0.02322472 -0.02540344 0.24700001 253 191 120 0.000000
-0.02273560 -0.02550629 0.24800001 254 192 123 0.000000
-0.02206313 -0.02540344 0.24700001 254 192 123 0.000000
-0.02148234 -0.02540344 0.24700001 249 186 120 0.000000
-0.02090154 -0.02540344 0.24700001 248 185 119 0.000000
-0.02032075 -0.02540344 0.24700001 248 186 122 0.000000
-0.01966004 -0.02530059 0.24600001 255 196 132 0.000000
-0.01908159 -0.02530059 0.24600001 255 198 135 0.000000
-0.01850315 -0.02530059 0.24600001 255 196 133 0.000000
-0.01785184 -0.02519775 0.24500000 255 203 142 0.000000
-0.01727575 -0.02519775 0.24500000 255 209 148 0.000000
-0.01669966 -0.02519775 0.24500000 255 211 149 0.000000
-0.01605776 -0.02509490 0.24400002 255 207 145 0.000000
-0.01548402 -0.02509490 0.24400002 252 204 142 0.000000
-0.01491028 -0.02509490 0.24400002 254 206 144 0.000000
-0.01433654 -0.02509490 0.24400002 252 204 142 0.000000
-0.01370639 -0.02499205 0.24300002 249 201 139 0.000000
-0.01313500 -0.02499205 0.24300002 245 197 135 0.000000
-0.01199222 -0.02499205 0.24300002 246 196 134 0.000000
-0.01137384 -0.02488920 0.24200001 246 196 134 0.000000
-0.01080480 -0.02488920 0.24200001 248 193 133 0.000000
-0.00859914 -0.02509490 0.24400002 249 185 126 0.000000
-0.00805828 -0.02519775 0.24500000 248 184 125 0.000000
-0.00751273 -0.02530059 0.24600001 247 178 121 0.000000
-0.00696248 -0.02540344 0.24700001 244 175 118 0.000000
-0.00640752 -0.02550629 0.24800001 246 174 120 0.000000
-0.00584786 -0.02560914 0.24900001 246 174 120 0.000000
-0.00526236 -0.02560914 0.24900001 247 171 118 0.000000
-0.00469565 -0.02571199 0.25000000 246 170 117 0.000000
-0.00410780 -0.02571199 0.25000000 248 169 115 0.000000
-0.00351995 -0.02571199 0.25000000 248 169 115 0.000000
-0.00293210 -0.02571199 0.25000000 244 163 110 0.000000
-0.00234425 -0.02571199 0.25000000 244 160 108 0.000000
-0.00175641 -0.02571199 0.25000000 246 162 110 0.000000
-0.00116856 -0.02571199 0.25000000 249 162 111 0.000000
-0.00058071 -0.02571199 0.25000000 250 163 112 0.000000
0.00000714 -0.02571199 0.25000000 249 162 111 0.000000
0.00059499 -0.02571199 0.25000000 250 163 112 0.000000
0.00118284 -0.02571199 0.25000000 253 166 112 0.000000
0.00176360 -0.02560914 0.24900001 253 166 112 0.000000
0.00234910 -0.02560914 0.24900001 251 164 108 0.000000
0.00293460 -0.02560914 0.24900001 250 163 107 0.000000
0.00352009 -0.02560914 0.24900001 249 162 106 0.000000
0.00408910 -0.02550629 0.24800001 249 162 106 0.000000
0.00467225 -0.02550629 0.24800001 251 161 106 0.000000
0.00523420 -0.02540344 0.24700001 251 161 106 0.000000
0.00581500 -0.02540344 0.24700001 248 158 105 0.000000
0.00636990 -0.02530059 0.24600001 249 159 106 0.000000
0.00694834 -0.02530059 0.24600001 249 159 106 0.000000
0.00752678 -0.02530059 0.24600001 245 155 102 0.000000
0.00807228 -0.02519775 0.24500000 243 153 100 0.000000
0.00864837 -0.02519775 0.24500000 249 159 106 0.000000
0.00922446 -0.02519775 0.24500000 255 165 112 0.000000
0.00980055 -0.02519775 0.24500000 250 160 107 0.000000
0.01037665 -0.02519775 0.24500000 243 155 104 0.000000
0.01099744 -0.02530059 0.24600001 246 158 107 0.000000
0.01157588 -0.02530059 0.24600001 241 150 100 0.000000
0.01220374 -0.02540344 0.24700001 243 152 102 0.000000
0.01278453 -0.02540344 0.24700001 244 156 107 0.000000
0.01341944 -0.02550629 0.24800001 247 159 110 0.000000
0.01405904 -0.02560914 0.24900001 244 159 114 0.000000
0.01470335 -0.02571199 0.25000000 253 168 123 0.000000
0.01535237 -0.02581483 0.25100002 255 177 135 0.000000
0.01606960 -0.02602053 0.25300002 255 178 136 0.000000
0.01679624 -0.02622623 0.25500003 253 175 134 0.000000
0.01753228 -0.02643192 0.25700000 250 172 131 0.000000
0.01827773 -0.02663762 0.25900000 249 171 130 0.000000
0.01903258 -0.02684331 0.26100001 245 167 126 0.000000
0.01979684 -0.02704901 0.26300001 243 160 119 0.000000
0.02057051 -0.02725471 0.26500002 242 159 118 0.000000
0.02135358 -0.02746040 0.26700002 247 162 119 0.000000
0.02206373 -0.02756325 0.26800001 247 162 119 0.000000
0.02286326 -0.02776895 0.27000001 247 162 117 0.000000
0.02358517 -0.02787179 0.27100003 247 162 117 0.000000
0.02431178 -0.02797464 0.27200001 254 169 122 0.000000
0.02513482 -0.02818034 0.27400002 248 163 116 0.000000
0.02577911 -0.02818034 0.27400002 246 161 114 0.000000
0.02651982 -0.02828318 0.27500001 248 166 118 0.000000
0.02716646 -0.02828318 0.27500001 244 162 114 0.000000
0.02791423 -0.02838603 0.27600002 243 164 112 0.000000
0.02856321 -0.02838603 0.27600002 247 168 116 0.000000
0.02931804 -0.02848888 0.27700001 241 172 115 0.000000
0.02986119 -0.02838603 0.27600002 241 172 115 0.000000
0.03051017 -0.02838603 0.27600002 243 183 123 0.000000
0.03115915 -0.02838603 0.27600002 255 196 136 0.000000
0.03180814 -0.02838603 0.27600002 255 212 172 0.000000
0.03245712 -0.02838603 0.27600002 255 211 171 0.000000
-0.04373315 -0.02633010 0.26200002 78 64 75 0.000000
-0.04295252 -0.02622960 0.26100001 200 151 152 0.000000
-0.04201437 -0.02602861 0.25900000 255 221 222 0.000000
-0.04124549 -0.02592811 0.25800002 255 223 186 0.000000
-0.04032380 -0.02572712 0.25600001 255 214 177 0.000000
-0.03941152 -0.02552612 0.25400001 255 213 155 0.000000
-0.03850864 -0.02532513 0.25200000 255 208 150 0.000000
-0.03746471 -0.02502364 0.24900001 255 201 137 0.000000
-0.03673110 -0.02492315 0.24800001 253 197 133 0.000000
-0.03585644 -0.02472215 0.24600001 255 187 127 0.000000
-0.03513459 -0.02462166 0.24500000 251 183 123 0.000000
-0.03441744 -0.02452116 0.24400002 249 174 114 0.000000
-0.03370500 -0.02442066 0.24300002 242 167 107 0.000000
-0.03313361 -0.02442066 0.24300002 248 165 108 0.000000
-0.03256222 -0.02442066 0.24300002 251 168 111 0.000000
-0.03199083 -0.02442066 0.24300002 249 159 102 0.000000
-0.03141944 -0.02442066 0.24300002 244 150 92 0.000000
-0.03084805 -0.02442066 0.24300002 245 151 93 0.000000
-0.03027667 -0.02442066 0.24300002 248 149 91 0.000000
-0.02982752 -0.02452116 0.24400002 248 149 91 0.000000
-0.02925378 -0.02452116 0.24400002 246 146 85 0.000000
-0.02879758 -0.02462166 0.24500000 246 146 85 0.000000
-0.02822149 -0.02462166 0.24500000 245 164 95 0.000000
-0.02775824 -0.02472215 0.24600001 247 166 97 0.000000
-0.02717979 -0.02472215 0.24600001 249 165 99 0.000000
-0.02660135 -0.02472215 0.24600001 246 162 96 0.000000
-0.02612869 -0.02482265 0.24700001 247 161 98 0.000000
-0.02554790 -0.02482265 0.24700001 248 162 99 0.000000
-0.02496710 -0.02482265 0.24700001 252 163 101 0.000000
-0.02448504 -0.02492315 0.24800001 250 161 99 0.000000
-0.02390189 -0.02492315 0.24800001 252 163 103 0.000000
-0.02331875 -0.02492315 0.24800001 253 164 104 0.000000
-0.02273560 -0.02492315 0.24800001 253 163 106 0.000000
-0.02215246 -0.02492315 0.24800001 251 161 104 0.000000
-0.02156931 -0.02492315 0.24800001 255 165 110 0.000000
-0.02090154 -0.02482265 0.24700001 255 166 111 0.000000
-0.02032075 -0.02482265 0.24700001 249 159 104 0.000000
-0.01973995 -0.02482265 0.24700001 245 155 100 0.000000
-0.01915916 -0.02482265 0.24700001 245 155 100 0.000000
-0.01850315 -0.02472215 0.24600001 246 156 101 0.000000
-0.01792471 -0.02472215 0.24600001 245 159 103 0.000000
-0.01669966 -0.02462166 0.24500000 252 172 116 0.000000
-0.01612357 -0.02462166 0.24500000 252 172 116 0.000000
-0.01554747 -0.02462166 0.24500000 252 174 117 0.000000
-0.01497138 -0.02462166 0.24500000 255 177 120 0.000000
-0.01439529 -0.02462166 0.24500000 249 174 116 0.000000
-0.01381920 -0.02462166 0.24500000 249 174 116 0.000000
-0.00696248 -0.02482265 0.24700001 246 163 108 0.000000
-0.00640752 -0.02492315 0.24800001 247 160 109 0.000000
-0.00584786 -0.02502364 0.24900001 247 160 109 0.000000
-0.00526236 -0.02502364 0.24900001 248 157 107 0.000000
-0.00467687 -0.02502364 0.24900001 248 157 107 0.000000
-0.00409137 -0.02502364 0.24900001 247 154 105 0.000000
-0.00351995 -0.02512414 0.25000000 249 156 107 0.000000
-0.00293210 -0.02512414 0.25000000 249 153 105 0.000000
-0.00234425 -0.02512414 0.25000000 253 154 107 0.000000
-0.00175641 -0.02512414 0.25000000 250 151 104 0.000000
-0.00116856 -0.02512414 0.25000000 244 143 99 0.000000
-0.00058071 -0.02512414 0.25000000 238 137 93 0.000000
0.00000714 -0.02512414 0.25000000 242 139 95 0.000000
0.00059499 -0.02512414 0.25000000 245 142 98 0.000000
0.00118284 -0.02512414 0.25000000 247 144 98 0.000000
0.00177069 -0.02512414 0.25000000 251 148 102 0.000000
0.00235853 -0.02512414 0.25000000 252 149 103 0.000000
0.00294638 -0.02512414 0.25000000 252 149 103 0.000000
0.00352009 -0.02502364 0.24900001 252 150 101 0.000000
0.00410559 -0.02502364 0.24900001 253 151 102 0.000000
0.00467225 -0.02492315 0.24800001 249 147 98 0.000000
0.00525539 -0.02492315 0.24800001 250 148 99 0.000000
0.00583854 -0.02492315 0.24800001 249 146 100 0.000000
0.00639579 -0.02482265 0.24700001 250 147 101 0.000000
0.00697659 -0.02482265 0.24700001 250 147 101 0.000000
0.00752678 -0.02472215 0.24600001 247 144 98 0.000000
0.00810523 -0.02472215 0.24600001 245 142 96 0.000000
0.00868367 -0.02472215 0.24600001 244 141 95 0.000000
0.00926211 -0.02472215 0.24600001 251 148 102 0.000000
0.00984056 -0.02472215 0.24600001 253 150 104 0.000000
0.01041900 -0.02472215 0.24600001 254 149 106 0.000000
0.01099744 -0.02472215 0.24600001 255 150 107 0.000000
0.01162294 -0.02482265 0.24700001 255 150 107 0.000000
0.01225314 -0.02492315 0.24800001 253 148 105 0.000000
0.01283629 -0.02492315 0.24800001 250 146 105 0.000000
0.01347355 -0.02502364 0.24900001 253 149 108 0.000000
0.01405904 -0.02502364 0.24900001 245 143 106 0.000000
0.01470335 -0.02512414 0.25000000 248 146 109 0.000000
0.01541353 -0.02532513 0.25200000 253 155 121 0.000000
0.01606960 -0.02542563 0.25300002 255 163 129 0.000000
0.01679624 -0.02562662 0.25500003 253 157 125 0.000000
0.01746406 -0.02572712 0.25600001 249 153 121 0.000000
0.01820716 -0.02592811 0.25800002 246 151 116 0.000000
0.01895966 -0.02612911 0.26000002 245 150 115 0.000000
0.01964630 -0.02622960 0.26100001 247 149 113 0.000000
0.02041526 -0.02643059 0.26300001 247 149 113 0.000000
0.02111365 -0.02653109 0.26400000 246 149 110 0.000000
0.02189908 -0.02673208 0.26600000 246 149 110 0.000000
0.02269390 -0.02693308 0.26800001 248 148 108 0.000000
0.02341111 -0.02703357 0.26900002 244 144 104 0.000000
0.02413301 -0.02713407 0.27000001 250 150 110 0.000000
0.02495136 -0.02733506 0.27200001 251 151 111 0.000000
0.02568502 -0.02743556 0.27300000 251 151 109 0.000000
0.02642339 -0.02753606 0.27400002 243 143 101 0.000000
0.02706767 -0.02753606 0.27400002 244 144 102 0.000000
0.02781309 -0.02763655 0.27500001 250 150 108 0.000000
0.02845972 -0.02763655 0.27500001 253 153 111 0.000000
0.02921220 -0.02773705 0.27600002 252 161 113 0.000000
0.02986119 -0.02773705 0.27600002 255 166 118 0.000000
0.03039962 -0.02763655 0.27500001 255 173 123 0.000000
0.03104626 -0.02763655 0.27500001 255 177 127 0.000000
0.03169289 -0.02763655 0.27500001 255 180 142 0.000000
0.03233952 -0.02763655 0.27500001 255 189 151 0.000000
-0.04681348 -0.02571403 0.26200002 66 64 73 0.000000
-0.04619741 -0.02571403 0.26200002 69 67 76 0.000000
-0.04558135 -0.02571403 0.26200002 72 70 79 0.000000
-0.04496528 -0.02571403 0.26200002 73 71 80 0.000000
-0.04417994 -0.02561589 0.26100001 85 67 77 0.000000
-0.04356623 -0.02561589 0.26100001 85 67 77 0.000000
-0.04278795 -0.02551774 0.26000002 224 154 154 0.000000
-0.04201437 -0.02541960 0.25900000 255 190 190 0.000000
-0.04108562 -0.02522331 0.25700000 255 176 140 0.000000
-0.04016629 -0.02502702 0.25500003 255 173 137 0.000000
-0.03941152 -0.02492887 0.25400001 251 169 121 0.000000
-0.03850864 -0.02473258 0.25200000 244 162 114 0.000000
-0.03746471 -0.02443814 0.24900001 243 155 104 0.000000
-0.03673110 -0.02434000 0.24800001 239 151 100 0.000000
-0.03600220 -0.02424186 0.24700001 243 145 95 0.000000
-0.03527800 -0.02414371 0.24600001 243 145 95 0.000000
-0.03455849 -0.02404556 0.24500000 251 149 98 0.000000
-0.03384370 -0.02394742 0.24400002 247 145 94 0.000000
-0.03326996 -0.02394742 0.24400002 248 138 88 0.000000
-0.03269622 -0.02394742 0.24400002 243 133 83 0.000000
-0.03212248 -0.02394742 0.24400002 244 132 83 0.000000
-0.03154874 -0.02394742 0.24400002 251 136 85 0.000000
-0.03097500 -0.02394742 0.24400002 251 136 85 0.000000
-0.03040126 -0.02394742 0.24400002 254 136 84 0.000000
-0.02994976 -0.02404556 0.24500000 253 135 83 0.000000
-0.02937367 -0.02404556 0.24500000 253 132 81 0.000000
-0.02879758 -0.02404556 0.24500000 245 124 73 0.000000
-0.02833668 -0.02414371 0.24600001 243 119 66 0.000000
-0.02775824 -0.02414371 0.24600001 246 122 69 0.000000
-0.02717979 -0.02414371 0.24600001 248 122 70 0.000000
-0.02670949 -0.02424186 0.24700001 246 120 68 0.000000
-0.02612869 -0.02424186 0.24700001 246 136 79 0.000000
-0.02554790 -0.02424186 0.24700001 248 138 81 0.000000
-0.02506818 -0.02434000 0.24800001 248 137 83 0.000000
-0.02448504 -0.02434000 0.24800001 246 135 81 0.000000
-0.02390189 -0.02434000 0.24800001 245 134 82 0.000000
-0.02331875 -0.02434000 0.24800001 244 133 81 0.000000
-0.02273560 -0.02434000 0.24800001 250 136 87 0.000000
-0.02215246 -0.02434000 0.24800001 248 134 85 0.000000
-0.02156931 -0.02434000 0.24800001 245 129 83 0.000000
-0.02098616 -0.02434000 0.24800001 244 128 82 0.000000
-0.02040302 -0.02434000 0.24800001 245 129 85 0.000000
-0.01973995 -0.02424186 0.24700001 247 131 87 0.000000
-0.01915916 -0.02424186 0.24700001 247 131 85 0.000000
-0.01857836 -0.02424186 0.24700001 248 132 86 0.000000
-0.01792471 -0.02414371 0.24600001 250 136 89 0.000000
-0.01734626 -0.02414371 0.24600001 252 138 91 0.000000
-0.01676782 -0.02414371 0.24600001 252 140 93 0.000000
-0.01618938 -0.02414371 0.24600001 255 143 96 0.000000
-0.01561093 -0.02414371 0.24600001 254 147 100 0.000000
-0.01503249 -0.02414371 0.24600001 255 149 102 0.000000
-0.01445405 -0.02414371 0.24600001 254 152 103 0.000000
-0.01381920 -0.02404556 0.24500000 253 151 102 0.000000
-0.01324311 -0.02404556 0.24500000 248 148 99 0.000000
-0.01209093 -0.02404556 0.24500000 255 155 106 0.000000
-0.01146783 -0.02394742 0.24400002 252 152 103 0.000000
-0.01089410 -0.02394742 0.24400002 248 148 99 0.000000
-0.01027806 -0.02384927 0.24300002 247 147 98 0.000000
-0.00974661 -0.02394742 0.24400002 247 147 98 0.000000
-0.00917287 -0.02394742 0.24400002 247 147 98 0.000000
-0.00863438 -0.02404556 0.24500000 248 148 99 0.000000
-0.00805828 -0.02404556 0.24500000 245 145 96 0.000000
-0.00751273 -0.02414371 0.24600001 244 143 97 0.000000
-0.00696248 -0.02424186 0.24700001 245 144 98 0.000000
-0.00640752 -0.02434000 0.24800001 245 140 95 0.000000
-0.00582437 -0.02434000 0.24800001 247 142 97 0.000000
-0.00524123 -0.02434000 0.24800001 244 139 94 0.000000
-0.00467687 -0.02443814 0.24900001 247 142 97 0.000000
-0.00409137 -0.02443814 0.24900001 247 142 99 0.000000
-0.00350587 -0.02443814 0.24900001 248 143 100 0.000000
-0.00293210 -0.02453629 0.25000000 248 140 98 0.000000
-0.00234425 -0.02453629 0.25000000 244 133 92 0.000000
-0.00175641 -0.02453629 0.25000000 245 134 93 0.000000
-0.00116856 -0.02453629 0.25000000 245 131 94 0.000000
-0.00058071 -0.02453629 0.25000000 248 134 97 0.000000
0.00000714 -0.02453629 0.25000000 249 135 100 0.000000
0.00059737 -0.02463444 0.25100002 245 131 96 0.000000
0.00118757 -0.02463444 0.25100002 245 129 92 0.000000
0.00177069 -0.02453629 0.25000000 246 130 93 0.000000
0.00235853 -0.02453629 0.25000000 251 135 98 0.000000
0.00294638 -0.02453629 0.25000000 252 136 99 0.000000
0.00353423 -0.02453629 0.25000000 253 138 98 0.000000
0.00410559 -0.02443814 0.24900001 253 138 98 0.000000
0.00469109 -0.02443814 0.24900001 254 139 99 0.000000
0.00527659 -0.02443814 0.24900001 253 138 98 0.000000
0.00583854 -0.02434000 0.24800001 251 136 96 0.000000
0.00639579 -0.02424186 0.24700001 254 139 99 0.000000
0.00697659 -0.02424186 0.24700001 254 139 99 0.000000
0.00755738 -0.02424186 0.24700001 252 137 97 0.000000
0.00813818 -0.02424186 0.24700001 250 135 95 0.000000
0.00868367 -0.02414371 0.24600001 250 135 95 0.000000
0.00926211 -0.02414371 0.24600001 247 130 91 0.000000
0.00984056 -0.02414371 0.24600001 255 143 104 0.000000
0.01041900 -0.02414371 0.24600001 255 143 107 0.000000
0.01104215 -0.02424186 0.24700001 255 138 102 0.000000
0.01162294 -0.02424186 0.24700001 251 130 95 0.000000
0.01225314 -0.02434000 0.24800001 246 125 90 0.000000
0.01283629 -0.02434000 0.24800001 244 123 90 0.000000
0.01347355 -0.02443814 0.24900001 250 129 96 0.000000
0.01411550 -0.02453629 0.25000000 253 135 103 0.000000
0.01476217 -0.02463444 0.25100002 255 141 109 0.000000
0.01541353 -0.02473258 0.25200000 255 143 115 0.000000
0.01606960 -0.02483073 0.25300002 255 142 114 0.000000
0.01673037 -0.02492887 0.25400001 255 143 114 0.000000
0.01739584 -0.02502702 0.25500003 254 141 112 0.000000
0.01813659 -0.02522331 0.25700000 253 143 113 0.000000
0.01881382 -0.02532145 0.25800002 253 143 113 0.000000
0.01957103 -0.02551774 0.26000002 250 140 110 0.000000
0.02026001 -0.02561589 0.26100001 248 138 108 0.000000
0.02095370 -0.02571403 0.26200002 248 135 104 0.000000
0.02173442 -0.02591032 0.26400000 245 132 101 0.000000
0.02243987 -0.02600847 0.26500002 252 140 106 0.000000
0.02323705 -0.02620476 0.26700002 248 136 102 0.000000
0.02395425 -0.02630290 0.26800001 250 138 104 0.000000
0.02467616 -0.02640105 0.26900002 255 143 109 0.000000
0.02549685 -0.02659734 0.27100003 254 142 108 0.000000
0.02613408 -0.02659734 0.27100003 250 138 104 0.000000
0.02687010 -0.02669548 0.27200001 248 136 102 0.000000
0.02761081 -0.02679363 0.27300000 249 135 102 0.000000
0.02835623 -0.02689178 0.27400002 249 135 102 0.000000
0.02900052 -0.02689178 0.27400002 249 140 101 0.000000
0.02964480 -0.02689178 0.27400002 254 145 106 0.000000
0.03039962 -0.02698992 0.27500001 252 148 107 0.000000
0.03104626 -0.02698992 0.27500001 252 148 107 0.000000
0.03169289 -0.02698992 0.27500001 248 150 116 0.000000
0.03233952 -0.02698992 0.27500001 255 170 136 0.000000
-0.04866168 -0.02509797 0.26200002 66 64 75 0.000000
-0.04804561 -0.02509797 0.26200002 66 64 75 0.000000
-0.04742955 -0.02509797 0.26200002 66 64 75 0.000000
-0.04681348 -0.02509797 0.26200002 67 65 74 0.000000
-0.04619741 -0.02509797 0.26200002 68 66 75 0.000000
-0.04558135 -0.02509797 0.26200002 70 66 71 0.000000
-0.04479366 -0.02500217 0.26100001 75 71 76 0.000000
-0.04417994 -0.02500217 0.26100001 89 57 62 0.000000
-0.04356623 -0.02500217 0.26100001 95 63 68 0.000000
-0.04262338 -0.02481058 0.25900000 222 142 136 0.000000
-0.04185215 -0.02471479 0.25800002 232 152 146 0.000000
-0.04108562 -0.02461900 0.25700000 248 135 106 0.000000
-0.04016629 -0.02442741 0.25500003 254 141 112 0.000000
-0.03941152 -0.02433162 0.25400001 251 137 100 0.000000
-0.03850864 -0.02414003 0.25200000 243 129 92 0.000000
-0.03776563 -0.02404424 0.25100002 244 126 90 0.000000
-0.03702732 -0.02394844 0.25000000 246 128 92 0.000000
-0.03614795 -0.02375685 0.24800001 247 127 89 0.000000
-0.03556481 -0.02375685 0.24800001 246 126 88 0.000000
-0.03484061 -0.02366106 0.24700001 246 121 83 0.000000
-0.03412111 -0.02356527 0.24600001 244 119 81 0.000000
-0.03354267 -0.02356527 0.24600001 246 118 76 0.000000
-0.03296422 -0.02356527 0.24600001 241 113 71 0.000000
-0.03238578 -0.02356527 0.24600001 246 112 70 0.000000
-0.03180733 -0.02356527 0.24600001 247 111 70 0.000000
-0.03122889 -0.02356527 0.24600001 245 109 68 0.000000
-0.03065045 -0.02356527 0.24600001 244 106 63 0.000000
-0.03007201 -0.02356527 0.24600001 244 106 63 0.000000
-0.02949356 -0.02356527 0.24600001 245 106 63 0.000000
-0.02903266 -0.02366106 0.24700001 241 102 59 0.000000
-0.02845187 -0.02366106 0.24700001 244 101 62 0.000000
-0.02787108 -0.02366106 0.24700001 244 101 62 0.000000
-0.02729028 -0.02366106 0.24700001 249 104 63 0.000000
-0.02681762 -0.02375685 0.24800001 247 102 61 0.000000
-0.02623448 -0.02375685 0.24800001 251 106 65 0.000000
-0.02565133 -0.02375685 0.24800001 247 102 61 0.000000
-0.02506818 -0.02375685 0.24800001 247 101 63 0.000000
-0.02448504 -0.02375685 0.24800001 246 100 62 0.000000
-0.02390189 -0.02375685 0.24800001 252 104 69 0.000000
-0.02331875 -0.02375685 0.24800001 248 100 65 0.000000
-0.02273560 -0.02375685 0.24800001 250 114 75 0.000000
-0.02215246 -0.02375685 0.24800001 250 114 75 0.000000
-0.02156931 -0.02375685 0.24800001 243 106 72 0.000000
-0.02098616 -0.02375685 0.24800001 240 103 69 0.000000
-0.02032075 -0.02366106 0.24700001 244 104 71 0.000000
-0.01973995 -0.02366106 0.24700001 245 105 72 0.000000
-0.01915916 -0.02366106 0.24700001 247 107 74 0.000000
-0.01857836 -0.02366106 0.24700001 251 111 78 0.000000
-0.01792471 -0.02356527 0.24600001 249 113 76 0.000000
-0.01734626 -0.02356527 0.24600001 247 111 74 0.000000
-0.01676782 -0.02356527 0.24600001 244 110 72 0.000000
-0.01618938 -0.02356527 0.24600001 250 116 78 0.000000
-0.01561093 -0.02356527 0.24600001 250 121 84 0.000000
-0.01503249 -0.02356527 0.24600001 253 124 87 0.000000
-0.01445405 -0.02356527 0.24600001 255 133 94 0.000000
-0.01387560 -0.02356527 0.24600001 255 136 97 0.000000
-0.01324311 -0.02346947 0.24500000 247 128 85 0.000000
-0.01209093 -0.02346947 0.24500000 251 135 91 0.000000
-0.01146783 -0.02337368 0.24400002 251 135 91 0.000000
-0.01089410 -0.02337368 0.24400002 253 137 93 0.000000
-0.00863438 -0.02346947 0.24500000 251 136 94 0.000000
-0.00809118 -0.02356527 0.24600001 252 137 95 0.000000
-0.00754327 -0.02366106 0.24700001 251 136 94 0.000000
-0.00696248 -0.02366106 0.24700001 253 138 96 0.000000
-0.00640752 -0.02375685 0.24800001 252 137 97 0.000000
-0.00582437 -0.02375685 0.24800001 250 135 95 0.000000
-0.00524123 -0.02375685 0.24800001 248 133 93 0.000000
-0.00467687 -0.02385265 0.24900001 251 136 96 0.000000
-0.00409137 -0.02385265 0.24900001 248 133 93 0.000000
-0.00350587 -0.02385265 0.24900001 254 137 98 0.000000
-0.00293210 -0.02394844 0.25000000 249 132 93 0.000000
-0.00234425 -0.02394844 0.25000000 247 126 91 0.000000
-0.00175641 -0.02394844 0.25000000 247 126 91 0.000000
-0.00116856 -0.02394844 0.25000000 251 125 94 0.000000
-0.00058071 -0.02394844 0.25000000 253 127 96 0.000000
0.00000714 -0.02394844 0.25000000 253 127 96 0.000000
0.00059499 -0.02394844 0.25000000 251 125 94 0.000000
0.00118757 -0.02404424 0.25100002 250 124 93 0.000000
0.00177069 -0.02394844 0.25000000 251 125 94 0.000000
0.00235853 -0.02394844 0.25000000 251 125 92 0.000000
0.00294638 -0.02394844 0.25000000 250 124 91 0.000000
0.00353423 -0.02394844 0.25000000 252 126 93 0.000000
0.00412208 -0.02394844 0.25000000 255 131 98 0.000000
0.00469109 -0.02385265 0.24900001 255 131 95 0.000000
0.00527659 -0.02385265 0.24900001 252 127 91 0.000000
0.00583854 -0.02375685 0.24800001 251 126 90 0.000000
0.00642169 -0.02375685 0.24800001 245 120 84 0.000000
0.00700483 -0.02375685 0.24800001 247 120 84 0.000000
0.00755738 -0.02366106 0.24700001 247 120 84 0.000000
0.00813818 -0.02366106 0.24700001 247 118 83 0.000000
0.00871897 -0.02366106 0.24700001 245 116 81 0.000000
0.00929976 -0.02366106 0.24700001 248 115 84 0.000000
0.00988056 -0.02366106 0.24700001 244 111 80 0.000000
0.01046135 -0.02366106 0.24700001 242 106 78 0.000000
0.01104215 -0.02366106 0.24700001 241 105 77 0.000000
0.01167000 -0.02375685 0.24800001 242 104 79 0.000000
0.01225314 -0.02375685 0.24800001 243 105 80 0.000000
0.01288805 -0.02385265 0.24900001 248 112 86 0.000000
0.01347355 -0.02385265 0.24900001 255 120 94 0.000000
0.01411550 -0.02394844 0.25000000 255 125 97 0.000000
0.01476217 -0.02404424 0.25100002 252 122 94 0.000000
0.01541353 -0.02414003 0.25200000 247 120 94 0.000000
0.01606960 -0.02423582 0.25300002 253 126 100 0.000000
0.01673037 -0.02433162 0.25400001 254 132 106 0.000000
0.01739584 -0.02442741 0.25500003 255 133 107 0.000000
0.01806602 -0.02452320 0.25600001 255 133 107 0.000000
0.01874090 -0.02461900 0.25700000 255 133 107 0.000000
0.01949575 -0.02481058 0.25900000 255 133 107 0.000000
0.02018239 -0.02490638 0.26000002 251 129 103 0.000000
0.02087373 -0.02500217 0.26100001 248 126 98 0.000000
0.02156977 -0.02509797 0.26200002 246 124 96 0.000000
0.02235519 -0.02528955 0.26400000 255 138 110 0.000000
0.02306299 -0.02538535 0.26500002 251 129 101 0.000000
0.02377549 -0.02548114 0.26600000 248 126 98 0.000000
0.02449269 -0.02557694 0.26700002 247 125 97 0.000000
0.02521460 -0.02567273 0.26800001 250 125 98 0.000000
0.02594121 -0.02576852 0.26900002 246 121 94 0.000000
0.02667252 -0.02586432 0.27000001 250 125 98 0.000000
0.02740854 -0.02596011 0.27100003 253 128 101 0.000000
0.02814925 -0.02605590 0.27200001 250 125 98 0.000000
0.02889467 -0.02615170 0.27300000 242 124 92 0.000000
0.02964480 -0.02624749 0.27400002 254 136 104 0.000000
0.03028908 -0.02624749 0.27400002 253 139 106 0.000000
0.03093336 -0.02624749 0.27400002 249 135 102 0.000000
0.03157764 -0.02624749 0.27400002 247 133 107 0.000000
0.03222193 -0.02624749 0.27400002 255 152 126 0.000000
-0.04866168 -0.02448190 0.26200002 66 65 76 0.000000
-0.04804561 -0.02448190 0.26200002 65 64 75 0.000000
-0.04742955 -0.02448190 0.26200002 65 64 75 0.000000
-0.04681348 -0.02448190 0.26200002 65 64 73 0.000000
-0.04619741 -0.02448190 0.26200002 62 61 70 0.000000
-0.04540737 -0.02438846 0.26100001 67 58 63 0.000000
-0.04479366 -0.02438846 0.26100001 70 61 66 0.000000
-0.04417994 -0.02438846 0.26100001 91 59 55 0.000000
-0.04339932 -0.02429502 0.26000002 99 67 63 0.000000
-0.04262338 -0.02420157 0.25900000 205 123 108 0.000000
-0.04185215 -0.02410813 0.25800002 212 130 115 0.000000
-0.04108562 -0.02401469 0.25700000 249 113 87 0.000000
-0.04032380 -0.02392125 0.25600001 251 115 89 0.000000
-0.03956668 -0.02382781 0.25500003 253 115 86 0.000000
-0.03866145 -0.02364092 0.25300002 252 114 85 0.000000
-0.03791609 -0.02354748 0.25200000 249 112 80 0.000000
-0.03717543 -0.02345403 0.25100002 247 110 78 0.000000
-0.03643947 -0.02336059 0.25000000 249 109 78 0.000000
-0.03570822 -0.02326715 0.24900001 252 112 81 0.000000
-0.03498166 -0.02317371 0.24800001 250 106 74 0.000000
-0.03439851 -0.02317371 0.24800001 245 101 69 0.000000
-0.03367902 -0.02308027 0.24700001 249 106 71 0.000000
-0.03309822 -0.02308027 0.24700001 245 102 67 0.000000
-0.03251743 -0.02308027 0.24700001 245 99 63 0.000000
-0.03193663 -0.02308027 0.24700001 246 98 61 0.000000
-0.03135584 -0.02308027 0.24700001 244 96 59 0.000000
-0.03077505 -0.02308027 0.24700001 246 95 59 0.000000
-0.03019425 -0.02308027 0.24700001 246 95 59 0.000000
-0.02961346 -0.02308027 0.24700001 247 95 61 0.000000
-0.02903266 -0.02308027 0.24700001 247 95 61 0.000000
-0.02856706 -0.02317371 0.24800001 246 94 60 0.000000
-0.02798391 -0.02317371 0.24800001 247 95 61 0.000000
-0.02740077 -0.02317371 0.24800001 248 93 60 0.000000
-0.02681762 -0.02317371 0.24800001 246 91 58 0.000000
-0.02623448 -0.02317371 0.24800001 249 94 61 0.000000
-0.02565133 -0.02317371 0.24800001 249 94 61 0.000000
-0.02506818 -0.02317371 0.24800001 249 94 61 0.000000
-0.02448504 -0.02317371 0.24800001 249 94 61 0.000000
-0.02390189 -0.02317371 0.24800001 249 94 61 0.000000
-0.02331875 -0.02317371 0.24800001 249 94 61 0.000000
-0.02273560 -0.02317371 0.24800001 250 92 60 0.000000
-0.02215246 -0.02317371 0.24800001 247 89 57 0.000000
-0.02156931 -0.02317371 0.24800001 246 86 55 0.000000
-0.02090154 -0.02308027 0.24700001 245 85 54 0.000000
-0.02032075 -0.02308027 0.24700001 245 85 54 0.000000
-0.01973995 -0.02308027 0.24700001 247 95 63 0.000000
-0.01908159 -0.02298682 0.24600001 248 95 66 0.000000
-0.01850315 -0.02298682 0.24600001 249 96 67 0.000000
-0.01792471 -0.02298682 0.24600001 250 98 69 0.000000
-0.01734626 -0.02298682 0.24600001 253 101 72 0.000000
-0.01669966 -0.02289338 0.24500000 253 104 74 0.000000
-0.01618938 -0.02298682 0.24600001 255 108 78 0.000000
-0.01561093 -0.02298682 0.24600001 254 110 80 0.000000
-0.01497138 -0.02289338 0.24500000 254 110 80 0.000000
-0.01445405 -0.02298682 0.24600001 254 113 85 0.000000
-0.01381920 -0.02289338 0.24500000 255 116 88 0.000000
-0.01329716 -0.02298682 0.24600001 254 119 86 0.000000
-0.01266702 -0.02289338 0.24500000 255 121 88 0.000000
-0.01209093 -0.02289338 0.24500000 255 128 91 0.000000
-0.01151483 -0.02289338 0.24500000 254 125 88 0.000000
-0.01093874 -0.02289338 0.24500000 255 126 89 0.000000
-0.01036265 -0.02289338 0.24500000 255 127 90 0.000000
-0.00978656 -0.02289338 0.24500000 255 128 92 0.000000
-0.00921047 -0.02289338 0.24500000 253 126 90 0.000000
-0.00866962 -0.02298682 0.24600001 255 128 95 0.000000
-0.00809118 -0.02298682 0.24600001 254 126 93 0.000000
-0.00754327 -0.02308027 0.24700001 255 127 94 0.000000
-0.00696248 -0.02308027 0.24700001 255 127 94 0.000000
-0.00638168 -0.02308027 0.24700001 248 120 87 0.000000
-0.00582437 -0.02317371 0.24800001 253 125 92 0.000000
-0.00524123 -0.02317371 0.24800001 255 127 96 0.000000
-0.00465808 -0.02317371 0.24800001 255 128 97 0.000000
-0.00409137 -0.02326715 0.24900001 252 124 93 0.000000
-0.00350587 -0.02326715 0.24900001 253 125 94 0.000000
-0.00292037 -0.02326715 0.24900001 252 124 93 0.000000
-0.00234425 -0.02336059 0.25000000 251 123 92 0.000000
-0.00175641 -0.02336059 0.25000000 248 120 89 0.000000
-0.00116856 -0.02336059 0.25000000 249 119 89 0.000000
-0.00058071 -0.02336059 0.25000000 252 122 92 0.000000
0.00000714 -0.02336059 0.25000000 252 122 92 0.000000
0.00059499 -0.02336059 0.25000000 250 120 90 0.000000
0.00118284 -0.02336059 0.25000000 249 119 89 0.000000
0.00177069 -0.02336059 0.25000000 250 120 90 0.000000
0.00235853 -0.02336059 0.25000000 250 117 88 0.000000
0.00294638 -0.02336059 0.25000000 246 113 84 0.000000
0.00352009 -0.02326715 0.24900001 247 114 85 0.000000
0.00410559 -0.02326715 0.24900001 248 115 86 0.000000
0.00469109 -0.02326715 0.24900001 246 110 82 0.000000
0.00527659 -0.02326715 0.24900001 255 121 93 0.000000
0.00586208 -0.02326715 0.24900001 253 117 89 0.000000
0.00642169 -0.02317371 0.24800001 249 113 85 0.000000
0.00700483 -0.02317371 0.24800001 250 112 85 0.000000
0.00758798 -0.02317371 0.24800001 249 111 84 0.000000
0.00813818 -0.02308027 0.24700001 248 107 81 0.000000
0.00871897 -0.02308027 0.24700001 249 108 82 0.000000
0.00929976 -0.02308027 0.24700001 253 111 85 0.000000
0.00988056 -0.02308027 0.24700001 248 106 80 0.000000
0.01046135 -0.02308027 0.24700001 245 103 77 0.000000
0.01104215 -0.02308027 0.24700001 243 101 75 0.000000
0.01167000 -0.02317371 0.24800001 249 104 81 0.000000
0.01225314 -0.02317371 0.24800001 249 104 81 0.000000
0.01288805 -0.02326715 0.24900001 250 105 82 0.000000
0.01352766 -0.02336059 0.25000000 252 107 84 0.000000
0.01411550 -0.02336059 0.25000000 254 113 89 0.000000
0.01476217 -0.02345403 0.25100002 255 116 92 0.000000
0.01541353 -0.02354748 0.25200000 254 121 94 0.000000
0.01600608 -0.02354748 0.25200000 255 128 101 0.000000
0.01673037 -0.02373436 0.25400001 255 124 101 0.000000
0.01732762 -0.02373436 0.25400001 255 128 105 0.000000
0.01799545 -0.02382781 0.25500003 254 125 101 0.000000
0.01866798 -0.02392125 0.25600001 254 125 101 0.000000
0.01934521 -0.02401469 0.25700000 254 124 103 0.000000
0.02010476 -0.02420157 0.25900000 254 124 103 0.000000
0.02079375 -0.02429502 0.26000002 253 124 100 0.000000
0.02148744 -0.02438846 0.26100001 249 120 96 0.000000
0.02218583 -0.02448190 0.26200002 249 120 96 0.000000
0.02288893 -0.02457534 0.26300001 251 122 98 0.000000
0.02359672 -0.02466878 0.26400000 251 122 98 0.000000
0.02440096 -0.02485567 0.26600000 251 122 98 0.000000
0.02512052 -0.02494911 0.26700002 247 118 94 0.000000
0.02584477 -0.02504255 0.26800001 248 117 94 0.000000
0.02657374 -0.02513600 0.26900002 250 119 96 0.000000
0.02730740 -0.02522944 0.27000001 252 121 98 0.000000
0.02804577 -0.02532288 0.27100003 250 119 96 0.000000
0.02878883 -0.02541632 0.27200001 248 123 98 0.000000
0.02953660 -0.02550977 0.27300000 255 132 107 0.000000
0.03017853 -0.02550977 0.27300000 255 133 108 0.000000
0.03082046 -0.02550977 0.27300000 250 125 100 0.000000
0.03157764 -0.02560321 0.27400002 245 125 103 0.000000
0.03222193 -0.02560321 0.27400002 255 140 118 0.000000
-0.04724851 -0.02377474 0.26100001 83 90 98 0.000000
-0.04663480 -0.02377474 0.26100001 87 92 99 0.000000
-0.04602109 -0.02377474 0.26100001 89 94 101 0.000000
-0.04540737 -0.02377474 0.26100001 97 93 98 0.000000
-0.04479366 -0.02377474 0.26100001 99 95 100 0.000000
-0.04401067 -0.02368366 0.26000002 125 90 87 0.000000
-0.04339932 -0.02368366 0.26000002 137 102 99 0.000000
-0.04262338 -0.02359256 0.25900000 187 97 85 0.000000
-0.04185215 -0.02350147 0.25800002 205 115 103 0.000000
-0.04108562 -0.02341038 0.25700000 234 89 66 0.000000
-0.04032380 -0.02331929 0.25600001 242 97 74 0.000000
-0.03956668 -0.02322820 0.25500003 249 96 69 0.000000
-0.03881426 -0.02313711 0.25400001 251 98 71 0.000000
-0.03806655 -0.02304602 0.25300002 248 95 68 0.000000
-0.03732354 -0.02295493 0.25200000 246 93 66 0.000000
-0.03658523 -0.02286384 0.25100002 248 89 64 0.000000
-0.03599503 -0.02286384 0.25100002 246 87 62 0.000000
-0.03526377 -0.02277274 0.25000000 243 84 57 0.000000
-0.03453722 -0.02268166 0.24900001 245 86 59 0.000000
-0.03395173 -0.02268166 0.24900001 250 92 62 0.000000
-0.03323222 -0.02259056 0.24800001 250 92 62 0.000000
-0.03264908 -0.02259056 0.24800001 246 88 56 0.000000
-0.03206593 -0.02259056 0.24800001 245 85 52 0.000000
-0.03148279 -0.02259056 0.24800001 245 85 52 0.000000
-0.03077505 -0.02249947 0.24700001 249 86 54 0.000000
-0.03031650 -0.02259056 0.24800001 248 85 53 0.000000
-0.02973335 -0.02259056 0.24800001 250 87 57 0.000000
-0.02915020 -0.02259056 0.24800001 253 90 60 0.000000
-0.02856706 -0.02259056 0.24800001 253 90 60 0.000000
-0.02798391 -0.02259056 0.24800001 249 86 56 0.000000
-0.02740077 -0.02259056 0.24800001 249 85 55 0.000000
-0.02681762 -0.02259056 0.24800001 248 84 54 0.000000
-0.02623448 -0.02259056 0.24800001 249 85 55 0.000000
-0.02565133 -0.02259056 0.24800001 250 86 56 0.000000
-0.02506818 -0.02259056 0.24800001 252 88 58 0.000000
-0.02448504 -0.02259056 0.24800001 255 91 61 0.000000
-0.02390189 -0.02259056 0.24800001 255 91 61 0.000000
-0.02331875 -0.02259056 0.24800001 249 85 55 0.000000
-0.02273560 -0.02259056 0.24800001 247 83 51 0.000000
-0.02206313 -0.02249947 0.24700001 248 84 52 0.000000
-0.02148234 -0.02249947 0.24700001 247 83 51 0.000000
-0.02090154 -0.02249947 0.24700001 248 84 52 0.000000
-0.02023848 -0.02240838 0.24600001 251 84 55 0.000000
-0.01966004 -0.02240838 0.24600001 251 84 55 0.000000
-0.01908159 -0.02240838 0.24600001 249 85 60 0.000000
-0.01842793 -0.02231729 0.24500000 253 89 64 0.000000
-0.01785184 -0.02231729 0.24500000 255 91 68 0.000000
-0.01727575 -0.02231729 0.24500000 255 91 68 0.000000
-0.01669966 -0.02231729 0.24500000 251 90 66 0.000000
-0.01612357 -0.02231729 0.24500000 255 99 73 0.000000
-0.01554747 -0.02231729 0.24500000 254 101 74 0.000000
-0.01497138 -0.02231729 0.24500000 255 104 77 0.000000
-0.01439529 -0.02231729 0.24500000 255 104 80 0.000000
-0.01381920 -0.02231729 0.24500000 255 106 82 0.000000
-0.01324311 -0.02231729 0.24500000 255 107 82 0.000000
-0.01266702 -0.02231729 0.24500000 255 109 84 0.000000
-0.01209093 -0.02231729 0.24500000 255 114 86 0.000000
-0.01151483 -0.02231729 0.24500000 255 115 87 0.000000
-0.01093874 -0.02231729 0.24500000 255 115 87 0.000000
-0.01036265 -0.02231729 0.24500000 255 114 86 0.000000
-0.00978656 -0.02231729 0.24500000 255 115 87 0.000000
-0.00921047 -0.02231729 0.24500000 255 116 88 0.000000
-0.00866962 -0.02240838 0.24600001 255 117 88 0.000000
-0.00809118 -0.02240838 0.24600001 255 117 88 0.000000
-0.00751273 -0.02240838 0.24600001 254 116 87 0.000000
-0.00696248 -0.02249947 0.24700001 252 114 85 0.000000
-0.00638168 -0.02249947 0.24700001 251 113 86 0.000000
-0.00582437 -0.02259056 0.24800001 253 115 88 0.000000
-0.00524123 -0.02259056 0.24800001 253 117 91 0.000000
-0.00465808 -0.02259056 0.24800001 254 118 92 0.000000
-0.00407494 -0.02259056 0.24800001 253 117 91 0.000000
-0.00350587 -0.02268166 0.24900001 251 115 89 0.000000
-0.00292037 -0.02268166 0.24900001 252 116 90 0.000000
-0.00233488 -0.02268166 0.24900001 251 115 87 0.000000
-0.00174938 -0.02268166 0.24900001 251 115 87 0.000000
-0.00116856 -0.02277274 0.25000000 251 115 87 0.000000
-0.00057839 -0.02268166 0.24900001 252 116 88 0.000000
0.00000711 -0.02268166 0.24900001 254 118 92 0.000000
0.00059261 -0.02268166 0.24900001 251 115 89 0.000000
0.00118284 -0.02277274 0.25000000 239 103 77 0.000000
0.00177069 -0.02277274 0.25000000 246 110 84 0.000000
0.00234910 -0.02268166 0.24900001 251 110 84 0.000000
0.00293460 -0.02268166 0.24900001 247 106 80 0.000000
0.00352009 -0.02268166 0.24900001 247 105 79 0.000000
0.00410559 -0.02268166 0.24900001 247 105 79 0.000000
0.00469109 -0.02268166 0.24900001 249 107 81 0.000000
0.00525539 -0.02259056 0.24800001 253 111 85 0.000000
0.00583854 -0.02259056 0.24800001 249 107 81 0.000000
0.00642169 -0.02259056 0.24800001 249 107 81 0.000000
0.00697659 -0.02249947 0.24700001 251 106 83 0.000000
0.00755738 -0.02249947 0.24700001 250 105 82 0.000000
0.00813818 -0.02249947 0.24700001 249 104 81 0.000000
0.00871897 -0.02249947 0.24700001 248 103 80 0.000000
0.00929976 -0.02249947 0.24700001 247 98 79 0.000000
0.00988056 -0.02249947 0.24700001 246 97 78 0.000000
0.01046135 -0.02249947 0.24700001 250 99 81 0.000000
0.01104215 -0.02249947 0.24700001 246 95 77 0.000000
0.01167000 -0.02259056 0.24800001 250 99 81 0.000000
0.01225314 -0.02259056 0.24800001 248 97 79 0.000000
0.01288805 -0.02268166 0.24900001 247 97 76 0.000000
0.01347355 -0.02268166 0.24900001 253 103 82 0.000000
0.01411550 -0.02277274 0.25000000 254 109 86 0.000000
0.01476217 -0.02286384 0.25100002 255 112 89 0.000000
0.01535237 -0.02286384 0.25100002 253 111 90 0.000000
0.01600608 -0.02295493 0.25200000 255 120 99 0.000000
0.01666450 -0.02304602 0.25300002 255 119 102 0.000000
0.01732762 -0.02313711 0.25400001 255 117 100 0.000000
0.01792488 -0.02313711 0.25400001 254 119 100 0.000000
0.01859505 -0.02322820 0.25500003 254 119 100 0.000000
0.01926993 -0.02331929 0.25600001 255 120 103 0.000000
0.01994951 -0.02341038 0.25700000 255 121 104 0.000000
0.02063380 -0.02350147 0.25800002 254 119 102 0.000000
0.02140511 -0.02368366 0.26000002 250 115 98 0.000000
0.02210115 -0.02377474 0.26100001 251 116 99 0.000000
0.02280190 -0.02386584 0.26200002 252 117 100 0.000000
0.02350734 -0.02395693 0.26300001 250 115 98 0.000000
0.02421749 -0.02404802 0.26400000 249 114 97 0.000000
0.02493235 -0.02413911 0.26500002 248 113 96 0.000000
0.02565190 -0.02423020 0.26600000 250 115 96 0.000000
0.02647495 -0.02441238 0.26800001 250 115 96 0.000000
0.02710512 -0.02441238 0.26800001 250 115 96 0.000000
0.02794227 -0.02459456 0.27000001 250 115 96 0.000000
0.02868299 -0.02468566 0.27100003 249 119 98 0.000000
0.02942841 -0.02477675 0.27200001 255 130 109 0.000000
0.03006799 -0.02477675 0.27200001 255 126 105 0.000000
0.03082046 -0.02486784 0.27300000 253 123 102 0.000000
0.03146240 -0.02486784 0.27300000 248 121 106 0.000000
0.03222193 -0.02495893 0.27400002 255 130 115 0.000000
-0.04847594 -0.02316103 0.26100001 103 108 113 0.000000
-0.04724851 -0.02316103 0.26100001 100 107 111 0.000000
-0.04663480 -0.02316103 0.26100001 99 106 112 0.000000
-0.04602109 -0.02316103 0.26100001 96 103 109 0.000000
-0.04540737 -0.02316103 0.26100001 95 97 103 0.000000
-0.04462203 -0.02307229 0.26000002 92 94 100 0.000000
-0.04401067 -0.02307229 0.26000002 111 75 77 0.000000
-0.04323239 -0.02298355 0.25900000 119 83 85 0.000000
-0.04262338 -0.02298355 0.25900000 172 78 65 0.000000
-0.04185215 -0.02289481 0.25800002 200 106 93 0.000000
-0.04124549 -0.02289481 0.25800002 224 78 58 0.000000
-0.04048131 -0.02280607 0.25700000 236 90 70 0.000000
-0.03896708 -0.02262860 0.25500003 245 80 57 0.000000
-0.03821701 -0.02253985 0.25400001 245 80 55 0.000000
-0.03747165 -0.02245112 0.25300002 247 82 57 0.000000
-0.03673098 -0.02236238 0.25200000 250 83 56 0.000000
