-0.03827224 -0.00956261 0.29600000 182 72 56 0.000000
-0.03770318 -0.00959492 0.29700002 183 73 57 0.000000
-0.03700481 -0.00959492 0.29700002 181 72 53 0.000000
-0.03630645 -0.00959492 0.29700002 183 74 55 0.000000
-0.03548819 -0.00956261 0.29600000 191 76 59 0.000000
-0.03490972 -0.00959492 0.29700002 187 72 55 0.000000
-0.03421136 -0.00959492 0.29700002 188 71 53 0.000000
-0.03351299 -0.00959492 0.29700002 188 71 53 0.000000
-0.03270414 -0.00956261 0.29600000 187 70 52 0.000000
-0.03200813 -0.00956261 0.29600000 191 74 56 0.000000
-0.03051267 -0.00953031 0.29500002 189 72 54 0.000000
-0.02971793 -0.00949800 0.29400000 192 75 57 0.000000
-0.02892789 -0.00946569 0.29300001 191 74 56 0.000000
-0.02814255 -0.00943339 0.29200003 194 76 55 0.000000
-0.02726789 -0.00936878 0.29000002 191 73 52 0.000000
-0.02631096 -0.00927186 0.28700000 184 66 45 0.000000
-0.02518949 -0.00911033 0.28200001 184 66 45 0.000000
-0.02417850 -0.00898110 0.27800003 187 66 51 0.000000
-0.02229524 -0.00875496 0.27100003 190 68 56 0.000000
-0.02157809 -0.00872265 0.27000001 194 72 60 0.000000
-0.02086564 -0.00869035 0.26900002 191 69 57 0.000000
-0.02023312 -0.00869035 0.26900002 192 70 58 0.000000
-0.01952773 -0.00865804 0.26800001 198 73 62 0.000000
-0.01896807 -0.00869035 0.26900002 196 71 60 0.000000
-0.01833554 -0.00869035 0.26900002 195 68 55 0.000000
-0.01770302 -0.00869035 0.26900002 188 61 48 0.000000
-0.01713395 -0.00872265 0.27000001 200 71 57 0.000000
-0.01649908 -0.00872265 0.27000001 200 71 57 0.000000
-0.01592296 -0.00875496 0.27100003 201 73 56 0.000000
-0.01534213 -0.00878727 0.27200001 202 74 57 0.000000
-0.01475661 -0.00881957 0.27300000 205 75 56 0.000000
-0.01416638 -0.00885188 0.27400002 202 72 53 0.000000
-0.01362080 -0.00891649 0.27600002 203 71 53 0.000000
-0.01301881 -0.00894880 0.27700001 207 75 57 0.000000
-0.01245677 -0.00901341 0.27900001 222 78 66 0.000000
-0.01188533 -0.00907802 0.28100002 226 82 70 0.000000
-0.01134442 -0.00917494 0.28400001 231 81 71 0.000000
-0.01075181 -0.00923955 0.28600001 236 86 76 0.000000
-0.01014980 -0.00930416 0.28800002 240 84 76 0.000000
-0.00953838 -0.00936878 0.29000002 243 87 79 0.000000
-0.00888701 -0.00940108 0.29100001 248 89 82 0.000000
-0.00823095 -0.00943339 0.29200003 249 90 83 0.000000
-0.00754434 -0.00943339 0.29200003 249 90 81 0.000000
-0.00688122 -0.00946569 0.29300001 249 90 81 0.000000
-0.00617112 -0.00943339 0.29200003 252 90 80 0.000000
-0.00548452 -0.00943339 0.29200003 252 90 82 0.000000
-0.00479791 -0.00943339 0.29200003 248 86 78 0.000000
-0.00409722 -0.00940108 0.29100001 250 88 78 0.000000
-0.00341297 -0.00940108 0.29100001 251 89 79 0.000000
-0.00272871 -0.00940108 0.29100001 250 88 78 0.000000
-0.00204446 -0.00940108 0.29100001 251 89 79 0.000000
-0.00136020 -0.00940108 0.29100001 253 91 81 0.000000
-0.00067362 -0.00936878 0.29000002 254 92 82 0.000000
0.00000828 -0.00936878 0.29000002 255 93 83 0.000000
0.00069019 -0.00936878 0.29000002 255 93 83 0.000000
0.00137682 -0.00940108 0.29100001 255 93 83 0.000000
0.00206108 -0.00940108 0.29100001 253 91 81 0.000000
0.00274533 -0.00940108 0.29100001 252 93 82 0.000000
0.00344138 -0.00943339 0.29200003 250 91 80 0.000000
0.00412798 -0.00943339 0.29200003 247 91 81 0.000000
0.00483108 -0.00946569 0.29300001 248 92 82 0.000000
0.00553888 -0.00949800 0.29400000 246 91 81 0.000000
0.00625138 -0.00953031 0.29500002 249 94 84 0.000000
0.00694504 -0.00953031 0.29500002 246 94 83 0.000000
0.00763870 -0.00953031 0.29500002 245 93 82 0.000000
0.00833236 -0.00953031 0.29500002 244 92 81 0.000000
0.00902602 -0.00953031 0.29500002 244 92 81 0.000000
0.00971968 -0.00953031 0.29500002 246 94 83 0.000000
0.01041334 -0.00953031 0.29500002 247 95 84 0.000000
0.01110701 -0.00953031 0.29500002 244 94 84 0.000000
0.01176066 -0.00949800 0.29400000 242 92 82 0.000000
0.01245197 -0.00949800 0.29400000 242 92 82 0.000000
0.01314328 -0.00949800 0.29400000 236 86 76 0.000000
0.01383459 -0.00949800 0.29400000 236 86 76 0.000000
0.01447650 -0.00946569 0.29300001 235 85 75 0.000000
0.01516545 -0.00946569 0.29300001 237 87 77 0.000000
0.01585441 -0.00946569 0.29300001 237 87 77 0.000000
0.01659983 -0.00949800 0.29400000 239 89 79 0.000000
0.01734996 -0.00953031 0.29500002 238 88 78 0.000000
0.01804362 -0.00953031 0.29500002 247 97 87 0.000000
0.01880080 -0.00956261 0.29600000 247 97 87 0.000000
0.01956268 -0.00959492 0.29700002 255 113 104 0.000000
0.02032926 -0.00962722 0.29800001 255 116 107 0.000000
0.02110055 -0.00965953 0.29900002 255 120 110 0.000000
0.02187653 -0.00969184 0.30000001 255 121 111 0.000000
0.02265723 -0.00972414 0.30100003 250 116 110 0.000000
0.02336500 -0.00972414 0.30100003 248 114 108 0.000000
0.02423272 -0.00978876 0.30300000 252 118 112 0.000000
0.02502752 -0.00982106 0.30400002 255 121 115 0.000000
0.02582702 -0.00985337 0.30500001 253 119 113 0.000000
0.02671826 -0.00991798 0.30700001 254 120 114 0.000000
0.02744013 -0.00991798 0.30700001 255 121 115 0.000000
0.02825374 -0.00995029 0.30800003 247 115 110 0.000000
0.02907206 -0.00998259 0.30900002 247 115 110 0.000000
0.02999151 -0.01004720 0.31100002 230 123 124 0.000000
-0.05385626 -0.00994497 0.33200002 27 26 28 0.000000
-0.05275586 -0.00988506 0.33000001 32 31 31 0.000000
-0.05150736 -0.00979520 0.32700002 33 32 32 0.000000
-0.05011780 -0.00967538 0.32300001 41 20 19 0.000000
-0.04874704 -0.00955556 0.31900001 60 39 38 0.000000
-0.04739511 -0.00943574 0.31500003 120 66 58 0.000000
-0.04606199 -0.00931592 0.31100002 114 60 52 0.000000
-0.04474767 -0.00919610 0.30700001 134 57 48 0.000000
-0.04359557 -0.00910624 0.30400002 136 59 50 0.000000
-0.04245758 -0.00901637 0.30100003 141 58 48 0.000000
-0.04147241 -0.00895646 0.29900002 143 60 50 0.000000
-0.04063299 -0.00892651 0.29800001 158 64 53 0.000000
-0.03979827 -0.00889655 0.29700002 168 64 50 0.000000
-0.03909991 -0.00889655 0.29700002 173 69 55 0.000000
-0.03840154 -0.00889655 0.29700002 180 72 57 0.000000
-0.03770318 -0.00889655 0.29700002 182 74 59 0.000000
-0.03712941 -0.00892651 0.29800001 181 73 56 0.000000
-0.03642869 -0.00892651 0.29800001 180 72 55 0.000000
-0.03572798 -0.00892651 0.29800001 181 71 55 0.000000
-0.03502726 -0.00892651 0.29800001 181 71 55 0.000000
-0.03432655 -0.00892651 0.29800001 183 71 53 0.000000
-0.03351299 -0.00889655 0.29700002 181 69 51 0.000000
-0.03281463 -0.00889655 0.29700002 183 71 53 0.000000
-0.03211626 -0.00889655 0.29700002 190 78 60 0.000000
-0.03131212 -0.00886660 0.29600000 189 76 61 0.000000
-0.03061610 -0.00886660 0.29600000 188 75 60 0.000000
-0.02981901 -0.00883665 0.29500002 188 75 60 0.000000
-0.02902662 -0.00880669 0.29400000 186 73 58 0.000000
-0.02823893 -0.00877674 0.29300001 186 73 58 0.000000
-0.02736192 -0.00871683 0.29100001 188 75 60 0.000000
-0.02631096 -0.00859701 0.28700000 188 72 58 0.000000
-0.02518949 -0.00844723 0.28200001 186 70 56 0.000000
-0.02417850 -0.00832742 0.27800003 184 68 54 0.000000
-0.02318633 -0.00820760 0.27400002 185 69 55 0.000000
-0.02221296 -0.00808778 0.27000001 187 69 58 0.000000
-0.02141825 -0.00802787 0.26800001 188 70 59 0.000000
-0.02078808 -0.00802787 0.26800001 188 70 57 0.000000
-0.02008269 -0.00799791 0.26700002 188 70 57 0.000000
-0.01945486 -0.00799791 0.26700002 190 70 57 0.000000
-0.01882704 -0.00799791 0.26700002 189 69 56 0.000000
-0.01826738 -0.00802787 0.26800001 190 68 56 0.000000
-0.01763721 -0.00802787 0.26800001 192 70 58 0.000000
-0.01700703 -0.00802787 0.26800001 198 74 60 0.000000
-0.01643797 -0.00805782 0.26900002 197 73 59 0.000000
-0.01586420 -0.00808778 0.27000001 200 73 58 0.000000
-0.01528573 -0.00811773 0.27100003 201 74 59 0.000000
-0.01470255 -0.00814769 0.27200001 202 76 58 0.000000
-0.01411468 -0.00817764 0.27300000 202 76 58 0.000000
-0.01357145 -0.00823755 0.27500001 205 75 56 0.000000
-0.01297181 -0.00826751 0.27600002 210 80 61 0.000000
-0.01241213 -0.00832742 0.27800003 221 78 64 0.000000
-0.01184303 -0.00838732 0.28000000 225 82 68 0.000000
-0.01126453 -0.00844723 0.28200001 232 82 70 0.000000
-0.01071422 -0.00853710 0.28500003 235 85 73 0.000000
-0.01007931 -0.00856705 0.28600001 239 84 74 0.000000
-0.00947260 -0.00862696 0.28800002 240 85 75 0.000000
-0.00882593 -0.00865692 0.28900000 241 85 75 0.000000
-0.00817457 -0.00868687 0.29000002 246 90 80 0.000000
-0.00749267 -0.00868687 0.29000002 249 90 81 0.000000
-0.00683425 -0.00871683 0.29100001 248 89 80 0.000000
-0.00614999 -0.00871683 0.29100001 246 87 78 0.000000
-0.00546573 -0.00871683 0.29100001 246 84 76 0.000000
-0.00478148 -0.00871683 0.29100001 246 84 76 0.000000
-0.00409722 -0.00871683 0.29100001 251 89 79 0.000000
-0.00341297 -0.00871683 0.29100001 250 88 78 0.000000
-0.00271933 -0.00868687 0.29000002 251 89 79 0.000000
-0.00203743 -0.00868687 0.29000002 251 89 79 0.000000
-0.00135553 -0.00868687 0.29000002 251 89 79 0.000000
-0.00067362 -0.00868687 0.29000002 253 91 81 0.000000
0.00000828 -0.00868687 0.29000002 253 91 81 0.000000
0.00069019 -0.00868687 0.29000002 252 90 80 0.000000
0.00137682 -0.00871683 0.29100001 251 92 83 0.000000
0.00206108 -0.00871683 0.29100001 251 92 83 0.000000
0.00274533 -0.00871683 0.29100001 250 91 82 0.000000
0.00344138 -0.00874678 0.29200003 250 91 82 0.000000
0.00412798 -0.00874678 0.29200003 248 92 82 0.000000
0.00483108 -0.00877674 0.29300001 247 91 81 0.000000
0.00553888 -0.00880669 0.29400000 243 88 80 0.000000
0.00625138 -0.00883665 0.29500002 246 91 83 0.000000
0.00696858 -0.00886660 0.29600000 247 92 84 0.000000
0.00766459 -0.00886660 0.29600000 245 90 82 0.000000
0.00836061 -0.00886660 0.29600000 241 89 80 0.000000
0.00905662 -0.00886660 0.29600000 241 89 80 0.000000
0.00971968 -0.00883665 0.29500002 243 92 85 0.000000
0.01041334 -0.00883665 0.29500002 244 93 86 0.000000
0.01106935 -0.00880669 0.29400000 239 94 85 0.000000
0.01176066 -0.00880669 0.29400000 235 90 81 0.000000
0.01240962 -0.00877674 0.29300001 233 88 79 0.000000
0.01305388 -0.00874678 0.29200003 229 84 75 0.000000
0.01374048 -0.00874678 0.29200003 228 84 72 0.000000
0.01442709 -0.00874678 0.29200003 228 84 72 0.000000
0.01511370 -0.00874678 0.29200003 229 85 73 0.000000
0.01580030 -0.00874678 0.29200003 228 84 72 0.000000
0.01648691 -0.00874678 0.29200003 231 86 77 0.000000
0.01729114 -0.00880669 0.29400000 229 84 75 0.000000
0.01798245 -0.00880669 0.29400000 231 83 75 0.000000
0.01873728 -0.00883665 0.29500002 243 95 87 0.000000
0.01949681 -0.00886660 0.29600000 249 104 97 0.000000
0.02026104 -0.00889655 0.29700002 255 117 110 0.000000
0.02110055 -0.00895646 0.29900002 255 120 110 0.000000
0.02187653 -0.00898642 0.30000001 255 121 111 0.000000
0.02265723 -0.00901637 0.30100003 254 120 112 0.000000
0.02336500 -0.00901637 0.30100003 253 119 111 0.000000
0.02415274 -0.00904633 0.30200002 254 120 114 0.000000
0.02502752 -0.00910624 0.30400002 255 121 115 0.000000
0.02582702 -0.00913619 0.30500001 254 120 114 0.000000
0.02671826 -0.00919610 0.30700001 253 119 115 0.000000
0.02744013 -0.00919610 0.30700001 253 119 115 0.000000
0.02834547 -0.00925601 0.30900002 246 112 108 0.000000
0.02907206 -0.00925601 0.30900002 248 114 110 0.000000
0.02999151 -0.00931592 0.31100002 235 126 128 0.000000
-0.05275586 -0.00910910 0.33000001 31 31 31 0.000000
-0.05150736 -0.00902629 0.32700002 30 30 30 0.000000
-0.04996264 -0.00888827 0.32200003 42 26 23 0.000000
-0.04874704 -0.00880546 0.31900001 48 32 29 0.000000
-0.04739511 -0.00869505 0.31500003 117 64 60 0.000000
-0.04606199 -0.00858464 0.31100002 112 59 55 0.000000
-0.04474767 -0.00847422 0.30700001 130 55 45 0.000000
-0.04359557 -0.00839141 0.30400002 133 58 48 0.000000
-0.04245758 -0.00830860 0.30100003 138 56 46 0.000000
-0.04161111 -0.00828100 0.30000001 141 59 49 0.000000
-0.04063299 -0.00822579 0.29800001 156 63 52 0.000000
-0.03979827 -0.00819819 0.29700002 170 66 52 0.000000
-0.03909991 -0.00819819 0.29700002 176 72 58 0.000000
-0.03840154 -0.00819819 0.29700002 177 73 57 0.000000
-0.03783012 -0.00822579 0.29800001 177 73 57 0.000000
-0.03712941 -0.00822579 0.29800001 179 73 58 0.000000
-0.03655094 -0.00825340 0.29900002 179 73 58 0.000000
-0.03584787 -0.00825340 0.29900002 178 70 55 0.000000
-0.03514481 -0.00825340 0.29900002 180 72 57 0.000000
-0.03444174 -0.00825340 0.29900002 181 73 56 0.000000
-0.03362583 -0.00822579 0.29800001 180 72 55 0.000000
-0.03292511 -0.00822579 0.29800001 181 73 56 0.000000
-0.03211626 -0.00819819 0.29700002 185 77 60 0.000000
-0.03141790 -0.00819819 0.29700002 182 74 59 0.000000
-0.03061610 -0.00817059 0.29600000 182 74 59 0.000000
-0.02992009 -0.00817059 0.29600000 183 73 59 0.000000
-0.02912535 -0.00814298 0.29500002 182 72 58 0.000000
-0.02833531 -0.00811538 0.29400000 182 72 58 0.000000
-0.02745594 -0.00806017 0.29200003 182 72 58 0.000000
-0.02527881 -0.00781174 0.28300002 186 73 60 0.000000
-0.02213069 -0.00742530 0.26900002 184 71 58 0.000000
-0.02141825 -0.00739769 0.26800001 185 72 59 0.000000
-0.02071051 -0.00737009 0.26700002 187 71 59 0.000000
-0.02000747 -0.00734249 0.26600000 188 72 60 0.000000
-0.01938200 -0.00734249 0.26600000 185 67 56 0.000000
-0.01875653 -0.00734249 0.26600000 185 67 56 0.000000
-0.01819922 -0.00737009 0.26700002 193 73 62 0.000000
-0.01757140 -0.00737009 0.26700002 191 71 60 0.000000
-0.01700703 -0.00739769 0.26800001 194 74 61 0.000000
-0.01637686 -0.00739769 0.26800001 195 75 62 0.000000
-0.01580544 -0.00742530 0.26900002 195 75 62 0.000000
-0.01522932 -0.00745290 0.27000001 195 75 62 0.000000
-0.01464850 -0.00748050 0.27100003 200 76 60 0.000000
-0.01411468 -0.00753571 0.27300000 204 80 64 0.000000
-0.01352210 -0.00756331 0.27400002 207 79 62 0.000000
-0.01297181 -0.00761852 0.27600002 207 79 62 0.000000
-0.01236748 -0.00764612 0.27700001 219 79 64 0.000000
-0.01180073 -0.00770133 0.27900001 222 82 67 0.000000
-0.01122459 -0.00775654 0.28100002 228 81 68 0.000000
-0.01063903 -0.00781174 0.28300002 234 87 74 0.000000
-0.00940681 -0.00789455 0.28600001 238 86 75 0.000000
-0.00879539 -0.00794976 0.28800002 240 85 75 0.000000
-0.00811819 -0.00794976 0.28800002 242 87 77 0.000000
-0.00746683 -0.00797736 0.28900000 243 88 78 0.000000
-0.00681076 -0.00800497 0.29000002 243 88 78 0.000000
-0.00612886 -0.00800497 0.29000002 246 90 80 0.000000
-0.00546573 -0.00803257 0.29100001 250 88 80 0.000000
-0.00478148 -0.00803257 0.29100001 251 89 81 0.000000
-0.00409722 -0.00803257 0.29100001 253 91 81 0.000000
-0.00341297 -0.00803257 0.29100001 251 89 79 0.000000
-0.00272871 -0.00803257 0.29100001 250 91 80 0.000000
-0.00204446 -0.00803257 0.29100001 248 89 78 0.000000
-0.00136020 -0.00803257 0.29100001 251 92 81 0.000000
-0.00067594 -0.00803257 0.29100001 252 93 82 0.000000
0.00000831 -0.00803257 0.29100001 249 90 79 0.000000
0.00069257 -0.00803257 0.29100001 248 89 78 0.000000
0.00137682 -0.00803257 0.29100001 249 90 81 0.000000
0.00206816 -0.00806017 0.29200003 251 92 83 0.000000
0.00275477 -0.00806017 0.29200003 250 91 82 0.000000
0.00345316 -0.00808778 0.29300001 249 90 81 0.000000
0.00415626 -0.00811538 0.29400000 246 90 82 0.000000
0.00486405 -0.00814298 0.29500002 244 88 80 0.000000
0.00557656 -0.00817059 0.29600000 243 88 80 0.000000
0.00627257 -0.00817059 0.29600000 245 90 82 0.000000
0.00699212 -0.00819819 0.29700002 246 91 83 0.000000
0.00766459 -0.00817059 0.29600000 242 87 79 0.000000
0.00836061 -0.00817059 0.29600000 240 89 82 0.000000
0.00905662 -0.00817059 0.29600000 240 89 82 0.000000
0.00971968 -0.00814298 0.29500002 237 89 81 0.000000
0.01041334 -0.00814298 0.29500002 240 92 84 0.000000
0.01106935 -0.00811538 0.29400000 235 91 82 0.000000
0.01172066 -0.00808778 0.29300001 230 86 77 0.000000
0.01236727 -0.00806017 0.29200003 225 84 74 0.000000
0.01305388 -0.00806017 0.29200003 228 87 77 0.000000
0.01369342 -0.00803257 0.29100001 228 87 77 0.000000
0.01437768 -0.00803257 0.29100001 225 84 74 0.000000
0.01506194 -0.00803257 0.29100001 225 84 74 0.000000
0.01574619 -0.00803257 0.29100001 221 80 70 0.000000
0.01643045 -0.00803257 0.29100001 224 80 71 0.000000
0.01717352 -0.00806017 0.29200003 225 81 72 0.000000
0.01798245 -0.00811538 0.29400000 221 76 69 0.000000
0.01873728 -0.00814298 0.29500002 240 95 88 0.000000
0.01949681 -0.00817059 0.29600000 254 109 102 0.000000
0.02026104 -0.00819819 0.29700002 255 113 106 0.000000
0.02102997 -0.00822579 0.29800001 255 121 112 0.000000
0.02187653 -0.00828100 0.30000001 255 118 109 0.000000
0.02258195 -0.00828100 0.30000001 255 122 114 0.000000
0.02336500 -0.00830860 0.30100003 255 121 113 0.000000
0.02415274 -0.00833621 0.30200002 255 121 115 0.000000
0.02502752 -0.00839141 0.30400002 254 120 114 0.000000
0.02582702 -0.00841902 0.30500001 254 120 114 0.000000
0.02671826 -0.00847422 0.30700001 253 119 113 0.000000
0.02752951 -0.00850183 0.30800003 248 114 108 0.000000
0.02834547 -0.00852943 0.30900002 245 112 110 0.000000
0.02916614 -0.00855703 0.31000000 248 115 113 0.000000
0.03008794 -0.00861224 0.31200001 230 127 122 0.000000
-0.05385626 -0.00838364 0.33200002 22 25 26 0.000000
-0.05275586 -0.00833314 0.33000001 25 25 25 0.000000
-0.05134984 -0.00823213 0.32600001 25 25 25 0.000000
-0.04996264 -0.00813113 0.32200003 39 22 22 0.000000
-0.04859423 -0.00803012 0.31800002 38 21 21 0.000000
-0.04724465 -0.00792911 0.31400001 112 62 57 0.000000
-0.04591388 -0.00782810 0.31000000 109 59 54 0.000000
-0.04460191 -0.00772709 0.30600002 124 53 42 0.000000
-0.04359557 -0.00767659 0.30400002 125 54 43 0.000000
-0.04245758 -0.00760083 0.30100003 136 54 42 0.000000
-0.04147241 -0.00755033 0.29900002 138 56 44 0.000000
-0.04063299 -0.00752508 0.29800001 153 63 51 0.000000
-0.03979827 -0.00749983 0.29700002 167 66 51 0.000000
-0.03909991 -0.00749983 0.29700002 171 70 55 0.000000
-0.03840154 -0.00749983 0.29700002 175 71 55 0.000000
-0.03783012 -0.00752508 0.29800001 173 69 53 0.000000
-0.03725401 -0.00755033 0.29900002 175 71 55 0.000000
-0.03655094 -0.00755033 0.29900002 173 69 53 0.000000
-0.03584787 -0.00755033 0.29900002 174 68 53 0.000000
-0.03514481 -0.00755033 0.29900002 176 70 55 0.000000
-0.03444174 -0.00755033 0.29900002 179 71 56 0.000000
-0.03373867 -0.00755033 0.29900002 178 70 55 0.000000
-0.03303561 -0.00755033 0.29900002 178 70 55 0.000000
-0.03222440 -0.00752508 0.29800001 180 72 57 0.000000
-0.03152368 -0.00752508 0.29800001 180 72 59 0.000000
-0.03071954 -0.00749983 0.29700002 179 71 58 0.000000
-0.02992009 -0.00747457 0.29600000 180 72 59 0.000000
-0.02912535 -0.00744932 0.29500002 180 72 59 0.000000
-0.02843169 -0.00744932 0.29500002 180 72 59 0.000000
-0.02745594 -0.00737357 0.29200003 181 73 60 0.000000
-0.02649431 -0.00729781 0.28900000 181 73 58 0.000000
-0.02318633 -0.00691903 0.27400002 180 70 56 0.000000
-0.02213069 -0.00679277 0.26900002 182 72 60 0.000000
-0.02133833 -0.00674227 0.26700002 182 72 60 0.000000
-0.02063294 -0.00671702 0.26600000 185 72 61 0.000000
-0.02000747 -0.00671702 0.26600000 186 73 62 0.000000
-0.01938200 -0.00671702 0.26600000 184 68 56 0.000000
-0.01875653 -0.00671702 0.26600000 184 68 56 0.000000
-0.01813106 -0.00671702 0.26600000 191 73 62 0.000000
-0.01750559 -0.00671702 0.26600000 189 71 60 0.000000
-0.01694357 -0.00674227 0.26700002 191 71 60 0.000000
-0.01637686 -0.00676752 0.26800001 194 74 63 0.000000
-0.01574669 -0.00676752 0.26800001 194 74 61 0.000000
-0.01517292 -0.00679277 0.26900002 195 75 62 0.000000
-0.01464850 -0.00684328 0.27100003 198 74 60 0.000000
-0.01406297 -0.00686853 0.27200001 198 74 60 0.000000
-0.01347275 -0.00689378 0.27300000 201 73 56 0.000000
-0.01292481 -0.00694428 0.27500001 204 76 59 0.000000
-0.01232283 -0.00696954 0.27600002 218 78 65 0.000000
-0.01175844 -0.00702004 0.27800003 221 81 68 0.000000
-0.01114469 -0.00704529 0.27900001 227 83 69 0.000000
-0.01056384 -0.00709580 0.28100002 231 87 73 0.000000
-0.00997359 -0.00714630 0.28300002 236 86 74 0.000000
-0.00934103 -0.00717155 0.28400001 236 86 74 0.000000
-0.00870378 -0.00719680 0.28500003 239 87 76 0.000000
-0.00806182 -0.00722205 0.28600001 240 88 77 0.000000
-0.00741515 -0.00724731 0.28700000 243 88 78 0.000000
-0.00676379 -0.00727256 0.28800002 242 87 77 0.000000
-0.00610772 -0.00729781 0.28900000 244 88 78 0.000000
-0.00542817 -0.00729781 0.28900000 245 86 77 0.000000
-0.00476505 -0.00732306 0.29000002 248 89 80 0.000000
-0.00408314 -0.00732306 0.29000002 253 91 83 0.000000
-0.00340124 -0.00732306 0.29000002 252 90 82 0.000000
-0.00272871 -0.00734831 0.29100001 249 90 81 0.000000
-0.00204446 -0.00734831 0.29100001 246 87 78 0.000000
-0.00136020 -0.00734831 0.29100001 252 93 82 0.000000
-0.00067594 -0.00734831 0.29100001 252 93 82 0.000000
0.00000834 -0.00737357 0.29200003 250 91 80 0.000000
0.00069495 -0.00737357 0.29200003 249 90 79 0.000000
0.00138629 -0.00739882 0.29300001 247 91 81 0.000000
0.00207524 -0.00739882 0.29300001 247 91 81 0.000000
0.00277364 -0.00742407 0.29400000 247 91 81 0.000000
0.00347673 -0.00744932 0.29500002 247 91 81 0.000000
0.00418453 -0.00747457 0.29600000 249 93 85 0.000000
0.00488054 -0.00747457 0.29600000 249 93 85 0.000000
0.00559540 -0.00749983 0.29700002 246 91 83 0.000000
0.00631495 -0.00752508 0.29800001 246 91 83 0.000000
0.00701567 -0.00752508 0.29800001 243 90 84 0.000000
0.00771638 -0.00752508 0.29800001 240 87 81 0.000000
0.00838885 -0.00749983 0.29700002 240 89 84 0.000000
0.00905662 -0.00747457 0.29600000 243 92 87 0.000000
0.00971968 -0.00744932 0.29500002 234 89 82 0.000000
0.01041334 -0.00744932 0.29500002 236 91 84 0.000000
0.01103170 -0.00739882 0.29300001 231 89 84 0.000000
0.01168066 -0.00737357 0.29200003 229 87 82 0.000000
0.01232491 -0.00734831 0.29100001 224 82 77 0.000000
0.01296446 -0.00732306 0.29000002 223 81 76 0.000000
0.01364637 -0.00732306 0.29000002 225 83 78 0.000000
0.01427886 -0.00729781 0.28900000 222 80 75 0.000000
0.01495842 -0.00729781 0.28900000 223 82 74 0.000000
0.01569208 -0.00732306 0.29000002 215 74 66 0.000000
0.01643045 -0.00734831 0.29100001 219 78 70 0.000000
0.01717352 -0.00737357 0.29200003 219 78 70 0.000000
0.01792129 -0.00739882 0.29300001 221 76 69 0.000000
0.01867376 -0.00742407 0.29400000 225 80 73 0.000000
0.01943094 -0.00744932 0.29500002 237 89 83 0.000000
0.02019282 -0.00747457 0.29600000 249 101 95 0.000000
0.02102997 -0.00752508 0.29800001 255 111 104 0.000000
0.02180361 -0.00755033 0.29900002 255 112 105 0.000000
0.02258195 -0.00757558 0.30000001 255 120 113 0.000000
0.02336500 -0.00760083 0.30100003 255 122 115 0.000000
0.02415274 -0.00762609 0.30200002 255 121 115 0.000000
0.02494519 -0.00765134 0.30300000 254 120 114 0.000000
0.02582702 -0.00770184 0.30500001 253 119 113 0.000000
0.02671826 -0.00775235 0.30700001 253 119 113 0.000000
0.02752951 -0.00777760 0.30800003 252 118 112 0.000000
0.02834547 -0.00780285 0.30900002 249 117 110 0.000000
0.02926023 -0.00785335 0.31100002 252 120 113 0.000000
-0.05385626 -0.00760298 0.33200002 22 22 22 0.000000
-0.05275586 -0.00755718 0.33000001 20 20 20 0.000000
-0.04996264 -0.00737398 0.32200003 39 23 20 0.000000
-0.04844142 -0.00725947 0.31700000 39 23 20 0.000000
-0.04576577 -0.00707627 0.30900002 108 62 56 0.000000
-0.04460191 -0.00700757 0.30600002 126 56 42 0.000000
-0.04359557 -0.00696177 0.30400002 125 55 41 0.000000
-0.04245758 -0.00689306 0.30100003 132 57 40 0.000000
-0.04147241 -0.00684726 0.29900002 132 57 40 0.000000
-0.04063299 -0.00682436 0.29800001 154 64 52 0.000000
-0.03979827 -0.00680146 0.29700002 165 68 54 0.000000
-0.03909991 -0.00680146 0.29700002 167 70 56 0.000000
-0.03853084 -0.00682436 0.29800001 170 69 52 0.000000
-0.03783012 -0.00682436 0.29800001 173 72 55 0.000000
-0.03725401 -0.00684726 0.29900002 176 72 56 0.000000
-0.03655094 -0.00684726 0.29900002 175 71 55 0.000000
-0.03584787 -0.00684726 0.29900002 172 68 52 0.000000
-0.03526234 -0.00687016 0.30000001 172 68 52 0.000000
-0.03455693 -0.00687016 0.30000001 173 69 55 0.000000
-0.03385151 -0.00687016 0.30000001 172 68 54 0.000000
-0.03303561 -0.00684726 0.29900002 171 66 55 0.000000
-0.03233254 -0.00684726 0.29900002 176 71 60 0.000000
-0.03162947 -0.00684726 0.29900002 177 70 60 0.000000
-0.03082297 -0.00682436 0.29800001 173 66 56 0.000000
-0.03002117 -0.00680146 0.29700002 173 66 56 0.000000
-0.02922408 -0.00677856 0.29600000 176 69 59 0.000000
-0.02843169 -0.00675566 0.29500002 177 71 58 0.000000
-0.02764400 -0.00673276 0.29400000 178 72 59 0.000000
-0.02658599 -0.00664116 0.29000002 180 72 57 0.000000
-0.02327095 -0.00629765 0.27500001 180 72 59 0.000000
-0.02221296 -0.00618315 0.27000001 182 74 61 0.000000
-0.02133833 -0.00611445 0.26700002 180 72 59 0.000000
-0.02063294 -0.00609155 0.26600000 182 72 60 0.000000
-0.02000747 -0.00609155 0.26600000 183 73 61 0.000000
-0.01938200 -0.00609155 0.26600000 182 69 58 0.000000
-0.01875653 -0.00609155 0.26600000 183 70 59 0.000000
-0.01813106 -0.00609155 0.26600000 191 75 63 0.000000
-0.01750559 -0.00609155 0.26600000 188 72 60 0.000000
-0.01694357 -0.00611445 0.26700002 194 74 63 0.000000
-0.01631575 -0.00611445 0.26700002 194 74 63 0.000000
-0.01574669 -0.00613735 0.26800001 194 74 61 0.000000
-0.01511651 -0.00613735 0.26800001 193 73 60 0.000000
-0.01459445 -0.00618315 0.27000001 195 68 55 0.000000
-0.01401127 -0.00620605 0.27100003 202 75 62 0.000000
-0.01347275 -0.00625185 0.27300000 207 74 63 0.000000
-0.01287781 -0.00627475 0.27400002 211 78 67 0.000000
-0.01227818 -0.00629765 0.27500001 221 77 70 0.000000
-0.01167384 -0.00632055 0.27600002 224 80 73 0.000000
-0.01114469 -0.00638925 0.27900001 228 84 77 0.000000
-0.01052625 -0.00641215 0.28000000 230 86 79 0.000000
-0.00990310 -0.00643505 0.28100002 231 86 77 0.000000
-0.00927525 -0.00645795 0.28200001 232 87 78 0.000000
-0.00867324 -0.00650376 0.28400001 234 86 78 0.000000
-0.00800544 -0.00650376 0.28400001 234 86 78 0.000000
-0.00736348 -0.00652666 0.28500003 241 88 82 0.000000
-0.00671682 -0.00654956 0.28600001 241 88 82 0.000000
-0.00606545 -0.00657246 0.28700000 242 87 79 0.000000
-0.00540939 -0.00659536 0.28800002 246 87 78 0.000000
-0.00473219 -0.00659536 0.28800002 248 89 80 0.000000
-0.00405498 -0.00659536 0.28800002 252 93 84 0.000000
-0.00338951 -0.00661826 0.28900000 249 90 81 0.000000
-0.00271933 -0.00664116 0.29000002 246 87 78 0.000000
-0.00203743 -0.00664116 0.29000002 245 86 77 0.000000
-0.00136020 -0.00666406 0.29100001 249 90 81 0.000000
-0.00067594 -0.00666406 0.29100001 253 94 85 0.000000
0.00000834 -0.00668696 0.29200003 253 94 85 0.000000
0.00069495 -0.00668696 0.29200003 249 90 81 0.000000
0.00138629 -0.00670986 0.29300001 247 91 81 0.000000
0.00208233 -0.00673276 0.29400000 247 91 81 0.000000
0.00278307 -0.00675566 0.29500002 248 92 82 0.000000
0.00348852 -0.00677856 0.29600000 249 93 83 0.000000
0.00419867 -0.00680146 0.29700002 248 92 84 0.000000
0.00491352 -0.00682436 0.29800001 248 92 84 0.000000
0.00561423 -0.00682436 0.29800001 246 93 87 0.000000
0.00633614 -0.00684726 0.29900002 246 93 87 0.000000
0.00703921 -0.00684726 0.29900002 244 93 88 0.000000
0.00771638 -0.00682436 0.29800001 239 88 83 0.000000
0.00838885 -0.00680146 0.29700002 238 90 84 0.000000
0.00905662 -0.00677856 0.29600000 240 92 86 0.000000
0.00971968 -0.00675566 0.29500002 236 90 86 0.000000
0.01037805 -0.00673276 0.29400000 232 86 82 0.000000
0.01099405 -0.00668696 0.29200003 226 84 79 0.000000
0.01164066 -0.00666406 0.29100001 226 84 79 0.000000
0.01228256 -0.00664116 0.29000002 223 83 77 0.000000
0.01291976 -0.00661826 0.28900000 221 81 75 0.000000
0.01359931 -0.00661826 0.28900000 225 85 81 0.000000
0.01422946 -0.00659536 0.28800002 220 80 76 0.000000
0.01490666 -0.00659536 0.28800002 220 80 76 0.000000
0.01563797 -0.00661826 0.28900000 217 77 73 0.000000
0.01637399 -0.00664116 0.29000002 215 76 67 0.000000
0.01711470 -0.00666406 0.29100001 218 79 70 0.000000
0.01786012 -0.00668696 0.29200003 222 81 73 0.000000
0.01867376 -0.00673276 0.29400000 228 87 79 0.000000
0.01943094 -0.00675566 0.29500002 240 92 86 0.000000
0.02019282 -0.00677856 0.29600000 249 101 95 0.000000
0.02095940 -0.00680146 0.29700002 253 108 101 0.000000
0.02180361 -0.00684726 0.29900002 252 107 100 0.000000
0.02258195 -0.00687016 0.30000001 255 118 112 0.000000
0.02328737 -0.00687016 0.30000001 255 119 113 0.000000
0.02407276 -0.00689306 0.30100003 253 119 111 0.000000
0.02494519 -0.00693887 0.30300000 254 120 112 0.000000
0.02582702 -0.00698467 0.30500001 254 120 112 0.000000
0.02671826 -0.00703047 0.30700001 253 119 111 0.000000
0.02752951 -0.00705337 0.30800003 254 120 112 0.000000
0.02834547 -0.00707627 0.30900002 249 119 114 0.000000
0.02926023 -0.00712207 0.31100002 251 121 116 0.000000
0.03018438 -0.00716787 0.31300002 221 121 126 0.000000
-0.05677631 -0.00708946 0.34500003 21 24 25 0.000000
-0.05401847 -0.00684287 0.33300000 20 23 24 0.000000
-0.05275586 -0.00678122 0.33000001 22 22 22 0.000000
-0.05134984 -0.00669902 0.32600001 27 27 27 0.000000
-0.04980747 -0.00659628 0.32100001 41 26 25 0.000000
-0.04844142 -0.00651408 0.31700000 45 30 29 0.000000
-0.04576577 -0.00634969 0.30900002 105 59 55 0.000000
-0.04460191 -0.00628804 0.30600002 122 57 44 0.000000
-0.04359557 -0.00624694 0.30400002 122 57 44 0.000000
-0.04245758 -0.00618530 0.30100003 134 58 44 0.000000
-0.04161111 -0.00616475 0.30000001 134 58 44 0.000000
-0.04063299 -0.00612365 0.29800001 153 65 55 0.000000
-0.03993227 -0.00612365 0.29800001 162 68 57 0.000000
-0.03923155 -0.00612365 0.29800001 163 69 58 0.000000
-0.03853084 -0.00612365 0.29800001 168 70 52 0.000000
-0.03795707 -0.00614420 0.29900002 168 70 52 0.000000
-0.03725401 -0.00614420 0.29900002 170 69 52 0.000000
-0.03655094 -0.00614420 0.29900002 170 69 52 0.000000
-0.03596776 -0.00616475 0.30000001 167 66 49 0.000000
-0.03526234 -0.00616475 0.30000001 168 67 50 0.000000
-0.03455693 -0.00616475 0.30000001 171 66 55 0.000000
-0.03385151 -0.00616475 0.30000001 172 67 56 0.000000
-0.03314609 -0.00616475 0.30000001 171 66 59 0.000000
-0.03244067 -0.00616475 0.30000001 173 68 61 0.000000
-0.03162947 -0.00614420 0.29900002 175 70 61 0.000000
-0.03092640 -0.00614420 0.29900002 173 68 59 0.000000
-0.03012225 -0.00612365 0.29800001 172 67 56 0.000000
-0.02932281 -0.00610310 0.29700002 172 67 56 0.000000
-0.02852806 -0.00608255 0.29600000 173 69 55 0.000000
-0.02773803 -0.00606200 0.29500002 175 71 57 0.000000
-0.02327095 -0.00565102 0.27500001 179 71 58 0.000000
-0.02221296 -0.00554827 0.27000001 182 72 60 0.000000
-0.02133833 -0.00548662 0.26700002 180 70 58 0.000000
-0.02063294 -0.00546607 0.26600000 183 73 61 0.000000
-0.02000747 -0.00546607 0.26600000 183 73 61 0.000000
-0.01938200 -0.00546607 0.26600000 182 69 58 0.000000
-0.01875653 -0.00546607 0.26600000 184 71 60 0.000000
-0.01813106 -0.00546607 0.26600000 193 75 64 0.000000
-0.01750559 -0.00546607 0.26600000 188 70 59 0.000000
-0.01688011 -0.00546607 0.26600000 191 69 59 0.000000
-0.01631575 -0.00548662 0.26700002 195 73 63 0.000000
-0.01568793 -0.00548662 0.26700002 201 73 63 0.000000
-0.01511651 -0.00550717 0.26800001 193 65 55 0.000000
-0.01454039 -0.00552772 0.26900002 196 62 54 0.000000
-0.01395957 -0.00554827 0.27000001 202 68 60 0.000000
-0.01342340 -0.00558937 0.27200001 206 69 62 0.000000
-0.01283081 -0.00560992 0.27300000 208 71 64 0.000000
-0.01223353 -0.00563047 0.27400002 215 73 70 0.000000
-0.01167384 -0.00567157 0.27600002 218 76 73 0.000000
-0.01110475 -0.00571266 0.27800003 222 80 77 0.000000
-0.01048866 -0.00573321 0.27900001 226 84 81 0.000000
-0.00986786 -0.00575376 0.28000000 228 86 83 0.000000
-0.00924236 -0.00577431 0.28100002 228 86 83 0.000000
-0.00861216 -0.00579486 0.28200001 225 80 76 0.000000
-0.00797725 -0.00581541 0.28300002 227 82 78 0.000000
-0.00733764 -0.00583596 0.28400001 242 90 88 0.000000
-0.00669333 -0.00585651 0.28500003 243 91 89 0.000000
-0.00602319 -0.00585651 0.28500003 247 91 88 0.000000
-0.00471575 -0.00589761 0.28700000 246 89 84 0.000000
-0.00404090 -0.00589761 0.28700000 251 92 85 0.000000
-0.00337778 -0.00591816 0.28800002 250 91 84 0.000000
-0.00270996 -0.00593871 0.28900000 248 89 82 0.000000
-0.00203743 -0.00595925 0.29000002 246 87 80 0.000000
-0.00135553 -0.00595925 0.29000002 249 90 83 0.000000
-0.00067594 -0.00597980 0.29100001 251 92 85 0.000000
0.00000831 -0.00597980 0.29100001 253 94 87 0.000000
0.00069495 -0.00600035 0.29200003 250 91 84 0.000000
0.00138629 -0.00602090 0.29300001 250 91 84 0.000000
0.00208941 -0.00606200 0.29500002 251 92 85 0.000000
0.00278307 -0.00606200 0.29500002 249 93 85 0.000000
0.00348852 -0.00608255 0.29600000 249 93 85 0.000000
0.00419867 -0.00610310 0.29700002 249 93 85 0.000000
0.00491352 -0.00612365 0.29800001 249 93 85 0.000000
0.00563307 -0.00614420 0.29900002 244 93 88 0.000000
0.00633614 -0.00614420 0.29900002 243 92 87 0.000000
0.00703921 -0.00614420 0.29900002 241 92 89 0.000000
0.00771638 -0.00612365 0.29800001 238 89 86 0.000000
0.00838885 -0.00610310 0.29700002 236 90 86 0.000000
0.00905662 -0.00608255 0.29600000 236 90 86 0.000000
0.00968673 -0.00604145 0.29400000 233 91 86 0.000000
0.01034275 -0.00602090 0.29300001 231 89 84 0.000000
0.01095640 -0.00597980 0.29100001 230 88 83 0.000000
0.01160066 -0.00595925 0.29000002 228 86 81 0.000000
0.01224021 -0.00593871 0.28900000 227 87 81 0.000000
0.01287505 -0.00591816 0.28800002 225 85 79 0.000000
0.01350520 -0.00589761 0.28700000 224 84 80 0.000000
0.01418005 -0.00589761 0.28700000 218 78 74 0.000000
0.01490666 -0.00591816 0.28800002 214 74 70 0.000000
0.01558386 -0.00591816 0.28800002 213 73 69 0.000000
0.01631752 -0.00593871 0.28900000 216 76 70 0.000000
0.01705589 -0.00595925 0.29000002 218 78 72 0.000000
0.01786012 -0.00600035 0.29200003 218 81 74 0.000000
0.01861025 -0.00602090 0.29300001 225 88 81 0.000000
0.01943094 -0.00606200 0.29500002 234 89 82 0.000000
0.02019282 -0.00608255 0.29600000 243 98 91 0.000000
0.02095940 -0.00610310 0.29700002 248 103 96 0.000000
0.02180361 -0.00614420 0.29900002 252 107 100 0.000000
0.02250668 -0.00614420 0.29900002 255 111 104 0.000000
0.02328737 -0.00616475 0.30000001 255 115 108 0.000000
0.02407276 -0.00618530 0.30100003 252 113 104 0.000000
0.02494519 -0.00622639 0.30300000 253 114 105 0.000000
0.02582702 -0.00626749 0.30500001 252 112 106 0.000000
0.02671826 -0.00630859 0.30700001 254 117 110 0.000000
0.02761889 -0.00634969 0.30900002 255 118 111 0.000000
0.02843721 -0.00637024 0.31000000 252 120 113 0.000000
0.02935431 -0.00641134 0.31200001 252 120 113 0.000000
0.03028082 -0.00645243 0.31400001 224 128 132 0.000000
0.03121673 -0.00649353 0.31600001 255 193 197 0.000000
-0.04828861 -0.00575049 0.31600001 48 36 36 0.000000
-0.04576577 -0.00562311 0.30900002 97 56 50 0.000000
-0.04460191 -0.00556851 0.30600002 122 57 46 0.000000
-0.04359557 -0.00553212 0.30400002 124 59 48 0.000000
-0.04245758 -0.00547753 0.30100003 131 57 42 0.000000
-0.04161111 -0.00545933 0.30000001 134 60 45 0.000000
-0.04076934 -0.00544113 0.29900002 151 66 52 0.000000
-0.03993227 -0.00542293 0.29800001 164 71 60 0.000000
-0.03923155 -0.00542293 0.29800001 165 72 61 0.000000
-0.03866014 -0.00544113 0.29900002 166 73 55 0.000000
-0.03795707 -0.00544113 0.29900002 166 73 55 0.000000
-0.03725401 -0.00544113 0.29900002 165 67 51 0.000000
-0.03667318 -0.00545933 0.30000001 166 68 52 0.000000
-0.03596776 -0.00545933 0.30000001 165 67 51 0.000000
-0.03537989 -0.00547753 0.30100003 165 67 51 0.000000
-0.03467212 -0.00547753 0.30100003 171 69 57 0.000000
-0.03396435 -0.00547753 0.30100003 170 68 56 0.000000
-0.03325658 -0.00547753 0.30100003 169 67 55 0.000000
-0.03244067 -0.00545933 0.30000001 170 68 56 0.000000
-0.03173525 -0.00545933 0.30000001 169 67 57 0.000000
-0.03092640 -0.00544113 0.29900002 170 68 58 0.000000
-0.03022334 -0.00544113 0.29900002 169 67 55 0.000000
-0.02942154 -0.00542293 0.29800001 169 67 55 0.000000
-0.02862445 -0.00540473 0.29700002 175 70 59 0.000000
-0.02773803 -0.00536834 0.29500002 172 67 56 0.000000
-0.02133833 -0.00485880 0.26700002 179 71 58 0.000000
-0.02071051 -0.00485880 0.26700002 183 73 61 0.000000
-0.02000747 -0.00484060 0.26600000 182 72 60 0.000000
-0.01938200 -0.00484060 0.26600000 185 69 59 0.000000
-0.01875653 -0.00484060 0.26600000 185 69 59 0.000000
-0.01813106 -0.00484060 0.26600000 195 73 65 0.000000
-0.01750559 -0.00484060 0.26600000 189 67 59 0.000000
-0.01688011 -0.00484060 0.26600000 185 55 48 0.000000
-0.01625464 -0.00484060 0.26600000 190 60 53 0.000000
-0.01223353 -0.00498619 0.27400002 218 86 81 0.000000
-0.01163155 -0.00500438 0.27500001 222 90 85 0.000000
-0.01106480 -0.00504078 0.27700001 221 91 86 0.000000
-0.01048866 -0.00507717 0.27900001 221 91 86 0.000000
-0.00986786 -0.00509537 0.28000000 221 91 86 0.000000
-0.00920947 -0.00509537 0.28000000 220 90 85 0.000000
-0.00861216 -0.00513177 0.28200001 220 88 83 0.000000
-0.00794906 -0.00513177 0.28200001 220 88 83 0.000000
-0.00731181 -0.00514997 0.28300002 232 90 87 0.000000
-0.00666985 -0.00516816 0.28400001 238 96 93 0.000000
-0.00602319 -0.00518636 0.28500003 240 95 88 0.000000
-0.00535304 -0.00518636 0.28500003 242 91 84 0.000000
-0.00468289 -0.00518636 0.28500003 240 89 82 0.000000
-0.00402682 -0.00520456 0.28600001 246 91 83 0.000000
-0.00336605 -0.00522276 0.28700000 247 92 84 0.000000
-0.00269120 -0.00522276 0.28700000 250 91 84 0.000000
-0.00203040 -0.00525915 0.28900000 249 90 83 0.000000
-0.00135085 -0.00525915 0.28900000 248 89 82 0.000000
-0.00067362 -0.00527735 0.29000002 250 91 84 0.000000
0.00000831 -0.00529555 0.29100001 252 93 86 0.000000
0.00069495 -0.00531375 0.29200003 250 91 84 0.000000
0.00138629 -0.00533194 0.29300001 252 93 86 0.000000
0.00208233 -0.00535014 0.29400000 252 93 86 0.000000
0.00278307 -0.00536834 0.29500002 248 92 84 0.000000
0.00350030 -0.00540473 0.29700002 247 91 83 0.000000
0.00421280 -0.00542293 0.29800001 247 91 83 0.000000
0.00491352 -0.00542293 0.29800001 248 92 84 0.000000
0.00563307 -0.00544113 0.29900002 243 90 84 0.000000
0.00633614 -0.00544113 0.29900002 244 91 85 0.000000
0.00703921 -0.00544113 0.29900002 244 93 88 0.000000
0.00771638 -0.00542293 0.29800001 243 92 87 0.000000
0.00836061 -0.00538654 0.29600000 240 92 86 0.000000
0.00902602 -0.00536834 0.29500002 238 90 84 0.000000
0.00965379 -0.00533194 0.29300001 237 93 86 0.000000
0.01030745 -0.00531375 0.29200003 234 90 83 0.000000
0.01095640 -0.00529555 0.29100001 232 91 83 0.000000
0.01156065 -0.00525915 0.28900000 229 88 80 0.000000
0.01219785 -0.00524095 0.28800002 227 87 81 0.000000
0.01283035 -0.00522276 0.28700000 224 84 78 0.000000
0.01350520 -0.00522276 0.28700000 222 82 78 0.000000
0.01418005 -0.00522276 0.28700000 220 80 76 0.000000
0.01485490 -0.00522276 0.28700000 218 78 74 0.000000
0.01558386 -0.00524095 0.28800002 216 76 72 0.000000
0.01631752 -0.00525915 0.28900000 216 79 74 0.000000
0.01705589 -0.00527735 0.29000002 215 78 73 0.000000
0.01779896 -0.00529555 0.29100001 212 79 68 0.000000
0.01861025 -0.00533194 0.29300001 221 88 77 0.000000
0.01936507 -0.00535014 0.29400000 231 90 82 0.000000
0.02019282 -0.00538654 0.29600000 239 98 90 0.000000
0.02095940 -0.00540473 0.29700002 244 100 93 0.000000
0.02173069 -0.00542293 0.29800001 246 102 95 0.000000
0.02250668 -0.00544113 0.29900002 254 109 102 0.000000
0.02328737 -0.00545933 0.30000001 255 110 103 0.000000
0.02407276 -0.00547753 0.30100003 252 108 101 0.000000
0.02494519 -0.00551392 0.30300000 254 110 103 0.000000
0.02582702 -0.00555032 0.30500001 252 112 106 0.000000
0.02671826 -0.00558671 0.30700001 254 114 108 0.000000
0.02761889 -0.00562311 0.30900002 255 116 110 0.000000
0.02852894 -0.00565950 0.31100002 253 119 115 0.000000
0.02944840 -0.00569590 0.31300002 252 118 114 0.000000
0.03028082 -0.00571410 0.31400001 224 131 134 0.000000
0.03131552 -0.00576869 0.31700000 255 190 193 0.000000
-0.04813580 -0.00499160 0.31500003 39 28 32 0.000000
-0.04460191 -0.00484899 0.30600002 121 58 46 0.000000
-0.04359557 -0.00481729 0.30400002 122 59 47 0.000000
-0.04259863 -0.00478560 0.30200002 129 55 40 0.000000
-0.04174981 -0.00476976 0.30100003 142 60 45 0.000000
-0.04076934 -0.00473806 0.29900002 146 64 49 0.000000
-0.04006627 -0.00473806 0.29900002 155 65 53 0.000000
-0.03936321 -0.00473806 0.29900002 161 71 59 0.000000
-0.03866014 -0.00473806 0.29900002 164 70 55 0.000000
-0.03795707 -0.00473806 0.29900002 162 68 53 0.000000
-0.03737860 -0.00475391 0.30000001 163 66 52 0.000000
-0.03667318 -0.00475391 0.30000001 165 68 54 0.000000
-0.03596776 -0.00475391 0.30000001 168 69 56 0.000000
-0.03537989 -0.00476976 0.30100003 169 70 57 0.000000
-0.03467212 -0.00476976 0.30100003 169 70 57 0.000000
-0.03396435 -0.00476976 0.30100003 167 68 55 0.000000
-0.03325658 -0.00476976 0.30100003 166 67 54 0.000000
-0.03254881 -0.00476976 0.30100003 169 70 57 0.000000
-0.03173525 -0.00475391 0.30000001 167 68 55 0.000000
-0.03102984 -0.00475391 0.30000001 166 67 54 0.000000
-0.03022334 -0.00473806 0.29900002 166 67 54 0.000000
-0.02952027 -0.00473806 0.29900002 167 68 55 0.000000
-0.02872082 -0.00472222 0.29800001 169 67 55 0.000000
-0.02773803 -0.00467468 0.29500002 170 68 56 0.000000
-0.02667766 -0.00461129 0.29100001 173 68 57 0.000000
-0.02133833 -0.00423098 0.26700002 178 69 59 0.000000
-0.02071051 -0.00423098 0.26700002 185 68 61 0.000000
-0.02008269 -0.00423098 0.26700002 185 68 61 0.000000
-0.01938200 -0.00421513 0.26600000 188 66 58 0.000000
-0.01875653 -0.00421513 0.26600000 184 62 54 0.000000
-0.01813106 -0.00421513 0.26600000 189 58 56 0.000000
-0.01750559 -0.00421513 0.26600000 189 58 56 0.000000
-0.01688011 -0.00421513 0.26600000 189 60 57 0.000000
-0.01625464 -0.00421513 0.26600000 201 72 69 0.000000
-0.01568793 -0.00423098 0.26700002 217 95 87 0.000000
-0.01506011 -0.00423098 0.26700002 238 116 108 0.000000
-0.01448634 -0.00424683 0.26800001 253 133 124 0.000000
-0.01385617 -0.00424683 0.26800001 255 140 131 0.000000
-0.01332469 -0.00427852 0.27000001 255 148 137 0.000000
-0.01273682 -0.00429437 0.27100003 255 154 143 0.000000
-0.01218888 -0.00432606 0.27300000 255 161 149 0.000000
-0.01158925 -0.00434190 0.27400002 255 162 150 0.000000
-0.01102486 -0.00437360 0.27600002 255 158 146 0.000000
-0.01045106 -0.00440529 0.27800003 255 159 147 0.000000
-0.00983262 -0.00442114 0.27900001 255 158 146 0.000000
-0.00917658 -0.00442114 0.27900001 255 151 139 0.000000
-0.00858162 -0.00445283 0.28100002 251 140 131 0.000000
-0.00792088 -0.00445283 0.28100002 241 130 121 0.000000
-0.00728597 -0.00446867 0.28200001 238 121 114 0.000000
-0.00664636 -0.00448452 0.28300002 235 118 111 0.000000
-0.00598092 -0.00448452 0.28300002 227 105 95 0.000000
-0.00533426 -0.00450037 0.28400001 228 95 84 0.000000
-0.00466646 -0.00450037 0.28400001 225 92 81 0.000000
-0.00401274 -0.00451621 0.28500003 236 88 82 0.000000
-0.00334260 -0.00451621 0.28500003 236 88 82 0.000000
-0.00268183 -0.00453206 0.28600001 245 89 84 0.000000
-0.00201635 -0.00454791 0.28700000 247 91 86 0.000000
-0.00134618 -0.00456375 0.28800002 248 91 86 0.000000
-0.00067130 -0.00457960 0.28900000 248 91 86 0.000000
0.00000825 -0.00457960 0.28900000 251 91 87 0.000000
0.00069257 -0.00461129 0.29100001 251 91 87 0.000000
0.00138155 -0.00462714 0.29200003 253 94 87 0.000000
0.00208233 -0.00465883 0.29400000 253 94 87 0.000000
0.00278307 -0.00467468 0.29500002 249 93 85 0.000000
0.00348852 -0.00469052 0.29600000 249 93 85 0.000000
0.00419867 -0.00470637 0.29700002 248 92 84 0.000000
0.00491352 -0.00472222 0.29800001 248 92 84 0.000000
0.00563307 -0.00473806 0.29900002 249 93 85 0.000000
0.00633614 -0.00473806 0.29900002 248 92 84 0.000000
0.00703921 -0.00473806 0.29900002 248 92 87 0.000000
0.00771638 -0.00472222 0.29800001 248 92 87 0.000000
0.00836061 -0.00469052 0.29600000 244 93 86 0.000000
0.00902602 -0.00467468 0.29500002 242 91 84 0.000000
0.00965379 -0.00464298 0.29300001 238 93 86 0.000000
0.01027215 -0.00461129 0.29100001 236 91 84 0.000000
0.01091875 -0.00459545 0.29000002 232 91 83 0.000000
0.01156065 -0.00457960 0.28900000 230 89 81 0.000000
0.01219785 -0.00456375 0.28800002 226 84 79 0.000000
0.01283035 -0.00454791 0.28700000 226 84 79 0.000000
0.01345814 -0.00453206 0.28600001 224 82 77 0.000000
0.01413064 -0.00453206 0.28600001 224 82 77 0.000000
0.01485490 -0.00454791 0.28700000 221 81 77 0.000000
0.01552975 -0.00454791 0.28700000 218 78 74 0.000000
0.01626106 -0.00456375 0.28800002 218 78 74 0.000000
0.01705589 -0.00459545 0.29000002 218 78 74 0.000000
0.01779896 -0.00461129 0.29100001 220 83 76 0.000000
0.01854673 -0.00462714 0.29200003 226 89 82 0.000000
0.01936507 -0.00465883 0.29400000 231 92 83 0.000000
0.02012460 -0.00467468 0.29500002 236 97 88 0.000000
0.02088883 -0.00469052 0.29600000 242 97 90 0.000000
0.02165777 -0.00470637 0.29700002 245 100 93 0.000000
0.02250668 -0.00473806 0.29900002 249 104 97 0.000000
0.02328737 -0.00475391 0.30000001 252 107 100 0.000000
0.02407276 -0.00476976 0.30100003 251 107 100 0.000000
0.02494519 -0.00480145 0.30300000 254 110 103 0.000000
0.02582702 -0.00483314 0.30500001 254 113 105 0.000000
0.02671826 -0.00486483 0.30700001 254 114 108 0.000000
0.02761889 -0.00489653 0.30900002 255 116 110 0.000000
0.02852894 -0.00492822 0.31100002 253 119 115 0.000000
0.02944840 -0.00495991 0.31300002 250 116 112 0.000000
0.03037725 -0.00499160 0.31500003 220 127 130 0.000000
0.03131552 -0.00502330 0.31700000 255 189 192 0.000000
-0.04783018 -0.00422393 0.31300002 30 24 26 0.000000
-0.04664281 -0.00418344 0.31000000 87 52 47 0.000000
-0.04546955 -0.00414296 0.30700001 96 61 56 0.000000
-0.04359557 -0.00410247 0.30400002 117 59 47 0.000000
-0.04259863 -0.00407548 0.30200002 125 55 41 0.000000
-0.04174981 -0.00406199 0.30100003 139 58 43 0.000000
-0.04076934 -0.00403500 0.29900002 143 62 47 0.000000
-0.04006627 -0.00403500 0.29900002 154 64 52 0.000000
-0.03936321 -0.00403500 0.29900002 159 69 57 0.000000
-0.03866014 -0.00403500 0.29900002 163 69 56 0.000000
-0.03795707 -0.00403500 0.29900002 163 69 56 0.000000
-0.03725401 -0.00403500 0.29900002 163 69 56 0.000000
-0.03667318 -0.00404849 0.30000001 163 69 56 0.000000
-0.03596776 -0.00404849 0.30000001 163 69 56 0.000000
-0.03526234 -0.00404849 0.30000001 164 70 57 0.000000
-0.03467212 -0.00406199 0.30100003 165 71 58 0.000000
-0.03396435 -0.00406199 0.30100003 164 70 57 0.000000
-0.03325658 -0.00406199 0.30100003 165 68 56 0.000000
-0.03244067 -0.00404849 0.30000001 166 69 57 0.000000
-0.03173525 -0.00404849 0.30000001 167 70 56 0.000000
-0.03102984 -0.00404849 0.30000001 167 70 56 0.000000
-0.03022334 -0.00403500 0.29900002 167 70 56 0.000000
-0.02952027 -0.00403500 0.29900002 165 68 54 0.000000
-0.02862445 -0.00400801 0.29700002 166 67 54 0.000000
-0.02764400 -0.00396752 0.29400000 169 70 57 0.000000
-0.02658599 -0.00391354 0.29000002 170 65 54 0.000000
-0.02133833 -0.00360316 0.26700002 179 68 59 0.000000
-0.02071051 -0.00360316 0.26700002 187 64 59 0.000000
-0.02008269 -0.00360316 0.26700002 183 60 55 0.000000
-0.01945486 -0.00360316 0.26700002 186 55 53 0.000000
-0.01875653 -0.00358966 0.26600000 189 58 56 0.000000
-0.01813106 -0.00358966 0.26600000 191 65 61 0.000000
-0.01750559 -0.00358966 0.26600000 224 98 94 0.000000
-0.01688011 -0.00358966 0.26600000 252 135 128 0.000000
-0.01625464 -0.00358966 0.26600000 255 155 148 0.000000
-0.01562917 -0.00358966 0.26600000 255 162 152 0.000000
-0.01506011 -0.00360316 0.26700002 255 164 154 0.000000
-0.01448634 -0.00361665 0.26800001 255 169 157 0.000000
-0.01385617 -0.00361665 0.26800001 255 170 158 0.000000
-0.01332469 -0.00364364 0.27000001 255 169 155 0.000000
-0.01273682 -0.00365714 0.27100003 255 166 152 0.000000
-0.01218888 -0.00368413 0.27300000 255 164 150 0.000000
-0.01158925 -0.00369762 0.27400002 255 165 151 0.000000
-0.01102486 -0.00372461 0.27600002 255 169 153 0.000000
-0.01045106 -0.00375160 0.27800003 255 171 155 0.000000
-0.00983262 -0.00376510 0.27900001 255 172 157 0.000000
-0.00917658 -0.00376510 0.27900001 255 171 156 0.000000
-0.00858162 -0.00379209 0.28100002 255 172 157 0.000000
-0.00792088 -0.00379209 0.28100002 255 172 157 0.000000
-0.00728597 -0.00380558 0.28200001 255 172 156 0.000000
-0.00662288 -0.00380558 0.28200001 255 170 154 0.000000
-0.00598092 -0.00381908 0.28300002 255 166 150 0.000000
-0.00531547 -0.00381908 0.28300002 255 156 140 0.000000
-0.00466646 -0.00383257 0.28400001 250 140 124 0.000000
-0.00399866 -0.00383257 0.28400001 235 110 99 0.000000
-0.00334260 -0.00384607 0.28500003 227 102 91 0.000000
-0.00267245 -0.00384607 0.28500003 234 94 88 0.000000
