0.01948517 0.02217569 0.21800001 185 78 56 2.000000
0.01999778 0.02217569 0.21800001 184 76 52 2.000000
0.02060447 0.02227741 0.21900001 187 79 55 2.000000
0.02111942 0.02227741 0.21900001 187 79 55 2.000000
-0.02511137 0.02268829 0.21800001 157 104 91 2.000000
-0.02448593 0.02258422 0.21700001 156 103 90 2.000000
-0.02386518 0.02248014 0.21600001 151 106 93 2.000000
-0.02324915 0.02237607 0.21500000 148 103 90 2.000000
-0.02263781 0.02227199 0.21400002 150 109 92 2.000000
-0.02213462 0.02227199 0.21400002 159 118 101 2.000000
-0.02153034 0.02216792 0.21300001 164 128 109 2.000000
-0.02102949 0.02216792 0.21300001 160 124 105 2.000000
-0.02052864 0.02216792 0.21300001 157 123 103 2.000000
-0.02002779 0.02216792 0.21300001 157 123 103 2.000000
-0.01952695 0.02216792 0.21300001 156 120 101 2.000000
-0.01902610 0.02216792 0.21300001 153 117 98 2.000000
-0.01852525 0.02216792 0.21300001 155 116 96 2.000000
-0.01810903 0.02227199 0.21400002 161 122 102 2.000000
-0.01752356 0.02216792 0.21300001 166 127 107 2.000000
-0.01694280 0.02206384 0.21200001 167 128 108 2.000000
-0.01636673 0.02195977 0.21100001 169 130 110 2.000000
-0.01294565 0.02123125 0.20400001 172 124 107 2.000000
-0.01246597 0.02123125 0.20400001 173 125 108 2.000000
-0.01198628 0.02123125 0.20400001 172 124 109 2.000000
-0.01145019 0.02112717 0.20300001 174 126 111 2.000000
-0.01097286 0.02112717 0.20300001 176 125 111 2.000000
-0.01049553 0.02112717 0.20300001 177 126 112 2.000000
-0.01001820 0.02112717 0.20300001 164 106 94 2.000000
-0.00949386 0.02102310 0.20200001 108 50 38 2.000000
-0.00901888 0.02102310 0.20200001 131 72 54 2.000000
-0.00854390 0.02102310 0.20200001 145 86 68 2.000000
-0.00806892 0.02102310 0.20200001 152 95 74 2.000000
-0.00759394 0.02102310 0.20200001 160 103 82 2.000000
-0.00715420 0.02112717 0.20300001 165 112 97 2.000000
-0.00667686 0.02112717 0.20300001 172 119 104 2.000000
-0.00619953 0.02112717 0.20300001 175 124 110 2.000000
-0.00572220 0.02112717 0.20300001 174 123 109 2.000000
-0.00524487 0.02112717 0.20300001 147 96 82 2.000000
-0.00476753 0.02112717 0.20300001 151 98 81 2.000000
-0.00429020 0.02112717 0.20300001 174 121 104 2.000000
-0.00383165 0.02123125 0.20400001 174 126 107 2.000000
-0.00335196 0.02123125 0.20400001 171 123 104 2.000000
-0.00287228 0.02123125 0.20400001 166 125 106 2.000000
-0.00239260 0.02123125 0.20400001 166 125 106 2.000000
-0.00191291 0.02123125 0.20400001 166 125 108 2.000000
-0.00143323 0.02123125 0.20400001 168 127 110 2.000000
-0.00095354 0.02123125 0.20400001 171 130 113 2.000000
-0.00047386 0.02123125 0.20400001 170 129 112 2.000000
0.00000583 0.02123125 0.20400001 176 128 111 2.000000
0.00048551 0.02123125 0.20400001 176 128 111 2.000000
0.00096993 0.02133532 0.20500001 145 90 71 2.000000
0.00144488 0.02123125 0.20400001 167 112 93 2.000000
0.00192456 0.02123125 0.20400001 177 127 106 2.000000
0.00240425 0.02123125 0.20400001 174 124 103 2.000000
0.00288393 0.02123125 0.20400001 169 125 107 2.000000
0.00336362 0.02123125 0.20400001 170 126 108 2.000000
0.00384330 0.02123125 0.20400001 171 126 113 2.000000
0.00432299 0.02123125 0.20400001 173 128 115 2.000000
0.00482621 0.02133532 0.20500001 176 131 118 2.000000
0.00530825 0.02133532 0.20500001 177 132 119 2.000000
0.00579028 0.02133532 0.20500001 178 131 118 2.000000
0.00630292 0.02143940 0.20600002 179 132 119 2.000000
0.00678730 0.02143940 0.20600002 180 124 112 2.000000
0.00727169 0.02143940 0.20600002 177 121 109 2.000000
0.00779373 0.02154347 0.20700002 175 112 98 2.000000
0.00828047 0.02154347 0.20700002 172 109 95 2.000000
0.00880956 0.02164754 0.20800000 173 113 98 2.000000
0.00929865 0.02164754 0.20800000 177 117 102 2.000000
0.00983480 0.02175162 0.20900001 180 120 107 2.000000
0.01032624 0.02175162 0.20900001 183 123 110 2.000000
0.01086944 0.02185570 0.21000001 186 126 111 2.000000
0.01136323 0.02185570 0.21000001 187 127 112 2.000000
0.01191349 0.02195977 0.21100001 200 121 108 2.000000
0.01240963 0.02195977 0.21100001 202 123 110 2.000000
0.01296694 0.02206384 0.21200001 209 122 107 2.000000
0.01346544 0.02206384 0.21200001 202 115 100 2.000000
0.01402980 0.02216792 0.21300001 171 84 67 2.000000
0.01453065 0.02216792 0.21300001 174 87 70 2.000000
0.01510206 0.02227199 0.21400002 178 96 79 2.000000
0.01560526 0.02227199 0.21400002 186 104 87 2.000000
0.01618373 0.02237607 0.21500000 189 107 90 2.000000
0.01668928 0.02237607 0.21500000 192 106 86 2.000000
0.01727481 0.02248014 0.21600001 199 113 93 2.000000
0.01778271 0.02248014 0.21600001 200 103 80 2.000000
0.01837529 0.02258422 0.21700001 200 103 80 2.000000
0.01888554 0.02258422 0.21700001 189 81 57 2.000000
0.01948517 0.02268829 0.21800001 184 76 52 2.000000
-0.02488099 0.02298804 0.21600001 153 97 83 2.000000
-0.02437309 0.02298804 0.21600001 156 100 86 2.000000
-0.02375470 0.02288162 0.21500000 150 104 88 2.000000
-0.02314101 0.02277519 0.21400002 147 101 85 2.000000
-0.02253203 0.02266877 0.21300001 152 108 92 2.000000
-0.02203118 0.02266877 0.21300001 159 115 99 2.000000
-0.02142926 0.02256234 0.21200001 161 125 106 2.000000
-0.02093076 0.02256234 0.21200001 160 124 105 2.000000
-0.02033588 0.02245591 0.21100001 158 124 104 2.000000
-0.01983974 0.02245591 0.21100001 158 124 104 2.000000
-0.01934360 0.02245591 0.21100001 151 117 97 2.000000
-0.01884745 0.02245591 0.21100001 151 117 97 2.000000
-0.01835131 0.02245591 0.21100001 155 116 96 2.000000
-0.01793979 0.02256234 0.21200001 160 121 101 2.000000
-0.01735902 0.02245591 0.21100001 162 123 103 2.000000
-0.01670304 0.02224306 0.20900001 162 123 103 2.000000
-0.01621160 0.02224306 0.20900001 167 126 107 2.000000
-0.01564494 0.02213663 0.20800000 167 126 107 2.000000
-0.01508299 0.02203021 0.20700002 164 120 102 2.000000
-0.01397318 0.02181736 0.20500001 176 132 114 2.000000
-0.01349115 0.02181736 0.20500001 170 126 108 2.000000
-0.01294565 0.02171093 0.20400001 170 126 108 2.000000
-0.01246597 0.02171093 0.20400001 170 126 108 2.000000
-0.01198628 0.02171093 0.20400001 170 124 108 2.000000
-0.01145019 0.02160450 0.20300001 168 122 106 2.000000
-0.01097286 0.02160450 0.20300001 172 126 110 2.000000
-0.01049553 0.02160450 0.20300001 175 129 113 2.000000
-0.01001820 0.02160450 0.20300001 168 120 105 2.000000
-0.00949386 0.02149808 0.20200001 136 88 73 2.000000
-0.00901888 0.02149808 0.20200001 175 127 110 2.000000
-0.00854390 0.02149808 0.20200001 178 130 113 2.000000
-0.00806892 0.02149808 0.20200001 175 129 109 2.000000
-0.00759394 0.02149808 0.20200001 175 129 109 2.000000
-0.00715420 0.02160450 0.20300001 174 128 110 2.000000
-0.00667686 0.02160450 0.20300001 170 124 108 2.000000
-0.00619953 0.02160450 0.20300001 170 124 108 2.000000
-0.00572220 0.02160450 0.20300001 173 122 106 2.000000
-0.00524487 0.02160450 0.20300001 177 126 110 2.000000
-0.00476753 0.02160450 0.20300001 155 102 85 2.000000
-0.00429020 0.02160450 0.20300001 169 116 99 2.000000
-0.00381287 0.02160450 0.20300001 172 126 106 2.000000
-0.00335196 0.02171093 0.20400001 168 122 102 2.000000
-0.00287228 0.02171093 0.20400001 164 123 104 2.000000
-0.00239260 0.02171093 0.20400001 164 123 104 2.000000
-0.00191291 0.02171093 0.20400001 166 125 108 2.000000
-0.00143323 0.02171093 0.20400001 169 128 111 2.000000
-0.00095354 0.02171093 0.20400001 170 129 112 2.000000
-0.00047618 0.02181736 0.20500001 170 129 112 2.000000
0.00000585 0.02181736 0.20500001 179 131 114 2.000000
0.00048789 0.02181736 0.20500001 173 125 108 2.000000
0.00096993 0.02181736 0.20500001 150 98 78 2.000000
0.00145196 0.02181736 0.20500001 160 108 88 2.000000
0.00193400 0.02181736 0.20500001 177 127 106 2.000000
0.00241603 0.02181736 0.20500001 175 125 104 2.000000
0.00289807 0.02181736 0.20500001 174 128 108 2.000000
0.00338011 0.02181736 0.20500001 173 127 107 2.000000
0.00386214 0.02181736 0.20500001 173 126 113 2.000000
0.00434418 0.02181736 0.20500001 177 130 117 2.000000
0.00482621 0.02181736 0.20500001 177 130 117 2.000000
0.00530825 0.02181736 0.20500001 177 130 117 2.000000
0.00579028 0.02181736 0.20500001 176 127 115 2.000000
0.00630292 0.02192378 0.20600002 178 129 117 2.000000
0.00678730 0.02192378 0.20600002 185 127 115 2.000000
0.00727169 0.02192378 0.20600002 183 125 113 2.000000
0.00779373 0.02203021 0.20700002 171 107 91 2.000000
0.00828047 0.02203021 0.20700002 170 106 90 2.000000
0.00880956 0.02213663 0.20800000 176 114 97 2.000000
0.00929865 0.02213663 0.20800000 179 117 100 2.000000
0.00983480 0.02224306 0.20900001 177 117 102 2.000000
0.01032624 0.02224306 0.20900001 183 123 108 2.000000
0.01081768 0.02224306 0.20900001 185 123 106 2.000000
0.01136323 0.02234949 0.21000001 186 124 107 2.000000
0.01191349 0.02245591 0.21100001 195 120 103 2.000000
0.01240963 0.02245591 0.21100001 198 123 106 2.000000
0.01290577 0.02245591 0.21100001 208 118 102 2.000000
0.01346544 0.02256234 0.21200001 205 115 99 2.000000
0.01402980 0.02266877 0.21300001 174 81 66 2.000000
0.01453065 0.02266877 0.21300001 172 79 64 2.000000
0.01510206 0.02277519 0.21400002 174 89 73 2.000000
0.01560526 0.02277519 0.21400002 178 93 77 2.000000
0.01618373 0.02288162 0.21500000 182 100 81 2.000000
0.01668928 0.02288162 0.21500000 187 103 82 2.000000
0.01727481 0.02298804 0.21600001 191 107 86 2.000000
0.01778271 0.02298804 0.21600001 196 99 76 2.000000
-0.02574151 0.02382228 0.21900001 154 87 72 2.000000
-0.02488099 0.02349595 0.21600001 153 97 83 2.000000
-0.02437309 0.02349595 0.21600001 156 100 86 2.000000
-0.02375470 0.02338717 0.21500000 148 100 85 2.000000
-0.02314101 0.02327839 0.21400002 147 99 84 2.000000
-0.02253203 0.02316961 0.21300001 154 110 94 2.000000
-0.02203118 0.02316961 0.21300001 158 114 98 2.000000
-0.02142926 0.02306084 0.21200001 162 123 105 2.000000
-0.02083203 0.02295206 0.21100001 162 123 105 2.000000
-0.02033588 0.02295206 0.21100001 159 123 104 2.000000
-0.01983974 0.02295206 0.21100001 158 122 103 2.000000
-0.01934360 0.02295206 0.21100001 150 114 95 2.000000
-0.01875813 0.02284328 0.21000001 149 113 94 2.000000
-0.01826433 0.02284328 0.21000001 154 113 94 2.000000
-0.01777054 0.02284328 0.21000001 159 118 99 2.000000
-0.01719448 0.02273450 0.20900001 161 120 101 2.000000
-0.01670304 0.02273450 0.20900001 161 120 101 2.000000
-0.01613403 0.02262573 0.20800000 164 120 102 2.000000
-0.01556972 0.02251695 0.20700002 168 124 106 2.000000
-0.01508299 0.02251695 0.20700002 164 118 100 2.000000
-0.01452573 0.02240817 0.20600002 165 119 101 2.000000
-0.01404135 0.02240817 0.20600002 167 121 103 2.000000
-0.01349115 0.02229939 0.20500001 168 122 104 2.000000
-0.01300911 0.02229939 0.20500001 170 124 106 2.000000
-0.01246597 0.02219062 0.20400001 172 126 108 2.000000
-0.01198628 0.02219062 0.20400001 172 126 108 2.000000
-0.01145019 0.02208184 0.20300001 172 126 108 2.000000
-0.01097286 0.02208184 0.20300001 170 124 108 2.000000
-0.01049553 0.02208184 0.20300001 170 124 108 2.000000
-0.01001820 0.02208184 0.20300001 163 119 103 2.000000
-0.00954086 0.02208184 0.20300001 159 115 99 2.000000
-0.00901888 0.02197306 0.20200001 166 122 106 2.000000
-0.00854390 0.02197306 0.20200001 164 120 104 2.000000
-0.00806892 0.02197306 0.20200001 164 120 102 2.000000
-0.00759394 0.02197306 0.20200001 168 124 106 2.000000
-0.00711896 0.02197306 0.20200001 166 122 104 2.000000
-0.00667686 0.02208184 0.20300001 170 124 106 2.000000
-0.00619953 0.02208184 0.20300001 171 125 107 2.000000
-0.00572220 0.02208184 0.20300001 172 124 107 2.000000
-0.00524487 0.02208184 0.20300001 171 123 106 2.000000
-0.00476753 0.02208184 0.20300001 159 109 88 2.000000
-0.00429020 0.02208184 0.20300001 166 116 95 2.000000
-0.00383165 0.02219062 0.20400001 172 125 103 2.000000
-0.00335196 0.02219062 0.20400001 171 124 102 2.000000
-0.00287228 0.02219062 0.20400001 166 122 102 2.000000
-0.00239260 0.02219062 0.20400001 166 122 102 2.000000
-0.00191291 0.02219062 0.20400001 166 122 106 2.000000
-0.00143323 0.02219062 0.20400001 170 126 110 2.000000
-0.00095822 0.02229939 0.20500001 170 126 110 2.000000
-0.00047618 0.02229939 0.20500001 171 127 111 2.000000
0.00000585 0.02229939 0.20500001 173 125 108 2.000000
0.00048789 0.02229939 0.20500001 169 121 104 2.000000
0.00096993 0.02229939 0.20500001 150 98 78 2.000000
0.00145196 0.02229939 0.20500001 155 103 83 2.000000
0.00193400 0.02229939 0.20500001 176 124 104 2.000000
0.00241603 0.02229939 0.20500001 174 122 102 2.000000
0.00289807 0.02229939 0.20500001 172 124 105 2.000000
0.00338011 0.02229939 0.20500001 173 125 106 2.000000
0.00386214 0.02229939 0.20500001 174 126 111 2.000000
0.00434418 0.02229939 0.20500001 176 128 113 2.000000
0.00482621 0.02229939 0.20500001 176 128 113 2.000000
0.00530825 0.02229939 0.20500001 176 128 113 2.000000
0.00579028 0.02229939 0.20500001 178 130 115 2.000000
0.00630292 0.02240817 0.20600002 175 127 112 2.000000
0.00678730 0.02240817 0.20600002 186 123 113 2.000000
0.00727169 0.02240817 0.20600002 188 125 115 2.000000
0.00779373 0.02251695 0.20700002 168 98 84 2.000000
0.00828047 0.02251695 0.20700002 167 97 83 2.000000
0.00880956 0.02262573 0.20800000 174 112 95 2.000000
0.00929865 0.02262573 0.20800000 177 115 98 2.000000
0.00983480 0.02273450 0.20900001 179 116 102 2.000000
0.01032624 0.02273450 0.20900001 181 118 104 2.000000
0.01081768 0.02273450 0.20900001 184 120 104 2.000000
0.01136323 0.02284328 0.21000001 184 120 104 2.000000
0.01185702 0.02284328 0.21000001 192 119 101 2.000000
0.01240963 0.02295206 0.21100001 193 120 102 2.000000
0.01290577 0.02295206 0.21100001 202 115 100 2.000000
0.01346544 0.02306084 0.21200001 201 114 99 2.000000
0.01396393 0.02306084 0.21200001 175 78 64 2.000000
0.01453065 0.02316961 0.21300001 178 81 67 2.000000
0.01503149 0.02316961 0.21300001 179 86 68 2.000000
0.01560526 0.02327839 0.21400002 183 90 72 2.000000
0.01610846 0.02327839 0.21400002 180 94 74 2.000000
0.01668928 0.02338717 0.21500000 188 99 76 2.000000
-0.02574151 0.02433723 0.21900001 156 89 74 2.000000
-0.02499618 0.02411498 0.21700001 154 96 82 2.000000
-0.02437309 0.02400385 0.21600001 155 97 83 2.000000
-0.02375470 0.02389272 0.21500000 148 100 83 2.000000
-0.02314101 0.02378159 0.21400002 143 95 78 2.000000
-0.02253203 0.02367046 0.21300001 157 111 95 2.000000
-0.02203118 0.02367046 0.21300001 161 115 99 2.000000
-0.02142926 0.02355933 0.21200001 163 122 105 2.000000
-0.02083203 0.02344820 0.21100001 162 121 104 2.000000
-0.02033588 0.02344820 0.21100001 159 120 102 2.000000
-0.01983974 0.02344820 0.21100001 155 116 98 2.000000
-0.01925192 0.02333707 0.21000001 152 111 92 2.000000
-0.01875813 0.02333707 0.21000001 149 108 89 2.000000
-0.01826433 0.02333707 0.21000001 156 112 92 2.000000
-0.01768592 0.02322594 0.20900001 161 117 97 2.000000
-0.01719448 0.02322594 0.20900001 159 115 95 2.000000
-0.01670304 0.02322594 0.20900001 161 117 97 2.000000
-0.01613403 0.02311482 0.20800000 163 117 97 2.000000
-0.01556972 0.02300369 0.20700002 165 119 99 2.000000
-0.01508299 0.02300369 0.20700002 161 116 93 2.000000
-0.01452573 0.02289256 0.20600002 161 116 93 2.000000
-0.01404135 0.02289256 0.20600002 166 119 97 2.000000
-0.01349115 0.02278143 0.20500001 167 120 98 2.000000
-0.01300911 0.02278143 0.20500001 167 119 100 2.000000
-0.01246597 0.02267030 0.20400001 166 118 99 2.000000
-0.01198628 0.02267030 0.20400001 167 119 100 2.000000
-0.01150660 0.02267030 0.20400001 169 121 102 2.000000
-0.01097286 0.02255917 0.20300001 166 120 100 2.000000
-0.01049553 0.02255917 0.20300001 166 120 100 2.000000
-0.01001820 0.02255917 0.20300001 164 120 102 2.000000
-0.00954086 0.02255917 0.20300001 157 113 95 2.000000
-0.00906353 0.02255917 0.20300001 161 120 101 2.000000
-0.00854390 0.02244804 0.20200001 162 121 102 2.000000
-0.00806892 0.02244804 0.20200001 164 120 102 2.000000
-0.00759394 0.02244804 0.20200001 165 121 103 2.000000
-0.00711896 0.02244804 0.20200001 165 119 101 2.000000
-0.00667686 0.02255917 0.20300001 168 122 104 2.000000
-0.00619953 0.02255917 0.20300001 167 121 103 2.000000
-0.00572220 0.02255917 0.20300001 170 119 101 2.000000
-0.00524487 0.02255917 0.20300001 167 116 98 2.000000
-0.00476753 0.02255917 0.20300001 161 111 90 2.000000
-0.00431133 0.02267030 0.20400001 166 116 95 2.000000
-0.00383165 0.02267030 0.20400001 169 122 100 2.000000
-0.00335196 0.02267030 0.20400001 171 124 102 2.000000
-0.00287228 0.02267030 0.20400001 169 126 103 2.000000
-0.00239260 0.02267030 0.20400001 168 125 102 2.000000
-0.00191291 0.02267030 0.20400001 166 122 104 2.000000
-0.00143323 0.02267030 0.20400001 170 126 108 2.000000
-0.00095822 0.02278143 0.20500001 169 125 107 2.000000
-0.00047618 0.02278143 0.20500001 170 126 108 2.000000
0.00000585 0.02278143 0.20500001 171 123 104 2.000000
0.00048789 0.02278143 0.20500001 167 119 100 2.000000
0.00096993 0.02278143 0.20500001 150 99 81 2.000000
0.00145196 0.02278143 0.20500001 159 108 90 2.000000
0.00193400 0.02278143 0.20500001 168 116 96 2.000000
0.00241603 0.02278143 0.20500001 171 119 99 2.000000
0.00289807 0.02278143 0.20500001 173 123 102 2.000000
0.00338011 0.02278143 0.20500001 175 125 104 2.000000
0.00386214 0.02278143 0.20500001 176 125 107 2.000000
0.00434418 0.02278143 0.20500001 177 126 108 2.000000
0.00482621 0.02278143 0.20500001 181 130 112 2.000000
0.00530825 0.02278143 0.20500001 180 129 111 2.000000
0.00581853 0.02289256 0.20600002 179 126 109 2.000000
0.00630292 0.02289256 0.20600002 177 124 107 2.000000
0.00678730 0.02289256 0.20600002 185 122 108 2.000000
0.00727169 0.02289256 0.20600002 183 120 106 2.000000
0.00779373 0.02300369 0.20700002 163 93 77 2.000000
0.00828047 0.02300369 0.20700002 166 96 80 2.000000
0.00880956 0.02311482 0.20800000 169 105 89 2.000000
0.00929865 0.02311482 0.20800000 173 109 93 2.000000
0.00978774 0.02311482 0.20800000 174 111 97 2.000000
0.01032624 0.02322594 0.20900001 176 113 99 2.000000
0.01081768 0.02322594 0.20900001 180 116 100 2.000000
0.01136323 0.02333707 0.21000001 180 116 100 2.000000
0.01185702 0.02333707 0.21000001 187 116 100 2.000000
0.01240963 0.02344820 0.21100001 184 113 97 2.000000
0.01290577 0.02344820 0.21100001 198 113 99 2.000000
0.01340192 0.02344820 0.21100001 199 114 100 2.000000
0.01396393 0.02355933 0.21200001 178 77 62 2.000000
0.01446243 0.02355933 0.21200001 181 80 65 2.000000
0.01503149 0.02367046 0.21300001 183 82 63 2.000000
0.01553234 0.02367046 0.21300001 184 83 64 2.000000
-0.02585905 0.02496567 0.22000001 155 85 71 2.000000
-0.02499618 0.02462523 0.21700001 155 97 81 2.000000
-0.02437309 0.02451175 0.21600001 154 96 80 2.000000
-0.02386518 0.02451175 0.21600001 143 95 78 2.000000
-0.02324915 0.02439827 0.21500000 138 90 73 2.000000
-0.02263781 0.02428479 0.21400002 149 103 85 2.000000
-0.02203118 0.02417131 0.21300001 163 117 99 2.000000
-0.02142926 0.02405783 0.21200001 164 120 102 2.000000
-0.02083203 0.02394435 0.21100001 164 120 102 2.000000
-0.02033588 0.02394435 0.21100001 159 115 97 2.000000
-0.01983974 0.02394435 0.21100001 157 113 95 2.000000
-0.01925192 0.02383086 0.21000001 153 107 89 2.000000
-0.01875813 0.02383086 0.21000001 152 106 88 2.000000
-0.01826433 0.02383086 0.21000001 156 110 90 2.000000
-0.01768592 0.02371738 0.20900001 159 113 93 2.000000
-0.01719448 0.02371738 0.20900001 158 112 92 2.000000
-0.01670304 0.02371738 0.20900001 161 115 95 2.000000
-0.01613403 0.02360390 0.20800000 161 116 93 2.000000
-0.01556972 0.02349043 0.20700002 161 116 93 2.000000
-0.01508299 0.02349043 0.20700002 161 114 92 2.000000
-0.01452573 0.02337695 0.20600002 160 113 91 2.000000
-0.01404135 0.02337695 0.20600002 164 117 93 2.000000
-0.01349115 0.02326346 0.20500001 161 114 90 2.000000
-0.01300911 0.02326346 0.20500001 167 117 94 2.000000
-0.01246597 0.02314998 0.20400001 166 116 93 2.000000
-0.01198628 0.02314998 0.20400001 166 116 95 2.000000
-0.01150660 0.02314998 0.20400001 168 118 97 2.000000
-0.01097286 0.02303650 0.20300001 165 118 96 2.000000
-0.01049553 0.02303650 0.20300001 165 118 96 2.000000
-0.01001820 0.02303650 0.20300001 164 118 98 2.000000
-0.00954086 0.02303650 0.20300001 156 110 90 2.000000
-0.00906353 0.02303650 0.20300001 161 115 97 2.000000
-0.00858620 0.02303650 0.20300001 165 119 101 2.000000
-0.00810886 0.02303650 0.20300001 165 117 100 2.000000
-0.00763153 0.02303650 0.20300001 166 118 101 2.000000
-0.00715420 0.02303650 0.20300001 166 118 101 2.000000
-0.00667686 0.02303650 0.20300001 168 117 101 2.000000
-0.00619953 0.02303650 0.20300001 167 116 100 2.000000
-0.00572220 0.02303650 0.20300001 169 116 99 2.000000
-0.00524487 0.02303650 0.20300001 167 114 97 2.000000
-0.00476753 0.02303650 0.20300001 161 109 89 2.000000
-0.00431133 0.02314998 0.20400001 161 109 89 2.000000
-0.00383165 0.02314998 0.20400001 169 117 95 2.000000
-0.00335196 0.02314998 0.20400001 171 119 97 2.000000
-0.00287228 0.02314998 0.20400001 171 124 100 2.000000
-0.00239260 0.02314998 0.20400001 169 122 98 2.000000
-0.00192229 0.02326346 0.20500001 170 124 104 2.000000
-0.00144025 0.02326346 0.20500001 172 126 106 2.000000
-0.00095822 0.02326346 0.20500001 172 126 106 2.000000
-0.00047618 0.02326346 0.20500001 170 124 104 2.000000
0.00000585 0.02326346 0.20500001 167 119 100 2.000000
0.00048789 0.02326346 0.20500001 165 117 98 2.000000
0.00096993 0.02326346 0.20500001 156 104 84 2.000000
0.00145196 0.02326346 0.20500001 153 101 81 2.000000
0.00193400 0.02326346 0.20500001 164 112 92 2.000000
0.00241603 0.02326346 0.20500001 169 117 97 2.000000
0.00289807 0.02326346 0.20500001 174 119 98 2.000000
0.00338011 0.02326346 0.20500001 176 121 100 2.000000
0.00386214 0.02326346 0.20500001 175 123 103 2.000000
0.00434418 0.02326346 0.20500001 176 124 104 2.000000
0.00482621 0.02326346 0.20500001 179 126 109 2.000000
0.00530825 0.02326346 0.20500001 178 125 108 2.000000
0.00581853 0.02337695 0.20600002 178 125 108 2.000000
0.00630292 0.02337695 0.20600002 176 123 106 2.000000
0.00678730 0.02337695 0.20600002 184 120 104 2.000000
0.00727169 0.02337695 0.20600002 182 118 102 2.000000
0.00779373 0.02349043 0.20700002 164 93 77 2.000000
0.00828047 0.02349043 0.20700002 160 89 73 2.000000
0.00876721 0.02349043 0.20700002 164 97 80 2.000000
0.00929865 0.02360390 0.20800000 173 106 89 2.000000
0.00978774 0.02360390 0.20800000 174 107 92 2.000000
0.01027683 0.02360390 0.20800000 177 110 95 2.000000
0.01081768 0.02371738 0.20900001 178 111 96 2.000000
0.01130912 0.02371738 0.20900001 181 114 99 2.000000
0.01185702 0.02383086 0.21000001 185 114 98 2.000000
0.01235082 0.02383086 0.21000001 184 113 97 2.000000
0.01290577 0.02394435 0.21100001 195 110 96 2.000000
0.01340192 0.02394435 0.21100001 197 112 98 2.000000
0.01389806 0.02394435 0.21100001 181 80 65 2.000000
-0.02597659 0.02559881 0.22100002 150 79 65 2.000000
-0.02522656 0.02536714 0.21900001 151 92 74 2.000000
-0.02448593 0.02513548 0.21700001 153 94 76 2.000000
-0.02386518 0.02501965 0.21600001 142 91 73 2.000000
-0.02324915 0.02490382 0.21500000 136 85 67 2.000000
-0.02263781 0.02478799 0.21400002 145 99 81 2.000000
-0.02203118 0.02467215 0.21300001 158 112 94 2.000000
-0.02142926 0.02455632 0.21200001 159 113 93 2.000000
-0.02083203 0.02444049 0.21100001 164 118 98 2.000000
-0.02033588 0.02444049 0.21100001 157 111 91 2.000000
-0.01983974 0.02444049 0.21100001 156 110 90 2.000000
-0.01934360 0.02444049 0.21100001 150 104 84 2.000000
-0.01875813 0.02432466 0.21000001 150 104 84 2.000000
-0.01826433 0.02432466 0.21000001 151 106 83 2.000000
-0.01768592 0.02420883 0.20900001 156 111 88 2.000000
-0.01719448 0.02420883 0.20900001 156 111 86 2.000000
-0.01670304 0.02420883 0.20900001 159 114 89 2.000000
-0.01613403 0.02409299 0.20800000 159 114 89 2.000000
-0.01556972 0.02397716 0.20700002 160 115 90 2.000000
-0.01508299 0.02397716 0.20700002 160 111 85 2.000000
-0.01452573 0.02386133 0.20600002 154 105 79 2.000000
-0.01404135 0.02386133 0.20600002 158 107 82 2.000000
-0.01349115 0.02374550 0.20500001 161 110 85 2.000000
-0.01300911 0.02374550 0.20500001 167 115 93 2.000000
-0.01246597 0.02362967 0.20400001 167 115 93 2.000000
-0.01198628 0.02362967 0.20400001 164 112 90 2.000000
-0.01150660 0.02362967 0.20400001 167 115 93 2.000000
-0.01102692 0.02362967 0.20400001 164 114 93 2.000000
-0.01049553 0.02351384 0.20300001 167 117 96 2.000000
-0.01001820 0.02351384 0.20300001 163 112 94 2.000000
-0.00954086 0.02351384 0.20300001 156 105 87 2.000000
-0.00906353 0.02351384 0.20300001 157 106 90 2.000000
-0.00858620 0.02351384 0.20300001 164 113 97 2.000000
-0.00810886 0.02351384 0.20300001 164 113 97 2.000000
-0.00763153 0.02351384 0.20300001 167 116 100 2.000000
-0.00715420 0.02351384 0.20300001 170 114 100 2.000000
-0.00667686 0.02351384 0.20300001 166 110 96 2.000000
-0.00619953 0.02351384 0.20300001 166 110 96 2.000000
-0.00572220 0.02351384 0.20300001 165 109 93 2.000000
-0.00524487 0.02351384 0.20300001 169 113 97 2.000000
-0.00479102 0.02362967 0.20400001 162 105 86 2.000000
-0.00431133 0.02362967 0.20400001 152 95 76 2.000000
-0.00383165 0.02362967 0.20400001 170 115 94 2.000000
-0.00335196 0.02362967 0.20400001 173 118 97 2.000000
-0.00287228 0.02362967 0.20400001 174 122 100 2.000000
-0.00240432 0.02374550 0.20500001 174 122 100 2.000000
-0.00192229 0.02374550 0.20500001 174 123 105 2.000000
-0.00144025 0.02374550 0.20500001 173 122 104 2.000000
-0.00095822 0.02374550 0.20500001 172 124 105 2.000000
-0.00047618 0.02374550 0.20500001 171 123 104 2.000000
0.00000585 0.02374550 0.20500001 170 119 101 2.000000
0.00048789 0.02374550 0.20500001 169 118 100 2.000000
0.00096993 0.02374550 0.20500001 161 109 89 2.000000
0.00145196 0.02374550 0.20500001 143 91 71 2.000000
0.00193400 0.02374550 0.20500001 165 110 89 2.000000
0.00241603 0.02374550 0.20500001 170 115 94 2.000000
0.00289807 0.02374550 0.20500001 172 117 96 2.000000
0.00338011 0.02374550 0.20500001 176 121 100 2.000000
0.00386214 0.02374550 0.20500001 179 124 105 2.000000
0.00434418 0.02374550 0.20500001 177 122 103 2.000000
0.00482621 0.02374550 0.20500001 176 121 102 2.000000
0.00533414 0.02386133 0.20600002 176 121 102 2.000000
0.00581853 0.02386133 0.20600002 178 121 102 2.000000
0.00630292 0.02386133 0.20600002 178 121 102 2.000000
0.00678730 0.02386133 0.20600002 183 119 103 2.000000
0.00727169 0.02386133 0.20600002 180 116 100 2.000000
0.00779373 0.02397716 0.20700002 166 92 77 2.000000
0.00828047 0.02397716 0.20700002 151 77 62 2.000000
0.00876721 0.02397716 0.20700002 158 84 71 2.000000
0.00925395 0.02397716 0.20700002 172 98 85 2.000000
0.00978774 0.02409299 0.20800000 174 104 90 2.000000
0.01027683 0.02409299 0.20800000 175 105 91 2.000000
0.01081768 0.02420883 0.20900001 179 109 93 2.000000
0.01130912 0.02420883 0.20900001 181 111 95 2.000000
0.01180056 0.02420883 0.20900001 184 113 97 2.000000
0.01235082 0.02432466 0.21000001 184 113 97 2.000000
0.01284461 0.02432466 0.21000001 192 107 93 2.000000
-0.02609413 0.02623665 0.22200002 145 74 58 2.000000
-0.02534175 0.02600028 0.22000001 156 92 76 2.000000
-0.02459876 0.02576392 0.21800001 158 94 78 2.000000
-0.02397567 0.02564573 0.21700001 144 89 70 2.000000
-0.02335728 0.02552755 0.21600001 134 79 60 2.000000
-0.02263781 0.02529119 0.21400002 137 90 68 2.000000
-0.02203118 0.02517300 0.21300001 157 110 88 2.000000
-0.02142926 0.02505482 0.21200001 157 111 91 2.000000
-0.02093076 0.02505482 0.21200001 159 113 93 2.000000
-0.02033588 0.02493664 0.21100001 157 111 91 2.000000
-0.01983974 0.02493664 0.21100001 153 107 87 2.000000
-0.01934360 0.02493664 0.21100001 152 107 84 2.000000
-0.01875813 0.02481845 0.21000001 147 102 79 2.000000
-0.01826433 0.02481845 0.21000001 147 102 77 2.000000
-0.01768592 0.02470027 0.20900001 153 108 83 2.000000
-0.01719448 0.02470027 0.20900001 157 113 85 2.000000
-0.01670304 0.02470027 0.20900001 159 115 87 2.000000
-0.01613403 0.02458208 0.20800000 160 114 87 2.000000
-0.01556972 0.02446390 0.20700002 159 113 86 2.000000
-0.01508299 0.02446390 0.20700002 160 106 80 2.000000
-0.01452573 0.02434572 0.20600002 156 102 76 2.000000
-0.01404135 0.02434572 0.20600002 166 110 84 2.000000
-0.01355696 0.02434572 0.20600002 166 110 84 2.000000
-0.01300911 0.02422754 0.20500001 167 113 89 2.000000
-0.01252708 0.02422754 0.20500001 167 113 89 2.000000
-0.01204504 0.02422754 0.20500001 166 111 90 2.000000
-0.01150660 0.02410935 0.20400001 166 111 90 2.000000
-0.01102692 0.02410935 0.20400001 166 111 92 2.000000
-0.01054723 0.02410935 0.20400001 165 110 91 2.000000
-0.01001820 0.02399117 0.20300001 163 107 91 2.000000
-0.00954086 0.02399117 0.20300001 155 99 83 2.000000
-0.00906353 0.02399117 0.20300001 153 97 81 2.000000
-0.00858620 0.02399117 0.20300001 165 109 93 2.000000
-0.00810886 0.02399117 0.20300001 165 109 95 2.000000
-0.00763153 0.02399117 0.20300001 166 110 96 2.000000
-0.00715420 0.02399117 0.20300001 168 110 96 2.000000
-0.00667686 0.02399117 0.20300001 167 109 93 2.000000
-0.00619953 0.02399117 0.20300001 167 109 93 2.000000
-0.00572220 0.02399117 0.20300001 171 113 97 2.000000
-0.00527070 0.02410935 0.20400001 173 115 99 2.000000
-0.00479102 0.02410935 0.20400001 163 104 86 2.000000
-0.00431133 0.02410935 0.20400001 140 81 63 2.000000
-0.00383165 0.02410935 0.20400001 168 109 89 2.000000
-0.00335196 0.02410935 0.20400001 176 117 97 2.000000
-0.00288636 0.02422754 0.20500001 171 116 95 2.000000
-0.00240432 0.02422754 0.20500001 174 119 98 2.000000
-0.00192229 0.02422754 0.20500001 172 117 98 2.000000
-0.00144025 0.02422754 0.20500001 173 118 99 2.000000
-0.00095822 0.02422754 0.20500001 174 118 102 2.000000
-0.00047618 0.02422754 0.20500001 167 111 95 2.000000
0.00000585 0.02422754 0.20500001 171 115 99 2.000000
0.00048789 0.02422754 0.20500001 166 110 94 2.000000
0.00096993 0.02422754 0.20500001 149 93 77 2.000000
0.00145196 0.02422754 0.20500001 138 82 66 2.000000
0.00193400 0.02422754 0.20500001 159 102 83 2.000000
0.00241603 0.02422754 0.20500001 168 111 92 2.000000
0.00289807 0.02422754 0.20500001 174 115 95 2.000000
0.00338011 0.02422754 0.20500001 177 118 98 2.000000
0.00386214 0.02422754 0.20500001 177 118 98 2.000000
0.00434418 0.02422754 0.20500001 180 121 101 2.000000
0.00484976 0.02434572 0.20600002 181 122 102 2.000000
0.00533414 0.02434572 0.20600002 179 120 100 2.000000
0.00581853 0.02434572 0.20600002 179 120 100 2.000000
0.00630292 0.02434572 0.20600002 179 120 100 2.000000
0.00678730 0.02434572 0.20600002 184 117 100 2.000000
0.00727169 0.02434572 0.20600002 179 112 95 2.000000
0.00779373 0.02446390 0.20700002 176 100 86 2.000000
0.00828047 0.02446390 0.20700002 150 74 60 2.000000
0.00876721 0.02446390 0.20700002 159 83 69 2.000000
0.00925395 0.02446390 0.20700002 164 88 74 2.000000
0.00974068 0.02446390 0.20700002 163 89 74 2.000000
0.01027683 0.02458208 0.20800000 172 98 83 2.000000
0.01076592 0.02458208 0.20800000 176 102 87 2.000000
0.01125501 0.02458208 0.20800000 179 105 90 2.000000
-0.02545694 0.02663813 0.22100002 158 88 72 2.000000
-0.02471160 0.02639706 0.21900001 151 81 65 2.000000
-0.02397567 0.02615599 0.21700001 139 77 58 2.000000
-0.02335728 0.02603545 0.21600001 129 67 48 2.000000
-0.02274360 0.02591492 0.21500000 137 82 63 2.000000
-0.02203118 0.02567385 0.21300001 157 102 83 2.000000
-0.02142926 0.02555331 0.21200001 156 106 83 2.000000
-0.02093076 0.02555331 0.21200001 160 110 87 2.000000
-0.02033588 0.02543278 0.21100001 158 111 89 2.000000
-0.01983974 0.02543278 0.21100001 154 107 85 2.000000
-0.01934360 0.02543278 0.21100001 153 106 84 2.000000
-0.01875813 0.02531224 0.21000001 144 97 75 2.000000
-0.01826433 0.02531224 0.21000001 149 104 79 2.000000
-0.01768592 0.02519171 0.20900001 156 111 86 2.000000
-0.01719448 0.02519171 0.20900001 157 113 85 2.000000
-0.01670304 0.02519171 0.20900001 158 114 86 2.000000
-0.01613403 0.02507118 0.20800000 160 111 85 2.000000
-0.01556972 0.02495064 0.20700002 159 110 84 2.000000
-0.01508299 0.02495064 0.20700002 161 103 76 2.000000
-0.01459625 0.02495064 0.20700002 159 101 74 2.000000
-0.01404135 0.02483011 0.20600002 153 92 66 2.000000
-0.01355696 0.02483011 0.20600002 165 104 78 2.000000
-0.01300911 0.02470957 0.20500001 168 112 86 2.000000
-0.01252708 0.02470957 0.20500001 169 113 87 2.000000
-0.01204504 0.02470957 0.20500001 166 111 92 2.000000
-0.01150660 0.02458904 0.20400001 166 111 92 2.000000
-0.01102692 0.02458904 0.20400001 169 114 95 2.000000
-0.01054723 0.02458904 0.20400001 167 112 93 2.000000
-0.01006755 0.02458904 0.20400001 166 109 90 2.000000
-0.00958786 0.02458904 0.20400001 154 97 78 2.000000
-0.00906353 0.02446850 0.20300001 149 90 72 2.000000
-0.00858620 0.02446850 0.20300001 167 108 90 2.000000
-0.00810886 0.02446850 0.20300001 169 110 92 2.000000
-0.00763153 0.02446850 0.20300001 169 110 92 2.000000
-0.00715420 0.02446850 0.20300001 168 109 91 2.000000
-0.00667686 0.02446850 0.20300001 170 111 91 2.000000
-0.00619953 0.02446850 0.20300001 168 109 89 2.000000
-0.00572220 0.02446850 0.20300001 170 111 91 2.000000
-0.00527070 0.02458904 0.20400001 174 115 95 2.000000
-0.00479102 0.02458904 0.20400001 166 102 86 2.000000
-0.00431133 0.02458904 0.20400001 137 73 57 2.000000
-0.00383165 0.02458904 0.20400001 155 93 74 2.000000
-0.00336840 0.02470957 0.20500001 178 116 97 2.000000
-0.00288636 0.02470957 0.20500001 174 115 95 2.000000
-0.00240432 0.02470957 0.20500001 172 113 93 2.000000
-0.00192229 0.02470957 0.20500001 173 116 97 2.000000
-0.00144025 0.02470957 0.20500001 175 118 99 2.000000
-0.00095822 0.02470957 0.20500001 173 116 97 2.000000
-0.00047618 0.02470957 0.20500001 167 110 91 2.000000
0.00000585 0.02470957 0.20500001 171 113 97 2.000000
0.00048789 0.02470957 0.20500001 168 110 94 2.000000
0.00096993 0.02470957 0.20500001 153 95 79 2.000000
0.00145196 0.02470957 0.20500001 134 76 60 2.000000
0.00193400 0.02470957 0.20500001 154 95 77 2.000000
0.00241603 0.02470957 0.20500001 170 111 93 2.000000
0.00289807 0.02470957 0.20500001 167 108 88 2.000000
0.00338011 0.02470957 0.20500001 180 121 101 2.000000
0.00388098 0.02483011 0.20600002 176 117 97 2.000000
0.00436537 0.02483011 0.20600002 177 118 98 2.000000
0.00484976 0.02483011 0.20600002 178 116 97 2.000000
0.00533414 0.02483011 0.20600002 179 117 98 2.000000
0.00581853 0.02483011 0.20600002 179 115 97 2.000000
0.00630292 0.02483011 0.20600002 179 115 97 2.000000
0.00678730 0.02483011 0.20600002 182 112 96 2.000000
0.00727169 0.02483011 0.20600002 183 113 97 2.000000
0.00779373 0.02495064 0.20700002 180 101 88 2.000000
0.00828047 0.02495064 0.20700002 154 75 62 2.000000
0.00876721 0.02495064 0.20700002 164 82 70 2.000000
0.00925395 0.02495064 0.20700002 167 85 73 2.000000
-0.02471160 0.02691201 0.21900001 142 73 54 2.000000
-0.02408616 0.02678912 0.21800001 137 71 51 2.000000
-0.02335728 0.02654335 0.21600001 129 63 43 2.000000
-0.02274360 0.02642046 0.21500000 132 73 55 2.000000
-0.02203118 0.02617469 0.21300001 163 104 86 2.000000
-0.02142926 0.02605181 0.21200001 159 104 83 2.000000
-0.02093076 0.02605181 0.21200001 160 105 84 2.000000
-0.02033588 0.02592892 0.21100001 160 108 86 2.000000
-0.01983974 0.02592892 0.21100001 154 102 80 2.000000
-0.01934360 0.02592892 0.21100001 146 96 75 2.000000
-0.01875813 0.02580604 0.21000001 136 86 65 2.000000
-0.01826433 0.02580604 0.21000001 129 79 56 2.000000
-0.01768592 0.02568315 0.20900001 154 104 81 2.000000
-0.01719448 0.02568315 0.20900001 156 106 83 2.000000
-0.01670304 0.02568315 0.20900001 160 110 87 2.000000
-0.01613403 0.02556026 0.20800000 159 110 84 2.000000
-0.01556972 0.02543738 0.20700002 157 108 82 2.000000
-0.01508299 0.02543738 0.20700002 162 101 75 2.000000
-0.01459625 0.02543738 0.20700002 160 99 73 2.000000
-0.01404135 0.02531449 0.20600002 148 88 59 2.000000
-0.01355696 0.02531449 0.20600002 164 104 75 2.000000
-0.01307257 0.02531449 0.20600002 166 108 85 2.000000
-0.01252708 0.02519161 0.20500001 165 107 84 2.000000
-0.01204504 0.02519161 0.20500001 166 107 87 2.000000
-0.01156300 0.02519161 0.20500001 169 110 90 2.000000
-0.01108097 0.02519161 0.20500001 170 111 91 2.000000
-0.01054723 0.02506872 0.20400001 169 110 90 2.000000
-0.01006755 0.02506872 0.20400001 170 108 89 2.000000
-0.00958786 0.02506872 0.20400001 160 98 79 2.000000
-0.00910818 0.02506872 0.20400001 148 86 69 2.000000
-0.00862849 0.02506872 0.20400001 164 102 85 2.000000
-0.00810886 0.02494583 0.20300001 170 108 89 2.000000
-0.00763153 0.02494583 0.20300001 169 107 88 2.000000
-0.00715420 0.02494583 0.20300001 169 110 90 2.000000
-0.00667686 0.02494583 0.20300001 167 108 88 2.000000
-0.00623007 0.02506872 0.20400001 167 108 88 2.000000
-0.00575039 0.02506872 0.20400001 170 108 89 2.000000
-0.00527070 0.02506872 0.20400001 172 110 91 2.000000
-0.00479102 0.02506872 0.20400001 165 98 81 2.000000
-0.00431133 0.02506872 0.20400001 138 71 54 2.000000
-0.00385043 0.02519161 0.20500001 143 79 61 2.000000
-0.00336840 0.02519161 0.20500001 171 107 89 2.000000
-0.00288636 0.02519161 0.20500001 174 112 93 2.000000
-0.00240432 0.02519161 0.20500001 172 110 91 2.000000
-0.00192229 0.02519161 0.20500001 173 114 96 2.000000
-0.00144025 0.02519161 0.20500001 173 114 96 2.000000
-0.00095822 0.02519161 0.20500001 172 113 95 2.000000
-0.00047618 0.02519161 0.20500001 170 111 93 2.000000
0.00000585 0.02519161 0.20500001 172 112 97 2.000000
0.00048789 0.02519161 0.20500001 172 112 97 2.000000
0.00096993 0.02519161 0.20500001 151 88 74 2.000000
0.00145196 0.02519161 0.20500001 142 79 65 2.000000
0.00193400 0.02519161 0.20500001 143 81 64 2.000000
0.00241603 0.02519161 0.20500001 158 96 79 2.000000
0.00289807 0.02519161 0.20500001 169 107 88 2.000000
0.00339659 0.02531449 0.20600002 176 114 95 2.000000
0.00388098 0.02531449 0.20600002 175 113 94 2.000000
0.00436537 0.02531449 0.20600002 177 115 96 2.000000
0.00484976 0.02531449 0.20600002 176 114 95 2.000000
0.00533414 0.02531449 0.20600002 176 114 95 2.000000
0.00581853 0.02531449 0.20600002 177 113 95 2.000000
0.00630292 0.02531449 0.20600002 178 114 96 2.000000
0.00678730 0.02531449 0.20600002 183 112 96 2.000000
0.00727169 0.02531449 0.20600002 184 113 97 2.000000
-0.02408616 0.02730173 0.21800001 132 66 46 2.000000
-0.02335728 0.02705126 0.21600001 132 66 46 2.000000
-0.02274360 0.02692602 0.21500000 129 66 52 2.000000
-0.02203118 0.02667554 0.21300001 164 101 87 2.000000
-0.02142926 0.02655031 0.21200001 159 102 81 2.000000
-0.02093076 0.02655031 0.21200001 159 102 81 2.000000
-0.02033588 0.02642507 0.21100001 159 104 83 2.000000
-0.01983974 0.02642507 0.21100001 151 96 75 2.000000
-0.01934360 0.02642507 0.21100001 134 79 60 2.000000
-0.01875813 0.02629983 0.21000001 130 75 56 2.000000
-0.01826433 0.02629983 0.21000001 126 74 52 2.000000
-0.01777054 0.02629983 0.21000001 141 89 67 2.000000
-0.01719448 0.02617459 0.20900001 154 102 80 2.000000
-0.01670304 0.02617459 0.20900001 156 104 82 2.000000
-0.01613403 0.02604936 0.20800000 161 109 87 2.000000
-0.01564494 0.02604936 0.20800000 160 108 86 2.000000
-0.01508299 0.02592412 0.20700002 162 101 77 2.000000
-0.01459625 0.02592412 0.20700002 155 94 70 2.000000
-0.01404135 0.02579888 0.20600002 144 81 56 2.000000
-0.01355696 0.02579888 0.20600002 156 93 68 2.000000
-0.01307257 0.02579888 0.20600002 170 109 87 2.000000
-0.01252708 0.02567364 0.20500001 167 106 84 2.000000
-0.01204504 0.02567364 0.20500001 168 106 87 2.000000
-0.01156300 0.02567364 0.20500001 170 108 89 2.000000
-0.01108097 0.02567364 0.20500001 173 109 91 2.000000
-0.01059893 0.02567364 0.20500001 170 106 88 2.000000
-0.01006755 0.02554841 0.20400001 171 105 85 2.000000
-0.00958786 0.02554841 0.20400001 163 97 77 2.000000
-0.00910818 0.02554841 0.20400001 143 79 61 2.000000
-0.00862849 0.02554841 0.20400001 154 90 72 2.000000
-0.00814881 0.02554841 0.20400001 171 109 90 2.000000
-0.00766912 0.02554841 0.20400001 167 105 86 2.000000
-0.00718944 0.02554841 0.20400001 167 108 88 2.000000
-0.00670976 0.02554841 0.20400001 166 107 87 2.000000
-0.00623007 0.02554841 0.20400001 167 108 88 2.000000
-0.00575039 0.02554841 0.20400001 171 107 89 2.000000
-0.00527070 0.02554841 0.20400001 169 105 87 2.000000
-0.00481450 0.02567364 0.20500001 162 93 74 2.000000
-0.00433247 0.02567364 0.20500001 145 76 57 2.000000
-0.00385043 0.02567364 0.20500001 142 75 58 2.000000
-0.00336840 0.02567364 0.20500001 156 89 72 2.000000
-0.00288636 0.02567364 0.20500001 174 112 93 2.000000
-0.00240432 0.02567364 0.20500001 174 112 93 2.000000
-0.00192229 0.02567364 0.20500001 173 114 94 2.000000
-0.00144025 0.02567364 0.20500001 169 110 90 2.000000
-0.00095822 0.02567364 0.20500001 169 110 90 2.000000
-0.00047618 0.02567364 0.20500001 170 111 91 2.000000
0.00000588 0.02579888 0.20600002 172 108 92 2.000000
0.00049027 0.02579888 0.20600002 157 93 77 2.000000
0.00096993 0.02567364 0.20500001 151 87 71 2.000000
0.00145196 0.02567364 0.20500001 149 85 69 2.000000
0.00193400 0.02567364 0.20500001 148 84 66 2.000000
0.00241603 0.02567364 0.20500001 162 98 80 2.000000
0.00291221 0.02579888 0.20600002 167 105 86 2.000000
0.00339659 0.02579888 0.20600002 168 106 87 2.000000
0.00388098 0.02579888 0.20600002 171 110 88 2.000000
0.00482621 0.02567364 0.20500001 177 116 94 2.000000
-0.02335728 0.02755915 0.21600001 135 69 49 2.000000
-0.02274360 0.02743157 0.21500000 126 64 47 2.000000
-0.02203118 0.02717639 0.21300001 154 92 75 2.000000
-0.02142926 0.02704880 0.21200001 154 95 75 2.000000
-0.02093076 0.02704880 0.21200001 153 94 74 2.000000
-0.02033588 0.02692121 0.21100001 154 95 75 2.000000
-0.01983974 0.02692121 0.21100001 146 87 67 2.000000
-0.01934360 0.02692121 0.21100001 140 81 61 2.000000
-0.01875813 0.02679362 0.21000001 137 78 58 2.000000
-0.01826433 0.02679362 0.21000001 134 76 53 2.000000
-0.01777054 0.02679362 0.21000001 144 86 63 2.000000
-0.01719448 0.02666603 0.20900001 153 97 73 2.000000
-0.01670304 0.02666603 0.20900001 161 105 81 2.000000
-0.01613403 0.02653844 0.20800000 162 105 84 2.000000
-0.01564494 0.02653844 0.20800000 161 104 83 2.000000
-0.01508299 0.02641086 0.20700002 162 99 78 2.000000
-0.01459625 0.02641086 0.20700002 156 93 72 2.000000
-0.01410951 0.02641086 0.20700002 139 73 49 2.000000
-0.01355696 0.02628327 0.20600002 144 78 54 2.000000
-0.01307257 0.02628327 0.20600002 163 97 77 2.000000
-0.01258818 0.02628327 0.20600002 170 104 84 2.000000
-0.01204504 0.02615568 0.20500001 168 104 86 2.000000
-0.01156300 0.02615568 0.20500001 170 106 88 2.000000
-0.01108097 0.02615568 0.20500001 174 108 88 2.000000
-0.01059893 0.02615568 0.20500001 170 104 84 2.000000
-0.01011690 0.02615568 0.20500001 173 104 85 2.000000
-0.00963486 0.02615568 0.20500001 155 86 67 2.000000
-0.00910818 0.02602809 0.20400001 144 78 58 2.000000
-0.00862849 0.02602809 0.20400001 146 80 60 2.000000
-0.00814881 0.02602809 0.20400001 167 105 86 2.000000
-0.00766912 0.02602809 0.20400001 164 102 83 2.000000
-0.00718944 0.02602809 0.20400001 167 108 88 2.000000
-0.00670976 0.02602809 0.20400001 166 107 87 2.000000
-0.00623007 0.02602809 0.20400001 167 108 88 2.000000
-0.00575039 0.02602809 0.20400001 170 106 88 2.000000
-0.00529654 0.02615568 0.20500001 166 102 84 2.000000
-0.00481450 0.02615568 0.20500001 167 97 78 2.000000
-0.00433247 0.02615568 0.20500001 147 77 58 2.000000
-0.00385043 0.02615568 0.20500001 147 77 58 2.000000
-0.00336840 0.02615568 0.20500001 152 82 63 2.000000
-0.00288636 0.02615568 0.20500001 171 105 85 2.000000
-0.00240432 0.02615568 0.20500001 178 112 92 2.000000
-0.00192229 0.02615568 0.20500001 175 111 93 2.000000
-0.00144728 0.02628327 0.20600002 172 108 90 2.000000
-0.00096289 0.02628327 0.20600002 172 108 90 2.000000
-0.00047850 0.02628327 0.20600002 171 107 89 2.000000
0.00000588 0.02628327 0.20600002 170 103 86 2.000000
0.00049027 0.02628327 0.20600002 158 91 74 2.000000
-0.02263781 0.02780718 0.21400002 127 64 43 2.000000
-0.02203118 0.02767724 0.21300001 152 89 68 2.000000
-0.02142926 0.02754729 0.21200001 153 94 74 2.000000
-0.02093076 0.02754729 0.21200001 151 92 72 2.000000
-0.02033588 0.02741735 0.21100001 140 81 61 2.000000
-0.01983974 0.02741735 0.21100001 139 80 60 2.000000
-0.01934360 0.02741735 0.21100001 143 82 58 2.000000
-0.01875813 0.02728741 0.21000001 140 79 55 2.000000
-0.01826433 0.02728741 0.21000001 137 76 50 2.000000
-0.01777054 0.02728741 0.21000001 137 76 50 2.000000
-0.01719448 0.02715747 0.20900001 151 88 67 2.000000
-0.01670304 0.02715747 0.20900001 164 101 80 2.000000
-0.01613403 0.02702753 0.20800000 164 101 80 2.000000
-0.01564494 0.02702753 0.20800000 164 101 80 2.000000
-0.01508299 0.02689759 0.20700002 161 95 75 2.000000
-0.01459625 0.02689759 0.20700002 152 86 66 2.000000
-0.01410951 0.02689759 0.20700002 146 77 54 2.000000
-0.01362277 0.02689759 0.20700002 145 76 53 2.000000
-0.01307257 0.02676765 0.20600002 156 87 66 2.000000
-0.01258818 0.02676765 0.20600002 172 103 82 2.000000
-0.01210380 0.02676765 0.20600002 166 100 78 2.000000
-0.01156300 0.02663771 0.20500001 166 100 78 2.000000
-0.01108097 0.02663771 0.20500001 173 104 83 2.000000
-0.01059893 0.02663771 0.20500001 169 100 79 2.000000
-0.01011690 0.02663771 0.20500001 171 101 80 2.000000
-0.00963486 0.02663771 0.20500001 155 85 64 2.000000
-0.00915283 0.02663771 0.20500001 149 79 60 2.000000
-0.00867079 0.02663771 0.20500001 150 80 61 2.000000
-0.00818875 0.02663771 0.20500001 162 99 78 2.000000
-0.00770672 0.02663771 0.20500001 169 106 85 2.000000
-0.00718944 0.02650777 0.20400001 167 109 86 2.000000
-0.00674265 0.02663771 0.20500001 167 109 86 2.000000
-0.00626061 0.02663771 0.20500001 167 109 86 2.000000
-0.00577857 0.02663771 0.20500001 172 106 84 2.000000
-0.00529654 0.02663771 0.20500001 173 107 85 2.000000
-0.00481450 0.02663771 0.20500001 163 90 70 2.000000
-0.00433247 0.02663771 0.20500001 150 77 57 2.000000
-0.00385043 0.02663771 0.20500001 150 77 55 2.000000
-0.00336840 0.02663771 0.20500001 152 79 57 2.000000
-0.00288636 0.02663771 0.20500001 178 105 87 2.000000
-0.00240432 0.02663771 0.20500001 186 113 95 2.000000
-0.02203118 0.02817808 0.21300001 147 81 61 2.000000
-0.02142926 0.02804579 0.21200001 156 93 72 2.000000
-0.02083203 0.02791350 0.21100001 152 89 68 2.000000
-0.02033588 0.02791350 0.21100001 143 80 57 2.000000
-0.01983974 0.02791350 0.21100001 142 79 56 2.000000
-0.01934360 0.02791350 0.21100001 143 80 55 2.000000
-0.01875813 0.02778121 0.21000001 142 79 54 2.000000
-0.01826433 0.02778121 0.21000001 141 79 51 2.000000
-0.01777054 0.02778121 0.21000001 137 75 47 2.000000
-0.01719448 0.02764892 0.20900001 143 77 55 2.000000
-0.01670304 0.02764892 0.20900001 166 100 78 2.000000
-0.01613403 0.02751663 0.20800000 165 96 75 2.000000
-0.01564494 0.02751663 0.20800000 168 99 78 2.000000
-0.01515585 0.02751663 0.20800000 159 89 66 2.000000
-0.01459625 0.02738434 0.20700002 147 77 54 2.000000
-0.01410951 0.02738434 0.20700002 149 76 54 2.000000
-0.01362277 0.02738434 0.20700002 149 76 54 2.000000
-0.01307257 0.02725204 0.20600002 145 75 54 2.000000
-0.01258818 0.02725204 0.20600002 162 92 71 2.000000
-0.01210380 0.02725204 0.20600002 167 97 76 2.000000
-0.01161941 0.02725204 0.20600002 169 99 78 2.000000
-0.01113502 0.02725204 0.20600002 170 100 79 2.000000
-0.01059893 0.02711975 0.20500001 168 98 77 2.000000
-0.01011690 0.02711975 0.20500001 171 98 76 2.000000
-0.00963486 0.02711975 0.20500001 156 83 61 2.000000
-0.00915283 0.02711975 0.20500001 154 81 59 2.000000
-0.00867079 0.02711975 0.20500001 150 77 55 2.000000
-0.00818875 0.02711975 0.20500001 151 82 63 2.000000
-0.00770672 0.02711975 0.20500001 170 101 82 2.000000
-0.00722468 0.02711975 0.20500001 166 102 84 2.000000
-0.00674265 0.02711975 0.20500001 169 108 86 2.000000
-0.00626061 0.02711975 0.20500001 169 108 86 2.000000
-0.00577857 0.02711975 0.20500001 173 104 81 2.000000
-0.00529654 0.02711975 0.20500001 170 101 78 2.000000
-0.00481450 0.02711975 0.20500001 155 80 59 2.000000
-0.02132817 0.02840964 0.21100001 152 83 64 2.000000
-0.02083203 0.02840964 0.21100001 146 77 58 2.000000
-0.01925192 0.02827500 0.21000001 146 80 56 2.000000
-0.01768592 0.02814036 0.20900001 142 76 52 2.000000
-0.01719448 0.02814036 0.20900001 138 69 48 2.000000
-0.01613403 0.02800571 0.20800000 163 93 72 2.000000
-0.01564494 0.02800571 0.20800000 163 93 72 2.000000
-0.01515585 0.02800571 0.20800000 157 82 61 2.000000
-0.01459625 0.02787107 0.20700002 151 76 55 2.000000
-0.01410951 0.02787107 0.20700002 150 75 54 2.000000
-0.01362277 0.02787107 0.20700002 148 73 52 2.000000
-0.01307257 0.02773643 0.20600002 149 76 56 2.000000
