0.03852252 -0.00645918 0.23400001 255 151 126 0.000000
0.03873879 -0.00640397 0.23200001 255 149 127 0.000000
0.03879976 -0.00623835 0.22600001 255 149 127 0.000000
0.03898311 -0.00618315 0.22400001 254 147 125 0.000000
0.03915705 -0.00612794 0.22200002 253 146 124 0.000000
0.03950033 -0.00610034 0.22100002 252 145 123 0.000000
0.03983890 -0.00607273 0.22000001 250 143 121 0.000000
0.04035621 -0.00607273 0.22000001 250 143 121 0.000000
0.04087352 -0.00607273 0.22000001 250 142 118 0.000000
0.04139082 -0.00607273 0.22000001 250 142 118 0.000000
0.04190813 -0.00607273 0.22000001 251 143 119 0.000000
0.04333313 -0.00612794 0.22200002 240 147 127 0.000000
0.04385514 -0.00612794 0.22200002 255 164 144 0.000000
0.04457704 -0.00615554 0.22300000 255 196 183 0.000000
0.04530365 -0.00618315 0.22400001 255 201 188 0.000000
-0.03639344 -0.00542917 0.21500000 108 53 48 0.000000
-0.03588789 -0.00542917 0.21500000 113 58 53 0.000000
-0.03538234 -0.00542917 0.21500000 120 61 54 0.000000
-0.03471458 -0.00540392 0.21400002 124 65 58 0.000000
-0.03405151 -0.00537866 0.21300001 126 65 57 0.000000
-0.03339315 -0.00535341 0.21200001 126 65 57 0.000000
-0.03273949 -0.00532816 0.21100001 126 65 57 0.000000
-0.03065862 -0.00522715 0.20700002 130 66 59 0.000000
-0.03002612 -0.00520190 0.20600002 142 71 64 0.000000
-0.02939833 -0.00517665 0.20500001 151 80 73 0.000000
-0.02877524 -0.00515140 0.20400001 170 98 91 0.000000
-0.02815685 -0.00512614 0.20300001 183 111 104 0.000000
-0.02754316 -0.00510089 0.20200001 176 99 94 0.000000
-0.02585962 -0.00505039 0.20000000 119 36 31 0.000000
0.03029712 -0.00570694 0.22600001 250 114 102 0.000000
0.03164699 -0.00585845 0.23200001 249 113 101 0.000000
0.03288632 -0.00598471 0.23700002 238 90 82 0.000000
0.03358471 -0.00600996 0.23800001 241 93 85 0.000000
0.03428780 -0.00603521 0.23900001 255 108 98 0.000000
0.03499560 -0.00606047 0.24000001 255 106 96 0.000000
0.03585627 -0.00611097 0.24200001 255 120 108 0.000000
0.03657582 -0.00613622 0.24300002 255 123 111 0.000000
0.03714721 -0.00613622 0.24300002 255 131 114 0.000000
0.03756338 -0.00611097 0.24200001 255 131 114 0.000000
0.03797484 -0.00608572 0.24100001 255 141 120 0.000000
0.03838161 -0.00606047 0.24000001 255 137 116 0.000000
0.03862139 -0.00600996 0.23800001 255 142 121 0.000000
0.03868715 -0.00593421 0.23500001 255 140 119 0.000000
0.03873879 -0.00585845 0.23200001 252 136 115 0.000000
0.03894565 -0.00580795 0.23000000 252 136 115 0.000000
0.03914312 -0.00575744 0.22800002 252 136 115 0.000000
0.03933117 -0.00570694 0.22600001 246 130 109 0.000000
0.03950982 -0.00565643 0.22400001 247 129 108 0.000000
0.03967907 -0.00560593 0.22200002 250 132 111 0.000000
0.04053965 -0.00558068 0.22100002 247 129 108 0.000000
0.04105930 -0.00558068 0.22100002 246 126 106 0.000000
0.04157896 -0.00558068 0.22100002 247 127 107 0.000000
0.04209862 -0.00558068 0.22100002 250 127 108 0.000000
0.04385514 -0.00560593 0.22200002 255 150 135 0.000000
0.04457704 -0.00563118 0.22300000 255 179 168 0.000000
0.04530365 -0.00565643 0.22400001 255 187 176 0.000000
-0.03622417 -0.00490072 0.21400002 116 56 52 0.000000
-0.03555405 -0.00487782 0.21300001 116 56 52 0.000000
-0.03505320 -0.00487782 0.21300001 120 61 54 0.000000
-0.03439014 -0.00485492 0.21200001 124 65 58 0.000000
-0.03373178 -0.00483202 0.21100001 124 63 57 0.000000
-0.03307812 -0.00480911 0.21000001 125 64 58 0.000000
-0.03099490 -0.00471751 0.20600002 134 69 60 0.000000
-0.03036240 -0.00469461 0.20500001 137 72 63 0.000000
-0.02973461 -0.00467171 0.20400001 150 78 71 0.000000
-0.02911152 -0.00464881 0.20300001 167 95 88 0.000000
-0.02863418 -0.00464881 0.20300001 183 106 99 0.000000
-0.02801815 -0.00462591 0.20200001 163 86 79 0.000000
-0.02754316 -0.00462591 0.20200001 123 39 39 0.000000
0.03029712 -0.00517552 0.22600001 249 114 99 0.000000
0.03164699 -0.00531293 0.23200001 244 109 94 0.000000
0.03288632 -0.00542743 0.23700002 247 103 91 0.000000
0.03372582 -0.00547323 0.23900001 246 102 90 0.000000
0.03428780 -0.00547323 0.23900001 251 104 93 0.000000
0.03514141 -0.00551903 0.24100001 254 107 96 0.000000
0.03585627 -0.00554193 0.24200001 254 111 99 0.000000
0.03657582 -0.00556483 0.24300002 255 123 111 0.000000
0.03714721 -0.00556483 0.24300002 255 128 112 0.000000
0.03771860 -0.00556483 0.24300002 255 128 112 0.000000
0.03813241 -0.00554193 0.24200001 255 128 111 0.000000
0.03838161 -0.00549613 0.24000001 254 126 109 0.000000
0.03885178 -0.00540453 0.23600002 255 133 114 0.000000
0.03907274 -0.00535873 0.23400001 255 134 116 0.000000
0.03928431 -0.00531293 0.23200001 250 124 106 0.000000
0.03931480 -0.00524423 0.22900002 245 119 101 0.000000
0.03950520 -0.00519842 0.22700001 248 122 104 0.000000
0.03968620 -0.00515262 0.22500001 251 123 106 0.000000
0.03985780 -0.00510682 0.22300000 246 118 101 0.000000
0.04020107 -0.00508392 0.22200002 248 118 101 0.000000
0.04072309 -0.00508392 0.22200002 247 117 100 0.000000
0.04105930 -0.00506102 0.22100002 248 116 100 0.000000
0.04157896 -0.00506102 0.22100002 248 116 100 0.000000
0.04405268 -0.00510682 0.22300000 245 118 105 0.000000
0.04477694 -0.00512972 0.22400001 255 158 144 0.000000
0.04530365 -0.00512972 0.22400001 255 177 163 0.000000
-0.03655574 -0.00437697 0.21300001 113 59 51 0.000000
-0.03588562 -0.00435642 0.21200001 117 58 51 0.000000
-0.03538713 -0.00435642 0.21200001 116 57 50 0.000000
-0.03472406 -0.00433587 0.21100001 118 59 52 0.000000
-0.03422792 -0.00433587 0.21100001 122 63 56 0.000000
-0.03357191 -0.00431532 0.21000001 121 60 52 0.000000
-0.03147928 -0.00423313 0.20600002 132 68 61 0.000000
-0.03084444 -0.00421258 0.20500001 138 67 60 0.000000
-0.03021429 -0.00419203 0.20400001 149 78 71 0.000000
-0.02958885 -0.00417148 0.20300001 161 86 80 0.000000
-0.02896811 -0.00415093 0.20200001 176 101 95 0.000000
-0.02849313 -0.00415093 0.20200001 175 92 89 0.000000
-0.02787944 -0.00413038 0.20100001 123 40 37 0.000000
-0.02740681 -0.00413038 0.20100001 119 36 33 0.000000
0.03029712 -0.00464411 0.22600001 253 113 100 0.000000
0.03164699 -0.00476740 0.23200001 249 109 96 0.000000
0.03302507 -0.00489070 0.23800001 247 103 89 0.000000
0.03443126 -0.00493180 0.24000001 252 105 94 0.000000
0.03528723 -0.00497290 0.24200001 254 107 96 0.000000
0.03600444 -0.00499344 0.24300002 254 107 96 0.000000
0.03672634 -0.00501399 0.24400002 255 113 102 0.000000
0.03730008 -0.00501399 0.24400002 255 118 105 0.000000
0.03787382 -0.00501399 0.24400002 255 118 105 0.000000
0.03828999 -0.00499344 0.24300002 255 120 104 0.000000
0.03854153 -0.00495235 0.24100001 255 119 103 0.000000
0.03862139 -0.00489070 0.23800001 252 117 100 0.000000
0.03907274 -0.00480850 0.23400001 251 116 99 0.000000
0.03948648 -0.00472631 0.23000000 251 113 99 0.000000
0.03967923 -0.00468521 0.22800002 252 114 100 0.000000
0.03986258 -0.00464411 0.22600001 249 111 97 0.000000
0.04003653 -0.00460301 0.22400001 246 108 94 0.000000
0.04038216 -0.00458246 0.22300000 249 109 96 0.000000
0.04090652 -0.00458246 0.22300000 249 109 96 0.000000
0.04124509 -0.00456191 0.22200002 247 104 92 0.000000
0.04176710 -0.00456191 0.22200002 245 102 90 0.000000
0.04477694 -0.00460301 0.22400001 253 143 131 0.000000
0.04530365 -0.00460301 0.22400001 255 166 154 0.000000
-0.03688262 -0.00385792 0.21200001 117 58 49 0.000000
-0.03638412 -0.00385792 0.21200001 118 59 50 0.000000
-0.03571635 -0.00383973 0.21100001 119 58 50 0.000000
-0.03522021 -0.00383973 0.21100001 120 59 51 0.000000
-0.03455950 -0.00382153 0.21000001 120 61 52 0.000000
-0.03390349 -0.00380333 0.20900001 122 63 54 0.000000
-0.03196367 -0.00374874 0.20600002 133 68 59 0.000000
-0.03132647 -0.00373054 0.20500001 129 64 55 0.000000
-0.03069398 -0.00371234 0.20400001 145 74 65 0.000000
-0.03006618 -0.00369415 0.20300001 153 82 73 0.000000
-0.02944309 -0.00367595 0.20200001 163 86 81 0.000000
-0.02896811 -0.00367595 0.20200001 165 88 83 0.000000
-0.02849313 -0.00367595 0.20200001 123 40 37 0.000000
-0.02787944 -0.00365775 0.20100001 120 37 34 0.000000
-0.02740681 -0.00365775 0.20100001 127 44 39 0.000000
0.03043117 -0.00413089 0.22700001 250 110 97 0.000000
0.03178339 -0.00424008 0.23300001 246 106 93 0.000000
0.03316383 -0.00434926 0.23900001 251 101 89 0.000000
0.03471819 -0.00440386 0.24200001 252 102 90 0.000000
0.03557886 -0.00444025 0.24400002 254 104 92 0.000000
0.03630077 -0.00445845 0.24500000 255 106 94 0.000000
0.03702737 -0.00447665 0.24600001 255 107 95 0.000000
0.03745295 -0.00445845 0.24500000 254 107 94 0.000000
0.03802904 -0.00445845 0.24500000 255 110 97 0.000000
0.03828999 -0.00442206 0.24300002 255 111 98 0.000000
0.03854153 -0.00438566 0.24100001 255 110 97 0.000000
0.03878367 -0.00434926 0.23900001 254 110 96 0.000000
0.03885178 -0.00429467 0.23600002 254 110 96 0.000000
0.03907274 -0.00425828 0.23400001 249 105 91 0.000000
0.03928431 -0.00422188 0.23200001 247 103 89 0.000000
0.03948648 -0.00418548 0.23000000 248 104 90 0.000000
0.03985327 -0.00416729 0.22900002 250 106 92 0.000000
0.04003897 -0.00413089 0.22700001 249 102 87 0.000000
0.04021527 -0.00409450 0.22500001 248 101 86 0.000000
0.04056324 -0.00407630 0.22400001 253 103 89 0.000000
0.04108996 -0.00407630 0.22400001 249 99 85 0.000000
0.04143088 -0.00405810 0.22300000 248 96 85 0.000000
0.04195524 -0.00405810 0.22300000 247 95 84 0.000000
0.04247960 -0.00405810 0.22300000 248 96 85 0.000000
0.04477694 -0.00407630 0.22400001 248 126 116 0.000000
0.04530365 -0.00407630 0.22400001 255 144 134 0.000000
0.04583037 -0.00407630 0.22400001 255 171 164 0.000000
-0.03738111 -0.00335943 0.21200001 102 61 44 0.000000
-0.03670864 -0.00334358 0.21100001 120 62 48 0.000000
-0.03621250 -0.00334358 0.21100001 119 61 47 0.000000
-0.03554708 -0.00332774 0.21000001 123 60 48 0.000000
-0.03505329 -0.00332774 0.21000001 125 62 50 0.000000
-0.03439493 -0.00331189 0.20900001 127 64 52 0.000000
-0.03374127 -0.00329604 0.20800000 126 63 51 0.000000
-0.03244806 -0.00326435 0.20600002 128 65 55 0.000000
-0.03180851 -0.00324850 0.20500001 135 67 59 0.000000
-0.03117366 -0.00323266 0.20400001 143 75 67 0.000000
-0.03054352 -0.00321681 0.20300001 152 80 71 0.000000
-0.02991807 -0.00320097 0.20200001 159 87 78 0.000000
-0.02944309 -0.00320097 0.20200001 167 87 81 0.000000
-0.02882470 -0.00318512 0.20100001 140 60 54 0.000000
-0.02835207 -0.00318512 0.20100001 115 35 31 0.000000
-0.02787944 -0.00318512 0.20100001 124 44 40 0.000000
-0.02740681 -0.00318512 0.20100001 126 46 40 0.000000
-0.02811611 -0.00364466 0.23000000 121 38 31 0.000000
0.03096741 -0.00366051 0.23100001 250 106 94 0.000000
0.03232903 -0.00375559 0.23700002 245 101 89 0.000000
0.03429027 -0.00385067 0.24300002 248 96 85 0.000000
0.03500512 -0.00386651 0.24400002 250 95 85 0.000000
0.03587049 -0.00389821 0.24600001 253 98 88 0.000000
0.03659710 -0.00391405 0.24700001 253 98 88 0.000000
0.03717789 -0.00391405 0.24700001 252 97 87 0.000000
0.03760582 -0.00389821 0.24600001 250 95 85 0.000000
0.03802904 -0.00388236 0.24500000 255 102 92 0.000000
0.03844756 -0.00386651 0.24400002 255 101 91 0.000000
0.03854153 -0.00381897 0.24100001 254 99 89 0.000000
0.03878367 -0.00378728 0.23900001 252 97 87 0.000000
0.03885178 -0.00373974 0.23600002 252 97 87 0.000000
0.03907274 -0.00370805 0.23400001 253 98 86 0.000000
0.03928431 -0.00367636 0.23200001 250 95 83 0.000000
0.03965816 -0.00366051 0.23100001 249 94 82 0.000000
0.03985327 -0.00362882 0.22900002 254 99 87 0.000000
0.04003897 -0.00359712 0.22700001 251 95 83 0.000000
0.04039400 -0.00358128 0.22600001 249 93 81 0.000000
0.04074433 -0.00356543 0.22500001 247 91 79 0.000000
0.04108996 -0.00354959 0.22400001 248 92 80 0.000000
0.04161667 -0.00354959 0.22400001 249 90 79 0.000000
0.04214338 -0.00354959 0.22400001 248 89 78 0.000000
0.04247960 -0.00353374 0.22300000 249 90 79 0.000000
0.04477694 -0.00354959 0.22400001 253 119 113 0.000000
0.04530365 -0.00354959 0.22400001 255 130 124 0.000000
0.04583037 -0.00354959 0.22400001 255 153 148 0.000000
-0.03770093 -0.00284744 0.21100001 107 61 45 0.000000
-0.03720479 -0.00284744 0.21100001 107 61 45 0.000000
-0.03670864 -0.00284744 0.21100001 123 60 46 0.000000
-0.03604087 -0.00283394 0.21000001 123 60 46 0.000000
-0.03537781 -0.00282045 0.20900001 126 61 48 0.000000
-0.03488637 -0.00282045 0.20900001 126 61 48 0.000000
-0.03423036 -0.00280695 0.20800000 128 63 52 0.000000
-0.03357905 -0.00279346 0.20700002 128 63 52 0.000000
-0.03293245 -0.00277996 0.20600002 128 63 52 0.000000
-0.03229054 -0.00276647 0.20500001 130 65 54 0.000000
-0.03165334 -0.00275297 0.20400001 139 68 59 0.000000
-0.03102085 -0.00273948 0.20300001 147 76 67 0.000000
-0.03039305 -0.00272598 0.20200001 154 82 71 0.000000
-0.02991807 -0.00272598 0.20200001 159 87 76 0.000000
-0.02944309 -0.00272598 0.20200001 144 64 60 0.000000
-0.02882470 -0.00271249 0.20100001 117 37 33 0.000000
-0.02835207 -0.00271249 0.20100001 121 41 37 0.000000
-0.02787944 -0.00271249 0.20100001 123 43 39 0.000000
0.03042423 -0.00311734 0.23100001 245 117 107 0.000000
0.03163770 -0.00318481 0.23600002 252 102 92 0.000000
0.03385764 -0.00329277 0.24400002 250 94 84 0.000000
0.03457249 -0.00330627 0.24500000 250 94 84 0.000000
0.03529204 -0.00331976 0.24600001 253 97 87 0.000000
0.03601630 -0.00333326 0.24700001 255 99 89 0.000000
0.03674527 -0.00334675 0.24800001 253 97 87 0.000000
0.03732841 -0.00334675 0.24800001 253 97 87 0.000000
0.03775869 -0.00333326 0.24700001 254 98 88 0.000000
0.03818426 -0.00331976 0.24600001 254 98 88 0.000000
0.03844756 -0.00329277 0.24400002 253 97 87 0.000000
0.03870146 -0.00326578 0.24200001 250 94 84 0.000000
0.03878367 -0.00322530 0.23900001 248 92 82 0.000000
0.03885178 -0.00318481 0.23600002 247 91 81 0.000000
0.03907274 -0.00315782 0.23400001 250 91 80 0.000000
0.03928431 -0.00313083 0.23200001 248 89 78 0.000000
0.03948648 -0.00310384 0.23000000 247 85 75 0.000000
0.03967923 -0.00307685 0.22800002 244 82 72 0.000000
0.04003897 -0.00306336 0.22700001 247 83 74 0.000000
0.04021527 -0.00303637 0.22500001 247 83 74 0.000000
0.04074433 -0.00303637 0.22500001 245 82 70 0.000000
0.04108996 -0.00302287 0.22400001 246 83 71 0.000000
0.04161667 -0.00302287 0.22400001 248 82 71 0.000000
0.04214338 -0.00302287 0.22400001 247 81 70 0.000000
0.04247960 -0.00300938 0.22300000 249 83 72 0.000000
0.04457704 -0.00300938 0.22300000 246 100 96 0.000000
0.04530365 -0.00302287 0.22400001 255 119 115 0.000000
0.04583037 -0.00302287 0.22400001 255 144 140 0.000000
-0.03770093 -0.00235129 0.21100001 114 58 46 0.000000
-0.03702846 -0.00234015 0.21000001 115 59 47 0.000000
-0.03653467 -0.00234015 0.21000001 125 57 45 0.000000
-0.03586925 -0.00232901 0.20900001 126 58 46 0.000000
-0.03537781 -0.00232901 0.20900001 128 57 46 0.000000
-0.03471945 -0.00231786 0.20800000 130 59 48 0.000000
-0.03406579 -0.00230672 0.20700002 130 59 48 0.000000
-0.03341683 -0.00229558 0.20600002 132 61 50 0.000000
-0.03277258 -0.00228443 0.20500001 135 63 52 0.000000
-0.03213303 -0.00227329 0.20400001 135 63 52 0.000000
-0.03165334 -0.00227329 0.20400001 144 69 61 0.000000
-0.03102085 -0.00226215 0.20300001 151 76 68 0.000000
-0.03039305 -0.00225100 0.20200001 158 81 74 0.000000
-0.02991807 -0.00225100 0.20200001 153 76 69 0.000000
-0.02929733 -0.00223986 0.20100001 122 42 38 0.000000
-0.02882470 -0.00223986 0.20100001 121 41 37 0.000000
-0.02835207 -0.00223986 0.20100001 120 42 40 0.000000
-0.02787944 -0.00223986 0.20100001 121 43 41 0.000000
0.03203987 -0.00266331 0.23900001 248 95 89 0.000000
0.03328390 -0.00271903 0.24400002 248 95 89 0.000000
0.03413516 -0.00274132 0.24600001 251 92 85 0.000000
0.03616212 -0.00276361 0.24800001 254 92 84 0.000000
0.03674527 -0.00276361 0.24800001 253 91 83 0.000000
0.03732841 -0.00276361 0.24800001 253 91 83 0.000000
0.03775869 -0.00275246 0.24700001 254 92 84 0.000000
0.03862139 -0.00265217 0.23800001 252 90 82 0.000000
0.03868715 -0.00261874 0.23500001 250 88 80 0.000000
0.03890577 -0.00259645 0.23300001 248 84 77 0.000000
0.03911498 -0.00257417 0.23100001 249 85 78 0.000000
0.03948648 -0.00256302 0.23000000 247 80 72 0.000000
0.03950520 -0.00252959 0.22700001 244 77 69 0.000000
0.03986258 -0.00251845 0.22600001 247 80 72 0.000000
0.04021527 -0.00250730 0.22500001 251 84 76 0.000000
0.04074433 -0.00250730 0.22500001 250 84 73 0.000000
0.04108996 -0.00249616 0.22400001 250 84 73 0.000000
0.04161667 -0.00249616 0.22400001 249 83 72 0.000000
0.04195524 -0.00248502 0.22300000 246 80 69 0.000000
0.04247960 -0.00248502 0.22300000 247 80 69 0.000000
0.04457704 -0.00248502 0.22300000 237 84 80 0.000000
0.04510141 -0.00248502 0.22300000 255 107 103 0.000000
0.04583037 -0.00249616 0.22400001 255 133 132 0.000000
0.04635708 -0.00249616 0.22400001 249 154 153 0.000000
-0.03819707 -0.00185515 0.21100001 97 61 61 0.000000
-0.03752225 -0.00184636 0.21000001 116 55 47 0.000000
-0.03685213 -0.00183757 0.20900001 118 57 49 0.000000
-0.03636069 -0.00183757 0.20900001 127 56 45 0.000000
-0.03569763 -0.00182877 0.20800000 128 57 46 0.000000
-0.03520854 -0.00182877 0.20800000 131 60 49 0.000000
-0.03455253 -0.00181998 0.20700002 132 61 50 0.000000
-0.03390122 -0.00181119 0.20600002 131 60 49 0.000000
-0.03341683 -0.00181119 0.20600002 132 61 50 0.000000
-0.03277258 -0.00180240 0.20500001 136 64 53 0.000000
-0.03213303 -0.00179361 0.20400001 139 67 56 0.000000
-0.03149818 -0.00178481 0.20300001 148 71 62 0.000000
-0.03039305 -0.00177602 0.20200001 164 84 78 0.000000
-0.02991807 -0.00177602 0.20200001 140 60 54 0.000000
-0.02929733 -0.00176723 0.20100001 117 37 33 0.000000
-0.02882470 -0.00176723 0.20100001 123 43 39 0.000000
-0.02821102 -0.00175844 0.20000000 123 43 39 0.000000
-0.02933855 -0.00211012 0.24000001 114 37 30 0.000000
0.03499583 -0.00218046 0.24800001 250 88 82 0.000000
0.03557897 -0.00218046 0.24800001 247 83 78 0.000000
0.03630793 -0.00218925 0.24900001 249 85 80 0.000000
0.03689343 -0.00218925 0.24900001 251 84 80 0.000000
0.03732841 -0.00218046 0.24800001 251 84 80 0.000000
0.03775869 -0.00217167 0.24700001 253 89 82 0.000000
0.03838161 -0.00211012 0.24000001 252 88 81 0.000000
0.03845912 -0.00208375 0.23700002 251 87 78 0.000000
0.03852252 -0.00205737 0.23400001 247 83 74 0.000000
0.03873879 -0.00203979 0.23200001 249 82 74 0.000000
0.03911498 -0.00203099 0.23100001 249 82 74 0.000000
0.03931480 -0.00201341 0.22900002 246 79 71 0.000000
0.03950520 -0.00199583 0.22700001 244 77 69 0.000000
0.03986258 -0.00198703 0.22600001 243 77 66 0.000000
0.04021527 -0.00197824 0.22500001 244 78 67 0.000000
0.04056324 -0.00196945 0.22400001 240 77 65 0.000000
0.04108996 -0.00196945 0.22400001 233 70 58 0.000000
0.04143088 -0.00196066 0.22300000 238 75 63 0.000000
0.04195524 -0.00196066 0.22300000 241 78 66 0.000000
0.04457704 -0.00196066 0.22300000 244 88 80 0.000000
0.04510141 -0.00196066 0.22300000 255 99 91 0.000000
0.04562576 -0.00196066 0.22300000 255 128 123 0.000000
0.04635708 -0.00196945 0.22400001 246 147 145 0.000000
-0.03801605 -0.00135257 0.21000001 99 60 58 0.000000
-0.03734358 -0.00134612 0.20900001 118 54 49 0.000000
-0.03569763 -0.00133968 0.20800000 131 60 51 0.000000
-0.03503927 -0.00133324 0.20700002 131 60 49 0.000000
-0.03438561 -0.00132680 0.20600002 132 61 50 0.000000
-0.03390122 -0.00132680 0.20600002 133 62 51 0.000000
-0.03325462 -0.00132036 0.20500001 133 62 51 0.000000
-0.03277258 -0.00132036 0.20500001 138 66 55 0.000000
-0.03213303 -0.00131392 0.20400001 143 71 60 0.000000
-0.03149818 -0.00130748 0.20300001 148 73 63 0.000000
-0.03039305 -0.00130104 0.20200001 159 79 75 0.000000
-0.02991807 -0.00130104 0.20200001 126 46 42 0.000000
-0.02929733 -0.00129460 0.20100001 118 38 34 0.000000
-0.02868130 -0.00128816 0.20000000 123 43 39 0.000000
-0.03027667 -0.00156511 0.24300002 114 37 32 0.000000
-0.02946079 -0.00155223 0.24100001 115 38 33 0.000000
-0.02877421 -0.00154579 0.24000001 126 43 36 0.000000
-0.02797479 -0.00153291 0.23800001 126 43 36 0.000000
-0.02729997 -0.00152647 0.23700002 127 44 34 0.000000
0.03103846 -0.00160376 0.24900001 220 86 78 0.000000
0.03162396 -0.00160376 0.24900001 226 92 84 0.000000
0.03220946 -0.00160376 0.24900001 238 90 82 0.000000
0.03292666 -0.00161020 0.25000000 235 87 79 0.000000
0.03351451 -0.00161020 0.25000000 245 85 81 0.000000
0.03469020 -0.00161020 0.25000000 245 83 77 0.000000
0.03527805 -0.00161020 0.25000000 245 83 77 0.000000
0.03572244 -0.00160376 0.24900001 244 80 75 0.000000
0.03645375 -0.00161020 0.25000000 244 80 75 0.000000
0.03704160 -0.00161020 0.25000000 246 79 75 0.000000
0.03747893 -0.00160376 0.24900001 246 79 75 0.000000
0.03791156 -0.00159732 0.24800001 250 83 77 0.000000
0.03802904 -0.00157799 0.24500000 255 89 83 0.000000
0.03822168 -0.00153935 0.23900001 246 82 75 0.000000
0.03829684 -0.00152003 0.23600002 246 82 73 0.000000
0.03835789 -0.00150070 0.23300001 240 76 67 0.000000
0.03894565 -0.00148138 0.23000000 233 69 60 0.000000
0.03914312 -0.00146850 0.22800002 235 71 62 0.000000
0.03986258 -0.00145562 0.22600001 234 70 61 0.000000
0.04003653 -0.00144274 0.22400001 232 68 59 0.000000
0.04090652 -0.00143630 0.22300000 233 70 58 0.000000
0.04143088 -0.00143630 0.22300000 231 70 57 0.000000
0.04176710 -0.00142986 0.22200002 232 71 58 0.000000
0.04228911 -0.00142986 0.22200002 240 73 65 0.000000
0.04333313 -0.00142986 0.22200002 252 84 76 0.000000
0.04385514 -0.00142986 0.22200002 254 86 78 0.000000
0.04457704 -0.00143630 0.22300000 250 88 82 0.000000
0.04510141 -0.00143630 0.22300000 255 93 87 0.000000
0.04562576 -0.00143630 0.22300000 255 126 123 0.000000
0.04615013 -0.00143630 0.22300000 242 138 138 0.000000
-0.03601275 -0.00084650 0.20700002 132 61 52 0.000000
-0.03552600 -0.00084650 0.20700002 133 62 53 0.000000
-0.03486999 -0.00084242 0.20600002 134 63 52 0.000000
-0.03438561 -0.00084242 0.20600002 133 62 51 0.000000
-0.03390122 -0.00084242 0.20600002 135 63 52 0.000000
-0.03325462 -0.00083833 0.20500001 136 64 53 0.000000
-0.03277258 -0.00083833 0.20500001 140 65 55 0.000000
-0.03213303 -0.00083424 0.20400001 148 73 63 0.000000
-0.03165334 -0.00083424 0.20400001 151 76 66 0.000000
-0.03039305 -0.00082606 0.20200001 141 61 57 0.000000
-0.02991807 -0.00082606 0.20200001 118 38 34 0.000000
-0.02929733 -0.00082197 0.20100001 123 40 37 0.000000
-0.03027667 -0.00099372 0.24300002 116 39 34 0.000000
-0.02958303 -0.00098963 0.24200001 117 40 35 0.000000
-0.02889410 -0.00098554 0.24100001 128 45 40 0.000000
-0.02820987 -0.00098145 0.24000001 125 42 37 0.000000
-0.02753035 -0.00097737 0.23900001 125 42 35 0.000000
-0.02674269 -0.00096919 0.23700002 124 41 34 0.000000
-0.02607493 -0.00096510 0.23600002 125 43 33 0.000000
-0.02530372 -0.00095692 0.23400001 121 39 29 0.000000
-0.02464771 -0.00095283 0.23300001 125 42 32 0.000000
-0.02399641 -0.00094874 0.23200001 128 45 35 0.000000
-0.02355196 -0.00095283 0.23300001 127 45 33 0.000000
0.02962757 -0.00101008 0.24700001 196 71 64 0.000000
0.03045296 -0.00101826 0.24900001 207 82 75 0.000000
0.03103846 -0.00101826 0.24900001 224 85 74 0.000000
0.03175096 -0.00102235 0.25000000 227 88 77 0.000000
0.03233881 -0.00102235 0.25000000 236 84 73 0.000000
0.03305836 -0.00102644 0.25100002 238 86 75 0.000000
0.03364857 -0.00102644 0.25100002 241 85 75 0.000000
0.03423877 -0.00102644 0.25100002 233 77 67 0.000000
0.03482896 -0.00102644 0.25100002 236 77 70 0.000000
0.03527805 -0.00102235 0.25000000 237 78 71 0.000000
0.03600936 -0.00102644 0.25100002 237 78 71 0.000000
0.03659957 -0.00102644 0.25100002 236 77 70 0.000000
0.03704160 -0.00102235 0.25000000 234 72 66 0.000000
0.03762944 -0.00102235 0.25000000 231 69 63 0.000000
0.03791156 -0.00101417 0.24800001 227 65 59 0.000000
0.03822168 -0.00097737 0.23900001 232 70 64 0.000000
0.03797229 -0.00095692 0.23400001 232 73 66 0.000000
0.03823786 -0.00093647 0.22900002 231 72 63 0.000000
0.03860700 -0.00093238 0.22800002 224 65 56 0.000000
0.03897144 -0.00092829 0.22700001 229 70 61 0.000000
0.03915714 -0.00092011 0.22500001 228 69 60 0.000000
0.03950982 -0.00091602 0.22400001 225 66 55 0.000000
0.04003653 -0.00091602 0.22400001 227 68 57 0.000000
0.04038216 -0.00091193 0.22300000 222 66 54 0.000000
0.04090652 -0.00091193 0.22300000 225 69 57 0.000000
0.04124509 -0.00090785 0.22200002 222 66 54 0.000000
0.04176710 -0.00090785 0.22200002 223 67 55 0.000000
0.04209862 -0.00090376 0.22100002 231 72 61 0.000000
0.04281112 -0.00090785 0.22200002 229 70 59 0.000000
0.04333313 -0.00090785 0.22200002 239 75 66 0.000000
0.04385514 -0.00090785 0.22200002 244 80 71 0.000000
0.04437715 -0.00090785 0.22200002 248 86 78 0.000000
0.04489916 -0.00090785 0.22200002 255 113 110 0.000000
0.04542117 -0.00090785 0.22200002 255 120 117 0.000000
0.04615013 -0.00091193 0.22300000 245 135 134 0.000000
-0.03601275 -0.00035977 0.20700002 131 60 51 0.000000
-0.03552600 -0.00035977 0.20700002 132 61 52 0.000000
-0.03486999 -0.00035803 0.20600002 133 61 50 0.000000
-0.03438561 -0.00035803 0.20600002 134 62 51 0.000000
-0.03373665 -0.00035629 0.20500001 136 61 51 0.000000
-0.03325462 -0.00035629 0.20500001 138 63 53 0.000000
-0.03277258 -0.00035629 0.20500001 141 65 53 0.000000
-0.03213303 -0.00035455 0.20400001 150 74 62 0.000000
-0.03165334 -0.00035455 0.20400001 153 73 65 0.000000
-0.03102085 -0.00035281 0.20300001 157 77 69 0.000000
-0.03054352 -0.00035281 0.20300001 117 34 29 0.000000
-0.02991807 -0.00035108 0.20200001 121 38 33 0.000000
-0.03212248 -0.00042407 0.24400002 122 42 36 0.000000
-0.03154874 -0.00042407 0.24400002 120 43 38 0.000000
-0.03097500 -0.00042407 0.24400002 121 44 39 0.000000
-0.03027667 -0.00042233 0.24300002 122 45 38 0.000000
-0.02970528 -0.00042233 0.24300002 120 43 36 0.000000
-0.02901400 -0.00042060 0.24200001 128 45 40 0.000000
-0.02832742 -0.00041886 0.24100001 124 41 36 0.000000
-0.02764554 -0.00041712 0.24000001 121 38 31 0.000000
-0.02696837 -0.00041538 0.23900001 119 36 29 0.000000
-0.02629590 -0.00041364 0.23800001 119 37 25 0.000000
-0.02552000 -0.00041017 0.23600002 118 36 24 0.000000
-0.02496507 -0.00041017 0.23600002 121 39 24 0.000000
-0.02430671 -0.00040843 0.23500001 128 46 31 0.000000
-0.02375413 -0.00040843 0.23500001 127 42 26 0.000000
-0.02310282 -0.00040669 0.23400001 133 48 32 0.000000
-0.02255259 -0.00040669 0.23400001 138 53 37 0.000000
-0.02209639 -0.00040843 0.23500001 134 49 33 0.000000
0.02286249 -0.00042233 0.24300002 157 75 60 0.000000
0.02343388 -0.00042233 0.24300002 162 69 51 0.000000
0.02400527 -0.00042233 0.24300002 158 65 47 0.000000
0.02457666 -0.00042233 0.24300002 157 61 42 0.000000
0.02514805 -0.00042233 0.24300002 158 62 43 0.000000
0.02561359 -0.00042060 0.24200001 157 64 46 0.000000
0.02686221 -0.00042233 0.24300002 209 116 105 0.000000
0.02743360 -0.00042233 0.24300002 216 123 112 0.000000
0.02812024 -0.00042407 0.24400002 214 105 97 0.000000
0.03103846 -0.00043276 0.24900001 226 82 68 0.000000
0.03175096 -0.00043450 0.25000000 233 89 75 0.000000
0.03246817 -0.00043624 0.25100002 242 86 74 0.000000
0.03305836 -0.00043624 0.25100002 241 85 73 0.000000
0.03378262 -0.00043798 0.25200000 235 79 67 0.000000
0.03437517 -0.00043798 0.25200000 232 76 64 0.000000
0.03496772 -0.00043798 0.25200000 228 72 64 0.000000
0.03556028 -0.00043798 0.25200000 228 72 64 0.000000
0.03615283 -0.00043798 0.25200000 227 71 63 0.000000
0.03674538 -0.00043798 0.25200000 228 72 64 0.000000
0.03733793 -0.00043798 0.25200000 225 68 63 0.000000
0.03777996 -0.00043624 0.25100002 223 66 61 0.000000
0.03849470 -0.00043102 0.24800001 227 71 66 0.000000
0.03838161 -0.00041712 0.24000001 225 69 64 0.000000
0.03786401 -0.00039974 0.23000000 219 66 60 0.000000
0.03843767 -0.00039453 0.22700001 213 60 54 0.000000
0.03862808 -0.00039105 0.22500001 214 59 51 0.000000
0.03898311 -0.00038931 0.22400001 215 60 52 0.000000
0.03933343 -0.00038757 0.22300000 219 64 54 0.000000
0.03985780 -0.00038757 0.22300000 222 67 57 0.000000
0.04020107 -0.00038584 0.22200002 219 67 56 0.000000
0.04072309 -0.00038584 0.22200002 219 67 56 0.000000
0.04105930 -0.00038410 0.22100002 218 66 55 0.000000
0.04157896 -0.00038410 0.22100002 216 64 53 0.000000
0.04209862 -0.00038410 0.22100002 220 68 55 0.000000
0.04261828 -0.00038410 0.22100002 222 70 57 0.000000
0.04313793 -0.00038410 0.22100002 218 59 48 0.000000
0.04365759 -0.00038410 0.22100002 231 72 61 0.000000
0.04417725 -0.00038410 0.22100002 251 89 81 0.000000
0.04489916 -0.00038584 0.22200002 254 109 105 0.000000
0.04542117 -0.00038584 0.22200002 255 118 114 0.000000
0.04594318 -0.00038584 0.22200002 243 132 127 0.000000
0.04667449 -0.00038757 0.22300000 252 141 136 0.000000
-0.03698622 0.00012697 0.20700002 121 57 52 0.000000
-0.03601275 0.00012697 0.20700002 131 59 50 0.000000
-0.03535438 0.00012636 0.20600002 133 61 52 0.000000
-0.03486999 0.00012636 0.20600002 138 66 55 0.000000
-0.03438561 0.00012636 0.20600002 134 62 51 0.000000
-0.03373665 0.00012575 0.20500001 137 62 52 0.000000
-0.03325462 0.00012575 0.20500001 138 63 53 0.000000
-0.03277258 0.00012575 0.20500001 147 68 55 0.000000
-0.03213303 0.00012513 0.20400001 150 71 58 0.000000
-0.03165334 0.00012513 0.20400001 158 75 65 0.000000
-0.03102085 0.00012452 0.20300001 148 65 55 0.000000
-0.03054352 0.00012452 0.20300001 114 31 26 0.000000
-0.03283022 0.00015028 0.24500000 118 38 30 0.000000
-0.03212248 0.00014967 0.24400002 118 38 30 0.000000
-0.03154874 0.00014967 0.24400002 121 41 35 0.000000
-0.03097500 0.00014967 0.24400002 124 44 38 0.000000
-0.03027667 0.00014905 0.24300002 124 44 36 0.000000
-0.02970528 0.00014905 0.24300002 121 41 33 0.000000
-0.02913389 0.00014905 0.24300002 127 44 37 0.000000
-0.02844496 0.00014844 0.24200001 121 38 31 0.000000
-0.02787592 0.00014844 0.24200001 121 39 29 0.000000
-0.02719405 0.00014783 0.24100001 119 37 27 0.000000
-0.02651687 0.00014721 0.24000001 121 40 25 0.000000
-0.02584440 0.00014660 0.23900001 128 47 32 0.000000
-0.02517663 0.00014599 0.23800001 140 59 42 0.000000
-0.02451357 0.00014537 0.23700002 134 53 36 0.000000
-0.02395629 0.00014537 0.23700002 137 53 32 0.000000
-0.02330028 0.00014476 0.23600002 135 51 30 0.000000
-0.02274535 0.00014476 0.23600002 135 49 29 0.000000
-0.02219042 0.00014476 0.23600002 134 48 28 0.000000
-0.02163549 0.00014476 0.23600002 134 47 30 0.000000
-0.02108056 0.00014476 0.23600002 134 47 30 0.000000
0.02114833 0.00014905 0.24300002 146 63 53 0.000000
0.02171971 0.00014905 0.24300002 155 72 62 0.000000
0.02229110 0.00014905 0.24300002 161 73 63 0.000000
0.02286249 0.00014905 0.24300002 161 73 63 0.000000
0.02343388 0.00014905 0.24300002 167 68 59 0.000000
0.02400527 0.00014905 0.24300002 165 66 57 0.000000
0.02447552 0.00014844 0.24200001 160 59 44 0.000000
0.02504456 0.00014844 0.24200001 155 54 39 0.000000
0.02561359 0.00014844 0.24200001 165 61 45 0.000000
0.02618263 0.00014844 0.24200001 165 61 45 0.000000
0.02675167 0.00014844 0.24200001 176 72 58 0.000000
0.03103846 0.00015274 0.24900001 217 67 57 0.000000
0.03175096 0.00015335 0.25000000 240 90 80 0.000000
0.03246817 0.00015396 0.25100002 251 89 79 0.000000
0.03319007 0.00015458 0.25200000 248 86 76 0.000000
0.03378262 0.00015458 0.25200000 246 87 76 0.000000
0.03437517 0.00015458 0.25200000 232 73 62 0.000000
0.03496772 0.00015458 0.25200000 225 70 60 0.000000
0.03570139 0.00015519 0.25300002 224 69 59 0.000000
0.03615283 0.00015458 0.25200000 218 68 58 0.000000
0.03674538 0.00015458 0.25200000 217 67 57 0.000000
0.03733793 0.00015458 0.25200000 216 65 58 0.000000
0.03864992 0.00015274 0.24900001 217 66 59 0.000000
0.03786401 0.00014108 0.23000000 212 68 56 0.000000
0.03773693 0.00013863 0.22600001 212 64 56 0.000000
0.03809901 0.00013801 0.22500001 207 59 51 0.000000
0.03845640 0.00013740 0.22400001 212 61 54 0.000000
0.03880908 0.00013679 0.22300000 210 59 52 0.000000
0.03915705 0.00013617 0.22200002 210 63 50 0.000000
0.03967907 0.00013617 0.22200002 215 68 55 0.000000
0.04001999 0.00013556 0.22100002 215 68 55 0.000000
0.04053965 0.00013556 0.22100002 213 66 53 0.000000
0.04105930 0.00013556 0.22100002 213 66 51 0.000000
0.04139082 0.00013495 0.22000001 212 65 50 0.000000
0.04190813 0.00013495 0.22000001 216 66 52 0.000000
0.04242544 0.00013495 0.22000001 214 64 50 0.000000
0.04313793 0.00013556 0.22100002 215 60 48 0.000000
0.04365759 0.00013556 0.22100002 220 65 53 0.000000
0.04417725 0.00013556 0.22100002 238 79 70 0.000000
0.04469691 0.00013556 0.22100002 255 111 104 0.000000
0.04521657 0.00013556 0.22100002 255 118 111 0.000000
0.04594318 0.00013617 0.22200002 243 126 119 0.000000
0.04667449 0.00013679 0.22300000 251 134 127 0.000000
-0.03698622 0.00061371 0.20700002 121 60 52 0.000000
-0.03632316 0.00061075 0.20600002 124 63 55 0.000000
-0.03583877 0.00061075 0.20600002 131 60 51 0.000000
-0.03535438 0.00061075 0.20600002 132 61 52 0.000000
-0.03486999 0.00061075 0.20600002 139 67 58 0.000000
-0.03421869 0.00060778 0.20500001 135 63 54 0.000000
-0.03373665 0.00060778 0.20500001 140 65 55 0.000000
-0.03325462 0.00060778 0.20500001 140 65 55 0.000000
-0.03277258 0.00060778 0.20500001 146 67 56 0.000000
-0.03229054 0.00060778 0.20500001 151 72 61 0.000000
-0.03165334 0.00060482 0.20400001 162 79 69 0.000000
-0.03398240 0.00072637 0.24500000 117 37 29 0.000000
-0.03340631 0.00072637 0.24500000 116 36 28 0.000000
-0.03283022 0.00072637 0.24500000 118 38 30 0.000000
-0.03212248 0.00072341 0.24400002 118 38 30 0.000000
-0.03154874 0.00072341 0.24400002 122 42 34 0.000000
-0.03097500 0.00072341 0.24400002 124 44 36 0.000000
-0.03040126 0.00072341 0.24400002 126 47 36 0.000000
-0.02970528 0.00072044 0.24300002 119 40 29 0.000000
-0.02913389 0.00072044 0.24300002 125 43 33 0.000000
-0.02856250 0.00072044 0.24300002 120 38 28 0.000000
-0.02787592 0.00071748 0.24200001 113 30 20 0.000000
-0.02719405 0.00071451 0.24100001 118 35 25 0.000000
-0.02662736 0.00071451 0.24100001 128 46 31 0.000000
-0.02595254 0.00071155 0.24000001 132 50 35 0.000000
-0.02528242 0.00070858 0.23900001 135 53 34 0.000000
-0.02461700 0.00070562 0.23800001 140 58 39 0.000000
-0.02405737 0.00070562 0.23800001 139 58 36 0.000000
-0.02349774 0.00070562 0.23800001 137 56 34 0.000000
-0.02293811 0.00070562 0.23800001 135 49 27 0.000000
-0.02237847 0.00070562 0.23800001 132 46 24 0.000000
-0.02181884 0.00070562 0.23800001 132 46 24 0.000000
-0.02116989 0.00070266 0.23700002 134 48 26 0.000000
-0.02061261 0.00070266 0.23700002 132 50 35 0.000000
0.02049226 0.00071748 0.24200001 146 55 48 0.000000
0.02106130 0.00071748 0.24200001 150 62 54 0.000000
0.02163033 0.00071748 0.24200001 154 66 58 0.000000
0.02219937 0.00071748 0.24200001 160 66 60 0.000000
0.02276841 0.00071748 0.24200001 156 62 56 0.000000
0.02333744 0.00071748 0.24200001 164 65 56 0.000000
0.02390648 0.00071748 0.24200001 157 58 49 0.000000
0.02447552 0.00071748 0.24200001 159 55 41 0.000000
0.02504456 0.00071748 0.24200001 161 57 43 0.000000
0.02550775 0.00071451 0.24100001 167 61 46 0.000000
0.03103846 0.00073823 0.24900001 213 61 48 0.000000
0.03175096 0.00074120 0.25000000 223 71 58 0.000000
0.03246817 0.00074416 0.25100002 242 79 67 0.000000
0.03319007 0.00074713 0.25200000 249 86 74 0.000000
0.03378262 0.00074713 0.25200000 250 92 78 0.000000
0.03437517 0.00074713 0.25200000 248 90 76 0.000000
0.03496772 0.00074713 0.25200000 224 69 59 0.000000
0.03556028 0.00074713 0.25200000 224 69 59 0.000000
0.03615283 0.00074713 0.25200000 217 70 59 0.000000
0.03674538 0.00074713 0.25200000 216 69 58 0.000000
0.03802864 0.00068487 0.23100001 209 65 56 0.000000
0.03809901 0.00066708 0.22500001 204 60 51 0.000000
0.03828472 0.00066115 0.22300000 207 63 51 0.000000
0.03863505 0.00065818 0.22200002 212 68 56 0.000000
0.03898067 0.00065522 0.22100002 212 68 54 0.000000
0.03950033 0.00065522 0.22100002 212 68 54 0.000000
0.04001999 0.00065522 0.22100002 211 67 51 0.000000
0.04035621 0.00065225 0.22000001 206 62 46 0.000000
0.04087352 0.00065225 0.22000001 206 59 44 0.000000
0.04139082 0.00065225 0.22000001 208 61 46 0.000000
0.04190813 0.00065225 0.22000001 210 64 46 0.000000
0.04242544 0.00065225 0.22000001 212 66 48 0.000000
0.04294274 0.00065225 0.22000001 212 63 46 0.000000
0.04346005 0.00065225 0.22000001 212 63 46 0.000000
0.04417725 0.00065522 0.22100002 218 63 53 0.000000
0.04469691 0.00065522 0.22100002 250 105 98 0.000000
0.04521657 0.00065522 0.22100002 255 118 111 0.000000
0.04573622 0.00065522 0.22100002 243 124 118 0.000000
0.04646519 0.00065818 0.22200002 251 132 126 0.000000
-0.03747296 0.00110045 0.20700002 114 66 58 0.000000
-0.03680754 0.00109513 0.20600002 125 65 54 0.000000
-0.03632316 0.00109513 0.20600002 126 66 55 0.000000
-0.03583877 0.00109513 0.20600002 133 62 53 0.000000
-0.03535438 0.00109513 0.20600002 133 62 53 0.000000
-0.03486999 0.00109513 0.20600002 137 66 55 0.000000
-0.03438561 0.00109513 0.20600002 134 63 52 0.000000
-0.03390122 0.00109513 0.20600002 141 67 54 0.000000
-0.03325462 0.00108982 0.20500001 142 68 55 0.000000
-0.03277258 0.00108982 0.20500001 150 71 58 0.000000
-0.03229054 0.00108982 0.20500001 158 79 66 0.000000
-0.03180851 0.00108982 0.20500001 156 73 63 0.000000
-0.03455849 0.00130246 0.24500000 121 39 29 0.000000
-0.03398240 0.00130246 0.24500000 119 39 31 0.000000
-0.03340631 0.00130246 0.24500000 118 38 30 0.000000
-0.03283022 0.00130246 0.24500000 118 38 32 0.000000
-0.03212248 0.00129715 0.24400002 121 41 35 0.000000
-0.03154874 0.00129715 0.24400002 128 49 38 0.000000
-0.03097500 0.00129715 0.24400002 129 50 39 0.000000
-0.03027667 0.00129183 0.24300002 128 50 34 0.000000
-0.02970528 0.00129183 0.24300002 122 44 28 0.000000
-0.02913389 0.00129183 0.24300002 120 37 25 0.000000
-0.02844496 0.00128652 0.24200001 118 35 23 0.000000
-0.02787592 0.00128652 0.24200001 117 34 24 0.000000
-0.02719405 0.00128120 0.24100001 119 36 26 0.000000
-0.02662736 0.00128120 0.24100001 126 44 29 0.000000
-0.02595254 0.00127588 0.24000001 129 47 32 0.000000
-0.02528242 0.00127057 0.23900001 133 51 34 0.000000
-0.02472044 0.00127057 0.23900001 140 58 41 0.000000
-0.02415845 0.00127057 0.23900001 140 59 37 0.000000
-0.02359647 0.00127057 0.23900001 139 58 36 0.000000
-0.02293811 0.00126525 0.23800001 137 51 29 0.000000
-0.02237847 0.00126525 0.23800001 130 44 22 0.000000
-0.02181884 0.00126525 0.23800001 131 50 26 0.000000
-0.02125921 0.00126525 0.23800001 129 48 24 0.000000
-0.02069958 0.00126525 0.23800001 128 47 28 0.000000
-0.02013995 0.00126525 0.23800001 131 50 31 0.000000
-0.01958032 0.00126525 0.23800001 136 53 41 0.000000
0.01935418 0.00128652 0.24200001 140 38 30 0.000000
0.01992322 0.00128652 0.24200001 144 42 34 0.000000
0.02040758 0.00128120 0.24100001 147 53 45 0.000000
0.02097427 0.00128120 0.24100001 151 60 51 0.000000
0.02154095 0.00128120 0.24100001 155 64 55 0.000000
0.02210764 0.00128120 0.24100001 164 69 61 0.000000
0.02267432 0.00128120 0.24100001 162 67 59 0.000000
0.02324101 0.00128120 0.24100001 166 64 56 0.000000
0.03175096 0.00132905 0.25000000 217 67 53 0.000000
0.03246817 0.00133436 0.25100002 241 83 69 0.000000
0.03305836 0.00133436 0.25100002 249 91 77 0.000000
0.03378262 0.00133968 0.25200000 249 94 77 0.000000
0.03437517 0.00133968 0.25200000 253 98 81 0.000000
0.03510649 0.00134499 0.25300002 232 77 67 0.000000
0.03570139 0.00134499 0.25300002 224 69 59 0.000000
0.03615283 0.00133968 0.25200000 216 69 58 0.000000
0.03674538 0.00133968 0.25200000 214 67 56 0.000000
0.03748610 0.00134499 0.25300002 208 68 55 0.000000
0.03809901 0.00119614 0.22500001 207 67 54 0.000000
0.03828472 0.00118551 0.22300000 210 67 53 0.000000
0.03846101 0.00117488 0.22100002 211 68 54 0.000000
0.03898067 0.00117488 0.22100002 212 69 53 0.000000
0.03932159 0.00116956 0.22000001 210 67 51 0.000000
0.03983890 0.00116956 0.22000001 209 66 50 0.000000
0.04035621 0.00116956 0.22000001 206 63 47 0.000000
0.04087352 0.00116956 0.22000001 204 60 44 0.000000
0.04139082 0.00116956 0.22000001 205 61 45 0.000000
0.04171764 0.00116424 0.21900001 210 67 48 0.000000
0.04223259 0.00116424 0.21900001 210 67 48 0.000000
0.04294274 0.00116956 0.22000001 209 63 45 0.000000
0.04346005 0.00116956 0.22000001 214 68 50 0.000000
0.04397735 0.00116956 0.22000001 218 66 53 0.000000
0.04449466 0.00116956 0.22000001 251 107 100 0.000000
0.04501197 0.00116956 0.22000001 255 113 106 0.000000
0.04573622 0.00117488 0.22100002 243 123 114 0.000000
0.04625589 0.00117488 0.22100002 252 132 123 0.000000
-0.03747296 0.00158719 0.20700002 117 68 56 0.000000
-0.03680754 0.00157952 0.20600002 131 66 57 0.000000
-0.03632316 0.00157952 0.20600002 129 64 55 0.000000
-0.03583877 0.00157952 0.20600002 131 60 51 0.000000
-0.03535438 0.00157952 0.20600002 133 62 53 0.000000
-0.03486999 0.00157952 0.20600002 135 63 52 0.000000
-0.03438561 0.00157952 0.20600002 135 63 52 0.000000
-0.03390122 0.00157952 0.20600002 139 68 54 0.000000
-0.03341683 0.00157952 0.20600002 138 67 53 0.000000
-0.03277258 0.00157185 0.20500001 151 73 57 0.000000
-0.03229054 0.00157185 0.20500001 158 80 64 0.000000
-0.03513459 0.00187856 0.24500000 120 37 27 0.000000
-0.03455849 0.00187856 0.24500000 119 37 27 0.000000
-0.03398240 0.00187856 0.24500000 119 36 29 0.000000
-0.03340631 0.00187856 0.24500000 119 36 29 0.000000
-0.03283022 0.00187856 0.24500000 118 38 30 0.000000
-0.03212248 0.00187089 0.24400002 122 42 34 0.000000
-0.03154874 0.00187089 0.24400002 126 46 38 0.000000
-0.03097500 0.00187089 0.24400002 126 46 38 0.000000
-0.03027667 0.00186322 0.24300002 128 45 33 0.000000
-0.02970528 0.00186322 0.24300002 122 39 27 0.000000
-0.02913389 0.00186322 0.24300002 117 31 20 0.000000
-0.02844496 0.00185555 0.24200001 116 30 19 0.000000
-0.02776073 0.00184789 0.24100001 125 42 32 0.000000
-0.02719405 0.00184789 0.24100001 128 45 35 0.000000
-0.02651687 0.00184022 0.24000001 125 43 33 0.000000
-0.02584440 0.00183255 0.23900001 128 46 36 0.000000
-0.02528242 0.00183255 0.23900001 132 51 36 0.000000
-0.02472044 0.00183255 0.23900001 138 57 42 0.000000
-0.02405737 0.00182488 0.23800001 139 58 41 0.000000
-0.02349774 0.00182488 0.23800001 140 59 42 0.000000
-0.02293811 0.00182488 0.23800001 137 53 30 0.000000
-0.02228445 0.00181722 0.23700002 131 47 24 0.000000
-0.02172717 0.00181722 0.23700002 129 48 26 0.000000
-0.02125921 0.00182488 0.23800001 124 43 21 0.000000
-0.02069958 0.00182488 0.23800001 128 47 30 0.000000
-0.02005533 0.00181722 0.23700002 133 52 35 0.000000
-0.01949805 0.00181722 0.23700002 134 51 39 0.000000
-0.01894077 0.00181722 0.23700002 136 53 41 0.000000
-0.01838349 0.00181722 0.23700002 146 55 46 0.000000
0.01562499 0.00188622 0.24600001 141 46 38 0.000000
0.01613756 0.00187856 0.24500000 146 46 40 0.000000
0.01671365 0.00187856 0.24500000 142 42 36 0.000000
0.01721917 0.00187089 0.24400002 139 34 27 0.000000
0.01771999 0.00186322 0.24300002 140 35 28 0.000000
0.01821611 0.00185555 0.24200001 144 39 32 0.000000
0.01878515 0.00185555 0.24200001 143 38 31 0.000000
0.01927421 0.00184789 0.24100001 141 39 31 0.000000
0.01984089 0.00184789 0.24100001 145 43 35 0.000000
0.02040758 0.00184789 0.24100001 146 53 42 0.000000
0.02097427 0.00184789 0.24100001 147 56 47 0.000000
0.02154095 0.00184789 0.24100001 156 65 56 0.000000
0.02201590 0.00184022 0.24000001 165 70 62 0.000000
0.03162396 0.00190923 0.24900001 208 61 46 0.000000
0.03233881 0.00191689 0.25000000 225 71 56 0.000000
0.03305836 0.00192456 0.25100002 250 96 81 0.000000
0.03378262 0.00193223 0.25200000 253 98 81 0.000000
0.03437517 0.00193223 0.25200000 254 99 82 0.000000
0.03510649 0.00193990 0.25300002 249 93 81 0.000000
0.03570139 0.00193990 0.25300002 233 77 65 0.000000
0.03629629 0.00193990 0.25300002 214 66 58 0.000000
0.03689120 0.00193990 0.25300002 215 67 59 0.000000
0.03748610 0.00193990 0.25300002 210 70 55 0.000000
0.03808100 0.00193990 0.25300002 211 71 56 0.000000
0.03867590 0.00193990 0.25300002 211 71 56 0.000000
0.03857181 0.00177121 0.23100001 209 69 54 0.000000
0.03845640 0.00171754 0.22400001 207 67 52 0.000000
0.03863505 0.00170220 0.22200002 207 67 52 0.000000
0.03915705 0.00170220 0.22200002 209 66 50 0.000000
0.03950033 0.00169453 0.22100002 210 67 51 0.000000
0.04001999 0.00169453 0.22100002 209 66 50 0.000000
0.04035621 0.00168687 0.22000001 207 64 48 0.000000
0.04087352 0.00168687 0.22000001 207 64 45 0.000000
0.04139082 0.00168687 0.22000001 210 67 48 0.000000
0.04171764 0.00167920 0.21900001 213 70 51 0.000000
0.04223259 0.00167920 0.21900001 210 67 48 0.000000
0.04274755 0.00167920 0.21900001 206 63 44 0.000000
0.04326250 0.00167920 0.21900001 206 63 44 0.000000
0.04397735 0.00168687 0.22000001 214 67 52 0.000000
0.04449466 0.00168687 0.22000001 248 104 97 0.000000
0.04501197 0.00168687 0.22000001 255 112 105 0.000000
0.04552927 0.00168687 0.22000001 240 117 112 0.000000
0.04604658 0.00168687 0.22000001 251 128 123 0.000000
-0.03747296 0.00207393 0.20700002 118 70 55 0.000000
-0.03698622 0.00207393 0.20700002 130 65 56 0.000000
-0.03649948 0.00207393 0.20700002 130 65 56 0.000000
-0.03601275 0.00207393 0.20700002 135 63 54 0.000000
-0.03535438 0.00206391 0.20600002 133 61 52 0.000000
-0.03486999 0.00206391 0.20600002 133 61 50 0.000000
-0.03438561 0.00206391 0.20600002 138 66 55 0.000000
-0.03390122 0.00206391 0.20600002 142 68 55 0.000000
-0.03341683 0.00206391 0.20600002 141 67 54 0.000000
-0.03293245 0.00206391 0.20600002 150 75 58 0.000000
-0.03244806 0.00206391 0.20600002 159 84 67 0.000000
-0.03571068 0.00245465 0.24500000 120 37 25 0.000000
-0.03513459 0.00245465 0.24500000 121 38 26 0.000000
-0.03455849 0.00245465 0.24500000 124 41 29 0.000000
-0.03398240 0.00245465 0.24500000 118 36 26 0.000000
-0.03340631 0.00245465 0.24500000 120 38 28 0.000000
-0.03283022 0.00245465 0.24500000 122 42 34 0.000000
-0.03212248 0.00244463 0.24400002 123 43 35 0.000000
-0.03154874 0.00244463 0.24400002 123 40 33 0.000000
-0.03097500 0.00244463 0.24400002 124 41 34 0.000000
-0.03027667 0.00243461 0.24300002 124 38 27 0.000000
-0.02970528 0.00243461 0.24300002 119 33 22 0.000000
-0.02901400 0.00242459 0.24200001 113 27 16 0.000000
-0.02844496 0.00242459 0.24200001 117 31 20 0.000000
-0.02776073 0.00241457 0.24100001 137 50 44 0.000000
-0.02708121 0.00240455 0.24000001 136 49 43 0.000000
-0.02651687 0.00240455 0.24000001 130 50 42 0.000000
-0.02584440 0.00239453 0.23900001 131 51 43 0.000000
-0.02528242 0.00239453 0.23900001 130 51 40 0.000000
-0.02461700 0.00238452 0.23800001 134 55 44 0.000000
-0.02405737 0.00238452 0.23800001 137 58 45 0.000000
-0.02339901 0.00237450 0.23700002 139 60 47 0.000000
-0.02284173 0.00237450 0.23700002 134 53 34 0.000000
-0.02228445 0.00237450 0.23700002 131 50 31 0.000000
-0.02172717 0.00237450 0.23700002 128 47 30 0.000000
-0.02116989 0.00237450 0.23700002 123 42 25 0.000000
-0.02061261 0.00237450 0.23700002 116 35 20 0.000000
-0.02005533 0.00237450 0.23700002 132 51 36 0.000000
-0.01949805 0.00237450 0.23700002 133 51 39 0.000000
-0.01894077 0.00237450 0.23700002 135 53 41 0.000000
-0.01830592 0.00236448 0.23600002 141 56 42 0.000000
-0.01775099 0.00236448 0.23600002 142 57 43 0.000000
0.01504654 0.00246467 0.24600001 143 46 34 0.000000
0.01562499 0.00246467 0.24600001 139 42 30 0.000000
0.01620343 0.00246467 0.24600001 140 38 30 0.000000
0.01671365 0.00245465 0.24500000 139 37 29 0.000000
0.01721917 0.00244463 0.24400002 138 35 30 0.000000
0.01771999 0.00243461 0.24300002 139 36 31 0.000000
0.01821611 0.00242459 0.24200001 142 40 32 0.000000
0.01878515 0.00242459 0.24200001 139 37 29 0.000000
0.01927421 0.00241457 0.24100001 138 39 30 0.000000
0.01984089 0.00241457 0.24100001 142 43 34 0.000000
0.02032290 0.00240455 0.24000001 148 55 44 0.000000
0.03162396 0.00249472 0.24900001 201 54 39 0.000000
0.03233881 0.00250474 0.25000000 204 55 38 0.000000
0.03305836 0.00251476 0.25100002 228 79 62 0.000000
0.03378262 0.00252478 0.25200000 249 95 78 0.000000
0.03437517 0.00252478 0.25200000 252 98 81 0.000000
0.03510649 0.00253480 0.25300002 253 98 83 0.000000
0.03570139 0.00253480 0.25300002 247 92 77 0.000000
0.03629629 0.00253480 0.25300002 214 59 49 0.000000
0.03689120 0.00253480 0.25300002 215 60 50 0.000000
0.03748610 0.00253480 0.25300002 213 70 56 0.000000
0.03808100 0.00253480 0.25300002 213 70 56 0.000000
0.03867590 0.00253480 0.25300002 211 73 57 0.000000
0.03927081 0.00253480 0.25300002 213 75 59 0.000000
0.03898311 0.00224425 0.22400001 210 70 55 0.000000
0.03933343 0.00223423 0.22300000 210 67 51 0.000000
0.03950033 0.00221419 0.22100002 210 67 51 0.000000
