-0.01898658 -0.01053333 0.19700001 169 87 75 0.000000
-0.01852336 -0.01053333 0.19700001 169 87 75 0.000000
-0.01806014 -0.01053333 0.19700001 168 86 76 0.000000
-0.01759691 -0.01053333 0.19700001 169 87 77 0.000000
-0.01713368 -0.01053333 0.19700001 169 87 77 0.000000
-0.01667046 -0.01053333 0.19700001 169 87 77 0.000000
-0.01628951 -0.01058680 0.19800001 169 87 77 0.000000
-0.01590385 -0.01064027 0.19900002 168 86 76 0.000000
-0.01543592 -0.01064027 0.19900002 168 86 74 0.000000
-0.01496799 -0.01064027 0.19900002 168 86 74 0.000000
-0.01450007 -0.01064027 0.19900002 168 85 73 0.000000
-0.01403214 -0.01064027 0.19900002 170 87 75 0.000000
-0.01356421 -0.01064027 0.19900002 171 88 76 0.000000
-0.01309629 -0.01064027 0.19900002 170 87 75 0.000000
-0.01197711 -0.01047986 0.19600001 172 89 77 0.000000
-0.00892987 -0.01015905 0.19000001 173 87 76 0.000000
-0.00848311 -0.01015905 0.19000001 173 87 76 0.000000
-0.00807864 -0.01021252 0.19100001 171 85 74 0.000000
-0.00762952 -0.01021252 0.19100001 171 85 74 0.000000
-0.00718041 -0.01021252 0.19100001 173 87 76 0.000000
-0.00673129 -0.01021252 0.19100001 175 87 77 0.000000
-0.00631506 -0.01026598 0.19200000 173 85 75 0.000000
-0.00586360 -0.01026598 0.19200000 172 84 74 0.000000
-0.00544032 -0.01031945 0.19300000 174 86 76 0.000000
-0.00498650 -0.01031945 0.19300000 174 86 76 0.000000
-0.00455616 -0.01037292 0.19400001 175 87 77 0.000000
-0.00409999 -0.01037292 0.19400001 177 89 79 0.000000
-0.00366261 -0.01042639 0.19500001 178 90 80 0.000000
-0.00320408 -0.01042639 0.19500001 178 91 78 0.000000
-0.00274556 -0.01042639 0.19500001 182 92 80 0.000000
-0.00228704 -0.01042639 0.19500001 182 92 80 0.000000
-0.00183790 -0.01047986 0.19600001 179 89 77 0.000000
-0.00137702 -0.01047986 0.19600001 180 90 78 0.000000
-0.00091615 -0.01047986 0.19600001 184 91 78 0.000000
-0.00045528 -0.01047986 0.19600001 183 90 77 0.000000
0.00000560 -0.01047986 0.19600001 185 91 78 0.000000
0.00046647 -0.01047986 0.19600001 184 90 77 0.000000
0.00092734 -0.01047986 0.19600001 184 90 75 0.000000
0.00139530 -0.01053333 0.19700001 186 92 77 0.000000
0.00185852 -0.01053333 0.19700001 187 90 76 0.000000
0.00230996 -0.01047986 0.19600001 188 91 77 0.000000
0.00277084 -0.01047986 0.19600001 189 92 78 0.000000
0.00323171 -0.01047986 0.19600001 192 95 81 0.000000
0.00367374 -0.01042639 0.19500001 198 96 84 0.000000
0.00413227 -0.01042639 0.19500001 199 97 85 0.000000
0.00459079 -0.01042639 0.19500001 200 95 84 0.000000
0.00504931 -0.01042639 0.19500001 204 99 88 0.000000
0.00550783 -0.01042639 0.19500001 212 99 88 0.000000
0.00596635 -0.01042639 0.19500001 214 101 90 0.000000
0.00642487 -0.01042639 0.19500001 225 103 95 0.000000
0.00691870 -0.01047986 0.19600001 224 102 94 0.000000
0.00741722 -0.01053333 0.19700001 229 101 95 0.000000
0.00788045 -0.01053333 0.19700001 234 106 100 0.000000
0.00838602 -0.01058680 0.19800001 235 107 101 0.000000
0.00885160 -0.01058680 0.19800001 234 106 100 0.000000
0.00936423 -0.01064027 0.19900002 235 106 103 0.000000
0.00983216 -0.01064027 0.19900002 240 111 108 0.000000
0.01030009 -0.01064027 0.19900002 238 112 108 0.000000
0.01076801 -0.01064027 0.19900002 236 110 106 0.000000
0.01123594 -0.01064027 0.19900002 238 112 108 0.000000
0.01170387 -0.01064027 0.19900002 239 113 109 0.000000
0.01217180 -0.01064027 0.19900002 239 116 113 0.000000
0.01263972 -0.01064027 0.19900002 238 115 112 0.000000
0.01310765 -0.01064027 0.19900002 237 114 111 0.000000
0.01350736 -0.01058680 0.19800001 238 115 112 0.000000
0.01397294 -0.01058680 0.19800001 244 118 116 0.000000
0.01443851 -0.01058680 0.19800001 244 118 116 0.000000
0.01490409 -0.01058680 0.19800001 244 118 114 0.000000
0.01544729 -0.01064027 0.19900002 246 120 116 0.000000
0.01591522 -0.01064027 0.19900002 249 121 115 0.000000
0.01638315 -0.01064027 0.19900002 249 121 115 0.000000
0.01685107 -0.01064027 0.19900002 249 119 114 0.000000
0.01731900 -0.01064027 0.19900002 250 120 115 0.000000
0.01787631 -0.01069373 0.20000000 251 121 114 0.000000
0.01834659 -0.01069373 0.20000000 250 120 113 0.000000
0.01891095 -0.01074720 0.20100001 250 120 113 0.000000
0.01948002 -0.01080067 0.20200001 247 117 110 0.000000
0.02005379 -0.01085414 0.20300001 249 119 112 0.000000
0.02053112 -0.01085414 0.20300001 251 119 112 0.000000
0.02111194 -0.01090761 0.20400001 254 122 115 0.000000
0.02169747 -0.01096108 0.20500001 251 121 114 0.000000
0.02217950 -0.01096108 0.20500001 249 119 112 0.000000
0.02277208 -0.01101455 0.20600002 246 116 109 0.000000
0.02325647 -0.01101455 0.20600002 250 120 113 0.000000
0.02374086 -0.01101455 0.20600002 245 117 109 0.000000
0.02422524 -0.01101455 0.20600002 246 118 110 0.000000
0.02482958 -0.01106802 0.20700002 244 119 112 0.000000
0.02531632 -0.01106802 0.20700002 242 117 110 0.000000
0.02580306 -0.01106802 0.20700002 239 117 109 0.000000
0.02628980 -0.01106802 0.20700002 239 117 109 0.000000
0.02690589 -0.01112148 0.20800000 236 114 106 0.000000
0.02739498 -0.01112148 0.20800000 236 114 106 0.000000
0.02788407 -0.01112148 0.20800000 235 115 106 0.000000
0.02850957 -0.01117495 0.20900001 233 113 104 0.000000
0.02900101 -0.01117495 0.20900001 231 111 102 0.000000
0.02963356 -0.01122842 0.21000001 230 110 101 0.000000
0.03027082 -0.01128189 0.21100001 228 110 101 0.000000
0.03120441 -0.01144230 0.21400002 229 111 102 0.000000
0.03215211 -0.01160270 0.21700001 230 111 107 0.000000
0.03507985 -0.01208392 0.22600001 236 125 120 0.000000
0.03608398 -0.01224433 0.22900002 232 137 138 0.000000
-0.05120645 -0.01237038 0.24200001 25 32 36 0.000000
-0.05063742 -0.01237038 0.24200001 27 34 38 0.000000
-0.05006838 -0.01237038 0.24200001 26 33 37 0.000000
-0.04949934 -0.01237038 0.24200001 24 31 35 0.000000
-0.04893030 -0.01237038 0.24200001 25 32 36 0.000000
-0.04816143 -0.01231926 0.24100001 25 32 36 0.000000
-0.04759474 -0.01231926 0.24100001 25 32 36 0.000000
-0.04683292 -0.01226815 0.24000001 25 32 36 0.000000
-0.04607580 -0.01221703 0.23900001 22 30 31 0.000000
-0.04513295 -0.01211479 0.23700002 25 33 34 0.000000
-0.04438758 -0.01206368 0.23600002 31 30 30 0.000000
-0.04364692 -0.01201256 0.23500001 30 29 29 0.000000
-0.04291096 -0.01196144 0.23400001 84 56 53 0.000000
-0.04217971 -0.01191033 0.23300001 109 81 78 0.000000
-0.04145316 -0.01185921 0.23200001 130 73 66 0.000000
-0.04055498 -0.01175697 0.23000000 134 77 70 0.000000
-0.03587605 -0.01114357 0.21800001 150 76 63 0.000000
-0.03455236 -0.01088798 0.21300001 149 75 62 0.000000
-0.03159674 -0.01073463 0.21000001 153 77 65 0.000000
-0.02767952 -0.01037681 0.20300001 153 74 63 0.000000
-0.02720218 -0.01037681 0.20300001 157 78 67 0.000000
-0.02659320 -0.01032569 0.20200001 157 78 67 0.000000
-0.02598892 -0.01027457 0.20100001 157 78 67 0.000000
-0.02551629 -0.01027457 0.20100001 157 78 67 0.000000
-0.02491906 -0.01022345 0.20000000 155 76 65 0.000000
-0.02444879 -0.01022345 0.20000000 155 76 65 0.000000
-0.02385862 -0.01017234 0.19900002 154 75 64 0.000000
-0.02327315 -0.01012122 0.19800001 155 76 65 0.000000
-0.02269238 -0.01007010 0.19700001 160 78 66 0.000000
-0.02222916 -0.01007010 0.19700001 163 81 69 0.000000
-0.02176593 -0.01007010 0.19700001 167 86 71 0.000000
-0.02130271 -0.01007010 0.19700001 168 87 72 0.000000
-0.02073370 -0.01001899 0.19600001 169 88 73 0.000000
-0.02027283 -0.01001899 0.19600001 168 87 72 0.000000
-0.01981195 -0.01001899 0.19600001 165 86 73 0.000000
-0.01935108 -0.01001899 0.19600001 165 86 73 0.000000
-0.01889021 -0.01001899 0.19600001 167 88 75 0.000000
-0.01842933 -0.01001899 0.19600001 167 88 75 0.000000
-0.01796846 -0.01001899 0.19600001 167 88 77 0.000000
-0.01750759 -0.01001899 0.19600001 167 88 77 0.000000
-0.01704671 -0.01001899 0.19600001 166 87 76 0.000000
-0.01667046 -0.01007010 0.19700001 167 88 77 0.000000
-0.01620724 -0.01007010 0.19700001 166 87 74 0.000000
-0.01574401 -0.01007010 0.19700001 166 87 74 0.000000
-0.01535835 -0.01012122 0.19800001 168 86 74 0.000000
-0.01489278 -0.01012122 0.19800001 168 86 74 0.000000
-0.01191600 -0.00996787 0.19500001 170 88 76 0.000000
-0.00892987 -0.00971228 0.19000001 167 84 72 0.000000
-0.00848311 -0.00971228 0.19000001 171 88 76 0.000000
-0.00803634 -0.00971228 0.19000001 169 86 74 0.000000
-0.00758958 -0.00971228 0.19000001 167 84 72 0.000000
-0.00718041 -0.00976340 0.19100001 171 88 76 0.000000
-0.00673129 -0.00976340 0.19100001 173 87 76 0.000000
-0.00631506 -0.00981452 0.19200000 170 84 73 0.000000
-0.00586360 -0.00981452 0.19200000 170 84 73 0.000000
-0.00544032 -0.00986563 0.19300000 171 85 74 0.000000
-0.00498650 -0.00986563 0.19300000 173 87 78 0.000000
-0.00455616 -0.00991675 0.19400001 174 88 79 0.000000
-0.00409999 -0.00991675 0.19400001 176 90 81 0.000000
-0.00364382 -0.00991675 0.19400001 177 91 82 0.000000
-0.00320408 -0.00996787 0.19500001 177 91 80 0.000000
-0.00274556 -0.00996787 0.19500001 179 91 81 0.000000
-0.00228704 -0.00996787 0.19500001 178 90 80 0.000000
-0.00183790 -0.01001899 0.19600001 179 89 77 0.000000
-0.00137702 -0.01001899 0.19600001 176 86 74 0.000000
-0.00091615 -0.01001899 0.19600001 184 91 80 0.000000
-0.00045528 -0.01001899 0.19600001 182 89 78 0.000000
0.00000560 -0.01001899 0.19600001 184 90 79 0.000000
0.00046647 -0.01001899 0.19600001 184 90 79 0.000000
0.00092734 -0.01001899 0.19600001 182 88 75 0.000000
0.00138822 -0.01001899 0.19600001 187 93 80 0.000000
0.00184909 -0.01001899 0.19600001 189 92 78 0.000000
0.00229818 -0.00996787 0.19500001 189 92 78 0.000000
0.00275670 -0.00996787 0.19500001 191 94 82 0.000000
0.00319873 -0.00991675 0.19400001 192 95 83 0.000000
0.00363606 -0.00986563 0.19300000 197 95 85 0.000000
0.00408988 -0.00986563 0.19300000 201 99 89 0.000000
0.00454370 -0.00986563 0.19300000 201 94 86 0.000000
0.00499752 -0.00986563 0.19300000 206 99 91 0.000000
0.00545134 -0.00986563 0.19300000 214 97 92 0.000000
0.00593576 -0.00991675 0.19400001 212 95 90 0.000000
0.00639193 -0.00991675 0.19400001 217 94 91 0.000000
0.00688340 -0.00996787 0.19500001 220 97 94 0.000000
0.00737957 -0.01001899 0.19600001 224 101 100 0.000000
0.00788045 -0.01007010 0.19700001 229 106 105 0.000000
0.00834367 -0.01007010 0.19700001 229 111 111 0.000000
0.00885160 -0.01012122 0.19800001 229 111 111 0.000000
0.00931718 -0.01012122 0.19800001 227 117 114 0.000000
0.00983216 -0.01017234 0.19900002 229 119 116 0.000000
0.01030009 -0.01017234 0.19900002 228 122 118 0.000000
0.01076801 -0.01017234 0.19900002 230 124 120 0.000000
0.01123594 -0.01017234 0.19900002 230 130 126 0.000000
0.01170387 -0.01017234 0.19900002 232 132 128 0.000000
0.01211063 -0.01012122 0.19800001 231 130 129 0.000000
0.01257621 -0.01012122 0.19800001 229 128 127 0.000000
0.01304178 -0.01012122 0.19800001 226 125 124 0.000000
0.01350736 -0.01012122 0.19800001 225 124 123 0.000000
0.01397294 -0.01012122 0.19800001 228 121 122 0.000000
0.01443851 -0.01012122 0.19800001 227 120 121 0.000000
0.01490409 -0.01012122 0.19800001 231 119 119 0.000000
0.01536966 -0.01012122 0.19800001 231 119 119 0.000000
0.01583524 -0.01012122 0.19800001 242 123 121 0.000000
0.01630082 -0.01012122 0.19800001 242 123 121 0.000000
0.01676639 -0.01012122 0.19800001 246 123 120 0.000000
0.01723197 -0.01012122 0.19800001 247 124 121 0.000000
0.01778693 -0.01017234 0.19900002 248 122 120 0.000000
0.01834659 -0.01022345 0.20000000 248 119 116 0.000000
0.01881686 -0.01022345 0.20000000 249 120 117 0.000000
0.01938358 -0.01027457 0.20100001 249 121 115 0.000000
0.01995500 -0.01032569 0.20200001 248 120 114 0.000000
0.02053112 -0.01037681 0.20300001 250 120 115 0.000000
0.02100845 -0.01037681 0.20300001 251 121 116 0.000000
0.02159162 -0.01042792 0.20400001 251 121 116 0.000000
0.02217950 -0.01047904 0.20500001 250 120 115 0.000000
0.02266154 -0.01047904 0.20500001 249 119 114 0.000000
0.02325647 -0.01053016 0.20600002 250 120 115 0.000000
0.02374086 -0.01053016 0.20600002 244 116 110 0.000000
0.02422524 -0.01053016 0.20600002 245 117 111 0.000000
0.02482958 -0.01058128 0.20700002 244 116 110 0.000000
0.02531632 -0.01058128 0.20700002 244 116 110 0.000000
0.02580306 -0.01058128 0.20700002 242 117 110 0.000000
0.02628980 -0.01058128 0.20700002 242 117 110 0.000000
0.02690589 -0.01063239 0.20800000 236 114 106 0.000000
0.02739498 -0.01063239 0.20800000 234 112 104 0.000000
0.02788407 -0.01063239 0.20800000 233 113 104 0.000000
0.02850957 -0.01068351 0.20900001 233 113 104 0.000000
0.02913977 -0.01073463 0.21000001 232 112 103 0.000000
0.02963356 -0.01073463 0.21000001 230 110 101 0.000000
0.03027082 -0.01078575 0.21100001 227 109 100 0.000000
0.03120441 -0.01093910 0.21400002 228 110 101 0.000000
0.03215211 -0.01109245 0.21700001 229 110 106 0.000000
0.03311391 -0.01124580 0.22000001 246 127 123 0.000000
0.03393696 -0.01134804 0.22200002 246 132 128 0.000000
0.03492463 -0.01150139 0.22500001 239 125 121 0.000000
0.03592641 -0.01165474 0.22800002 225 129 128 0.000000
-0.05078326 -0.01170381 0.24000001 22 30 31 0.000000
-0.05042817 -0.01175258 0.24100001 24 32 33 0.000000
-0.04986148 -0.01175258 0.24100001 22 30 31 0.000000
-0.04929480 -0.01175258 0.24100001 22 30 31 0.000000
-0.04872811 -0.01175258 0.24100001 22 30 31 0.000000
-0.04796159 -0.01170381 0.24000001 22 30 31 0.000000
-0.04739725 -0.01170381 0.24000001 26 32 34 0.000000
-0.04663778 -0.01165505 0.23900001 29 35 37 0.000000
-0.04588301 -0.01160628 0.23800001 25 31 31 0.000000
-0.04513295 -0.01155751 0.23700002 26 32 32 0.000000
-0.04438758 -0.01150875 0.23600002 33 30 27 0.000000
-0.04364692 -0.01145998 0.23500001 29 26 23 0.000000
-0.04217971 -0.01136245 0.23300001 113 85 82 0.000000
-0.04145316 -0.01131368 0.23200001 129 71 67 0.000000
-0.04055498 -0.01121615 0.23000000 131 73 69 0.000000
-0.03966621 -0.01111862 0.22800002 139 71 61 0.000000
-0.02767952 -0.00989947 0.20300001 150 75 65 0.000000
-0.02706818 -0.00985071 0.20200001 150 75 65 0.000000
-0.02659320 -0.00985071 0.20200001 150 74 62 0.000000
-0.02598892 -0.00980194 0.20100001 150 74 62 0.000000
-0.02315561 -0.00960688 0.19700001 156 80 68 0.000000
-0.02257719 -0.00955811 0.19600001 159 80 69 0.000000
-0.02200348 -0.00950935 0.19500001 160 81 70 0.000000
-0.02108644 -0.00950935 0.19500001 164 85 72 0.000000
-0.02062791 -0.00950935 0.19500001 166 87 74 0.000000
-0.02016939 -0.00950935 0.19500001 166 87 74 0.000000
-0.01960979 -0.00946058 0.19400001 167 88 75 0.000000
-0.01925235 -0.00950935 0.19500001 166 87 74 0.000000
-0.01879383 -0.00950935 0.19500001 167 88 75 0.000000
-0.01833531 -0.00950935 0.19500001 166 87 74 0.000000
-0.01787678 -0.00950935 0.19500001 165 86 75 0.000000
-0.01741826 -0.00950935 0.19500001 167 88 77 0.000000
-0.01695974 -0.00950935 0.19500001 167 88 77 0.000000
-0.01650122 -0.00950935 0.19500001 166 87 76 0.000000
-0.01612497 -0.00955811 0.19600001 165 86 75 0.000000
-0.01566409 -0.00955811 0.19600001 165 86 75 0.000000
-0.01528079 -0.00960688 0.19700001 167 88 75 0.000000
-0.00987510 -0.00931428 0.19100001 168 85 73 0.000000
-0.00937664 -0.00926552 0.19000001 168 85 73 0.000000
-0.00892987 -0.00926552 0.19000001 169 86 74 0.000000
-0.00848311 -0.00926552 0.19000001 169 86 74 0.000000
-0.00803634 -0.00926552 0.19000001 169 86 74 0.000000
-0.00758958 -0.00926552 0.19000001 168 85 73 0.000000
-0.00718041 -0.00931428 0.19100001 171 88 76 0.000000
-0.00673129 -0.00931428 0.19100001 173 87 76 0.000000
-0.00628217 -0.00931428 0.19100001 171 85 74 0.000000
-0.00586360 -0.00936305 0.19200000 170 84 73 0.000000
-0.00544032 -0.00941181 0.19300000 172 86 75 0.000000
-0.00498650 -0.00941181 0.19300000 172 86 77 0.000000
-0.00453268 -0.00941181 0.19300000 171 85 76 0.000000
-0.00409999 -0.00946058 0.19400001 172 86 77 0.000000
-0.00364382 -0.00946058 0.19400001 173 87 78 0.000000
-0.00320408 -0.00950935 0.19500001 179 91 83 0.000000
-0.00274556 -0.00950935 0.19500001 178 90 80 0.000000
-0.00228704 -0.00950935 0.19500001 178 90 80 0.000000
-0.00182852 -0.00950935 0.19500001 180 89 80 0.000000
-0.00137702 -0.00955811 0.19600001 180 89 80 0.000000
-0.00091615 -0.00955811 0.19600001 183 90 79 0.000000
-0.00045528 -0.00955811 0.19600001 179 86 75 0.000000
0.00000560 -0.00955811 0.19600001 182 88 77 0.000000
0.00046409 -0.00950935 0.19500001 184 90 79 0.000000
0.00092261 -0.00950935 0.19500001 186 89 77 0.000000
0.00138113 -0.00950935 0.19500001 189 92 80 0.000000
0.00183022 -0.00946058 0.19400001 188 91 79 0.000000
0.00228639 -0.00946058 0.19400001 188 91 79 0.000000
0.00272843 -0.00941181 0.19300000 193 94 83 0.000000
0.00316576 -0.00936305 0.19200000 194 95 84 0.000000
0.00361722 -0.00936305 0.19200000 197 94 89 0.000000
0.00406869 -0.00936305 0.19200000 196 93 88 0.000000
0.00449662 -0.00931428 0.19100001 203 92 87 0.000000
0.00497163 -0.00936305 0.19200000 204 93 88 0.000000
0.00542310 -0.00936305 0.19200000 211 94 91 0.000000
0.00590516 -0.00941181 0.19300000 214 97 94 0.000000
0.00635898 -0.00941181 0.19300000 217 105 105 0.000000
0.00684810 -0.00946058 0.19400001 225 113 113 0.000000
0.00734192 -0.00950935 0.19500001 231 131 127 0.000000
0.00788045 -0.00960688 0.19700001 251 151 147 0.000000
0.00834367 -0.00960688 0.19700001 255 171 165 0.000000
0.00885160 -0.00965565 0.19800001 255 179 173 0.000000
0.00931718 -0.00965565 0.19800001 255 193 183 0.000000
0.00978275 -0.00965565 0.19800001 255 197 187 0.000000
0.01024833 -0.00965565 0.19800001 255 205 198 0.000000
0.01071390 -0.00965565 0.19800001 255 211 204 0.000000
0.01117948 -0.00965565 0.19800001 255 215 210 0.000000
0.01164506 -0.00965565 0.19800001 255 215 210 0.000000
0.01211063 -0.00965565 0.19800001 255 210 204 0.000000
0.01257621 -0.00965565 0.19800001 255 207 201 0.000000
0.01304178 -0.00965565 0.19800001 255 204 200 0.000000
0.01350736 -0.00965565 0.19800001 255 197 193 0.000000
0.01397294 -0.00965565 0.19800001 255 186 182 0.000000
0.01443851 -0.00965565 0.19800001 250 178 174 0.000000
0.01490409 -0.00965565 0.19800001 242 162 154 0.000000
0.01536966 -0.00965565 0.19800001 228 148 140 0.000000
0.01583524 -0.00965565 0.19800001 223 132 123 0.000000
0.01630082 -0.00965565 0.19800001 217 126 117 0.000000
0.01676639 -0.00965565 0.19800001 229 119 116 0.000000
0.01723197 -0.00965565 0.19800001 231 121 118 0.000000
0.01769754 -0.00965565 0.19800001 243 121 122 0.000000
0.01825485 -0.00970441 0.19900002 247 121 121 0.000000
0.01872278 -0.00970441 0.19900002 248 122 122 0.000000
0.01928714 -0.00975318 0.20000000 252 123 122 0.000000
0.01985621 -0.00980194 0.20100001 252 123 122 0.000000
0.02042998 -0.00985071 0.20200001 252 121 119 0.000000
0.02090496 -0.00985071 0.20200001 252 121 119 0.000000
0.02148578 -0.00989947 0.20300001 251 120 118 0.000000
0.02207131 -0.00994824 0.20400001 251 120 118 0.000000
0.02266154 -0.00999701 0.20500001 250 119 117 0.000000
0.02314357 -0.00999701 0.20500001 250 119 117 0.000000
0.02374086 -0.01004577 0.20600002 246 115 113 0.000000
0.02422524 -0.01004577 0.20600002 247 116 114 0.000000
0.02482958 -0.01009454 0.20700002 249 118 116 0.000000
0.02531632 -0.01009454 0.20700002 249 118 116 0.000000
0.02580306 -0.01009454 0.20700002 246 118 112 0.000000
0.02628980 -0.01009454 0.20700002 244 116 110 0.000000
0.02690589 -0.01014330 0.20800000 239 114 107 0.000000
0.02739498 -0.01014330 0.20800000 236 111 104 0.000000
0.02801813 -0.01019207 0.20900001 234 112 104 0.000000
0.02850957 -0.01019207 0.20900001 236 114 106 0.000000
0.02913977 -0.01024084 0.21000001 233 113 104 0.000000
0.02977468 -0.01028960 0.21100001 231 111 102 0.000000
0.03041429 -0.01033837 0.21200001 233 113 104 0.000000
0.03120441 -0.01043590 0.21400002 235 115 106 0.000000
0.03215211 -0.01058220 0.21700001 230 109 105 0.000000
0.03311391 -0.01072849 0.22000001 250 129 125 0.000000
0.03476941 -0.01092356 0.22400001 241 123 123 0.000000
0.03576884 -0.01106986 0.22700001 227 131 130 0.000000
-0.05191193 -0.01113948 0.24000001 21 27 27 0.000000
-0.05134759 -0.01113948 0.24000001 22 28 28 0.000000
-0.05078326 -0.01113948 0.24000001 23 29 29 0.000000
-0.05021892 -0.01113948 0.24000001 26 32 32 0.000000
-0.04965459 -0.01113948 0.24000001 26 32 32 0.000000
-0.04909026 -0.01113948 0.24000001 27 33 33 0.000000
-0.04852592 -0.01113948 0.24000001 26 32 32 0.000000
-0.04796159 -0.01113948 0.24000001 27 33 33 0.000000
-0.04719976 -0.01109306 0.23900001 29 35 33 0.000000
-0.04663778 -0.01109306 0.23900001 30 36 34 0.000000
-0.04588301 -0.01104665 0.23800001 31 34 33 0.000000
-0.04513295 -0.01100023 0.23700002 31 34 33 0.000000
-0.04438758 -0.01095382 0.23600002 39 36 33 0.000000
-0.04364692 -0.01090741 0.23500001 36 33 30 0.000000
-0.04291096 -0.01086099 0.23400001 81 53 52 0.000000
-0.04145316 -0.01076816 0.23200001 130 72 68 0.000000
-0.04055498 -0.01067533 0.23000000 131 73 69 0.000000
-0.03966621 -0.01058250 0.22800002 142 74 66 0.000000
-0.02754316 -0.00937573 0.20200001 148 76 65 0.000000
-0.02706818 -0.00937573 0.20200001 148 76 65 0.000000
-0.02646155 -0.00932931 0.20100001 147 75 64 0.000000
-0.02598892 -0.00932931 0.20100001 149 75 62 0.000000
-0.02246200 -0.00905083 0.19500001 157 81 69 0.000000
-0.02200348 -0.00905083 0.19500001 157 81 69 0.000000
-0.02143447 -0.00900441 0.19400001 158 82 70 0.000000
-0.02097830 -0.00900441 0.19400001 159 83 71 0.000000
-0.02052213 -0.00900441 0.19400001 163 87 73 0.000000
-0.02006596 -0.00900441 0.19400001 163 87 73 0.000000
-0.01950871 -0.00895800 0.19300000 167 88 75 0.000000
-0.01905489 -0.00895800 0.19300000 166 87 74 0.000000
-0.01869745 -0.00900441 0.19400001 165 86 73 0.000000
-0.01824128 -0.00900441 0.19400001 164 85 72 0.000000
-0.01778511 -0.00900441 0.19400001 164 85 74 0.000000
-0.01732894 -0.00900441 0.19400001 166 87 76 0.000000
-0.01687277 -0.00900441 0.19400001 166 87 76 0.000000
-0.01641660 -0.00900441 0.19400001 164 85 74 0.000000
-0.01604270 -0.00905083 0.19500001 164 85 74 0.000000
-0.01558417 -0.00905083 0.19500001 165 86 75 0.000000
-0.01520322 -0.00909724 0.19600001 165 86 73 0.000000
-0.01474235 -0.00909724 0.19600001 162 83 70 0.000000
-0.01428147 -0.00909724 0.19600001 162 83 72 0.000000
-0.01382060 -0.00909724 0.19600001 162 83 72 0.000000
-0.01335973 -0.00909724 0.19600001 164 85 74 0.000000
-0.01283304 -0.00905083 0.19500001 162 83 72 0.000000
-0.01237452 -0.00905083 0.19500001 164 82 72 0.000000
-0.01185489 -0.00900441 0.19400001 166 84 74 0.000000
-0.01133996 -0.00895800 0.19300000 168 86 76 0.000000
-0.01032422 -0.00886517 0.19100001 168 86 74 0.000000
-0.00987510 -0.00886517 0.19100001 166 84 72 0.000000
-0.00937664 -0.00881875 0.19000001 167 85 73 0.000000
-0.00892987 -0.00881875 0.19000001 167 85 73 0.000000
-0.00848311 -0.00881875 0.19000001 168 85 73 0.000000
-0.00803634 -0.00881875 0.19000001 167 84 72 0.000000
-0.00758958 -0.00881875 0.19000001 167 84 72 0.000000
-0.00718041 -0.00886517 0.19100001 171 88 76 0.000000
-0.00673129 -0.00886517 0.19100001 171 88 76 0.000000
-0.00628217 -0.00886517 0.19100001 170 87 75 0.000000
-0.00586360 -0.00891158 0.19200000 168 85 73 0.000000
-0.00544032 -0.00895800 0.19300000 171 88 76 0.000000
-0.00498650 -0.00895800 0.19300000 171 88 78 0.000000
-0.00453268 -0.00895800 0.19300000 170 87 77 0.000000
-0.00409999 -0.00900441 0.19400001 172 86 77 0.000000
-0.00364382 -0.00900441 0.19400001 174 88 79 0.000000
-0.00320408 -0.00905083 0.19500001 178 90 80 0.000000
-0.00274556 -0.00905083 0.19500001 179 91 81 0.000000
-0.00228704 -0.00905083 0.19500001 177 89 79 0.000000
-0.00182852 -0.00905083 0.19500001 182 91 82 0.000000
-0.00137000 -0.00905083 0.19500001 182 91 82 0.000000
-0.00091147 -0.00905083 0.19500001 181 88 77 0.000000
-0.00045295 -0.00905083 0.19500001 182 89 78 0.000000
0.00000554 -0.00900441 0.19400001 185 91 80 0.000000
0.00046171 -0.00900441 0.19400001 184 90 79 0.000000
0.00091788 -0.00900441 0.19400001 187 90 78 0.000000
0.00136697 -0.00895800 0.19300000 189 92 80 0.000000
0.00181135 -0.00891158 0.19200000 192 95 83 0.000000
0.00226282 -0.00891158 0.19200000 193 96 84 0.000000
0.00270015 -0.00886517 0.19100001 195 96 87 0.000000
0.00313278 -0.00881875 0.19000001 190 91 82 0.000000
0.00357955 -0.00881875 0.19000001 196 90 88 0.000000
0.00402631 -0.00881875 0.19000001 199 93 91 0.000000
0.00447308 -0.00881875 0.19000001 207 97 96 0.000000
0.00491984 -0.00881875 0.19000001 215 105 104 0.000000
0.00539485 -0.00886517 0.19100001 222 126 123 0.000000
0.00584397 -0.00886517 0.19100001 248 152 149 0.000000
0.00632603 -0.00891158 0.19200000 255 178 178 0.000000
0.00681280 -0.00895800 0.19300000 255 195 195 0.000000
0.00734192 -0.00905083 0.19500001 255 208 201 0.000000
0.00784044 -0.00909724 0.19600001 255 216 209 0.000000
0.00834367 -0.00914365 0.19700001 255 222 211 0.000000
0.00885160 -0.00919007 0.19800001 255 220 209 0.000000
0.00931718 -0.00919007 0.19800001 255 222 209 0.000000
0.00978275 -0.00919007 0.19800001 255 222 209 0.000000
0.01024833 -0.00919007 0.19800001 255 220 209 0.000000
0.01071390 -0.00919007 0.19800001 255 217 206 0.000000
0.01117948 -0.00919007 0.19800001 255 214 206 0.000000
0.01164506 -0.00919007 0.19800001 255 218 210 0.000000
0.01211063 -0.00919007 0.19800001 255 221 212 0.000000
0.01257621 -0.00919007 0.19800001 255 222 213 0.000000
0.01304178 -0.00919007 0.19800001 255 222 213 0.000000
0.01343914 -0.00914365 0.19700001 255 226 217 0.000000
0.01390237 -0.00914365 0.19700001 255 228 219 0.000000
0.01436559 -0.00914365 0.19700001 255 230 221 0.000000
0.01482882 -0.00914365 0.19700001 255 232 222 0.000000
0.01529204 -0.00914365 0.19700001 255 231 221 0.000000
0.01575526 -0.00914365 0.19700001 255 226 213 0.000000
0.01621849 -0.00914365 0.19700001 255 222 209 0.000000
0.01668171 -0.00914365 0.19700001 255 188 181 0.000000
0.01714494 -0.00914365 0.19700001 226 154 147 0.000000
0.01760816 -0.00914365 0.19700001 231 136 135 0.000000
0.01816312 -0.00919007 0.19800001 236 118 120 0.000000
0.01862870 -0.00919007 0.19800001 240 122 124 0.000000
0.01919071 -0.00923648 0.19900002 248 122 120 0.000000
0.01975742 -0.00928290 0.20000000 248 122 120 0.000000
0.02032884 -0.00932931 0.20100001 251 120 120 0.000000
0.02080147 -0.00932931 0.20100001 252 121 121 0.000000
0.02148578 -0.00942214 0.20300001 250 120 115 0.000000
0.02207131 -0.00946856 0.20400001 251 121 116 0.000000
0.02255099 -0.00946856 0.20400001 250 120 115 0.000000
0.02314357 -0.00951497 0.20500001 252 122 117 0.000000
0.02374086 -0.00956139 0.20600002 251 121 116 0.000000
0.02422524 -0.00956139 0.20600002 250 120 115 0.000000
0.02482958 -0.00960780 0.20700002 250 120 115 0.000000
0.02531632 -0.00960780 0.20700002 249 119 114 0.000000
0.02580306 -0.00960780 0.20700002 249 119 114 0.000000
0.02641680 -0.00965421 0.20800000 245 115 110 0.000000
0.02690589 -0.00965421 0.20800000 243 115 109 0.000000
0.02739498 -0.00965421 0.20800000 238 110 104 0.000000
0.02801813 -0.00970063 0.20900001 236 111 104 0.000000
0.02850957 -0.00970063 0.20900001 238 113 106 0.000000
0.02913977 -0.00974704 0.21000001 236 114 106 0.000000
0.02977468 -0.00979346 0.21100001 232 110 102 0.000000
0.03041429 -0.00983987 0.21200001 236 116 107 0.000000
0.03120441 -0.00993270 0.21400002 239 119 110 0.000000
0.03215211 -0.01007194 0.21700001 235 116 112 0.000000
0.03311391 -0.01021119 0.22000001 255 136 132 0.000000
0.03393696 -0.01030402 0.22200002 251 134 131 0.000000
0.03476941 -0.01039685 0.22400001 244 127 124 0.000000
0.03561126 -0.01048967 0.22600001 228 132 131 0.000000
0.03662245 -0.01062892 0.22900002 240 144 143 0.000000
-0.05225761 -0.01053108 0.23900001 26 32 32 0.000000
-0.05169563 -0.01053108 0.23900001 28 34 34 0.000000
-0.05113364 -0.01053108 0.23900001 28 34 34 0.000000
-0.05057166 -0.01053108 0.23900001 28 34 32 0.000000
-0.05000968 -0.01053108 0.23900001 33 39 37 0.000000
-0.04944770 -0.01053108 0.23900001 33 39 37 0.000000
-0.04888571 -0.01053108 0.23900001 32 38 36 0.000000
-0.04832373 -0.01053108 0.23900001 32 38 36 0.000000
-0.04776175 -0.01053108 0.23900001 34 40 38 0.000000
-0.04719976 -0.01053108 0.23900001 37 43 41 0.000000
-0.04644264 -0.01048702 0.23800001 36 42 40 0.000000
-0.04569023 -0.01044295 0.23700002 34 41 35 0.000000
-0.04494251 -0.01039889 0.23600002 34 41 35 0.000000
-0.04438758 -0.01039889 0.23600002 39 40 34 0.000000
-0.04364692 -0.01035483 0.23500001 39 40 34 0.000000
-0.04291096 -0.01031076 0.23400001 68 40 37 0.000000
-0.04236074 -0.01031076 0.23400001 109 81 78 0.000000
-0.04163184 -0.01026670 0.23300001 129 71 67 0.000000
-0.04073130 -0.01017857 0.23100001 131 73 69 0.000000
-0.03984019 -0.01009045 0.22900002 140 72 64 0.000000
-0.02740681 -0.00885668 0.20100001 147 75 64 0.000000
-0.02598892 -0.00885668 0.20100001 149 75 62 0.000000
-0.02538934 -0.00881262 0.20000000 150 76 63 0.000000
-0.02132398 -0.00850418 0.19300000 158 82 70 0.000000
-0.02087016 -0.00850418 0.19300000 158 82 70 0.000000
-0.02041635 -0.00850418 0.19300000 161 82 69 0.000000
-0.01940763 -0.00846011 0.19200000 165 86 73 0.000000
-0.01895616 -0.00846011 0.19200000 165 86 73 0.000000
-0.01850469 -0.00846011 0.19200000 161 82 69 0.000000
-0.01814725 -0.00850418 0.19300000 162 83 70 0.000000
-0.01769343 -0.00850418 0.19300000 162 83 70 0.000000
-0.01723961 -0.00850418 0.19300000 164 85 72 0.000000
-0.01678579 -0.00850418 0.19300000 164 85 72 0.000000
-0.01633197 -0.00850418 0.19300000 161 82 69 0.000000
-0.01596043 -0.00854824 0.19400001 164 85 74 0.000000
-0.01550425 -0.00854824 0.19400001 162 83 72 0.000000
-0.01512565 -0.00859230 0.19500001 164 85 74 0.000000
-0.01466713 -0.00859230 0.19500001 164 85 74 0.000000
-0.01375009 -0.00859230 0.19500001 162 83 72 0.000000
-0.01329156 -0.00859230 0.19500001 165 85 77 0.000000
-0.01179378 -0.00850418 0.19300000 165 85 79 0.000000
-0.01032422 -0.00841605 0.19100001 169 86 79 0.000000
-0.00987510 -0.00841605 0.19100001 167 84 77 0.000000
-0.00942599 -0.00841605 0.19100001 164 81 74 0.000000
-0.00897687 -0.00841605 0.19100001 167 84 77 0.000000
-0.00852775 -0.00841605 0.19100001 168 85 78 0.000000
-0.00807864 -0.00841605 0.19100001 167 84 77 0.000000
-0.00762952 -0.00841605 0.19100001 169 86 76 0.000000
-0.00718041 -0.00841605 0.19100001 170 87 77 0.000000
-0.00673129 -0.00841605 0.19100001 171 88 78 0.000000
-0.00628217 -0.00841605 0.19100001 170 87 77 0.000000
-0.00586360 -0.00846011 0.19200000 168 85 73 0.000000
-0.00544032 -0.00850418 0.19300000 172 89 77 0.000000
-0.00498650 -0.00850418 0.19300000 171 88 76 0.000000
-0.00453268 -0.00850418 0.19300000 170 87 75 0.000000
-0.00409999 -0.00854824 0.19400001 174 86 76 0.000000
-0.00364382 -0.00854824 0.19400001 177 89 79 0.000000
-0.00318765 -0.00854824 0.19400001 180 89 80 0.000000
-0.00273148 -0.00854824 0.19400001 180 89 80 0.000000
-0.00227531 -0.00854824 0.19400001 179 88 79 0.000000
-0.00181914 -0.00854824 0.19400001 183 90 79 0.000000
-0.00136297 -0.00854824 0.19400001 184 91 80 0.000000
-0.00090680 -0.00854824 0.19400001 182 89 78 0.000000
-0.00045063 -0.00854824 0.19400001 184 91 80 0.000000
0.00000551 -0.00850418 0.19300000 185 91 80 0.000000
0.00045933 -0.00850418 0.19300000 186 92 81 0.000000
0.00090842 -0.00846011 0.19200000 192 93 84 0.000000
0.00135280 -0.00841605 0.19100001 192 93 84 0.000000
0.00180192 -0.00841605 0.19100001 191 89 81 0.000000
0.00223925 -0.00837199 0.19000001 189 87 79 0.000000
0.00268602 -0.00837199 0.19000001 188 87 88 0.000000
0.00311629 -0.00832792 0.18900001 197 96 97 0.000000
0.00354187 -0.00828386 0.18800001 214 117 121 0.000000
0.00398393 -0.00828386 0.18800001 235 138 142 0.000000
0.00444953 -0.00832792 0.18900001 255 168 166 0.000000
0.00489395 -0.00832792 0.18900001 255 185 183 0.000000
0.00533836 -0.00832792 0.18900001 255 205 197 0.000000
0.00581337 -0.00837199 0.19000001 255 211 203 0.000000
0.00629308 -0.00841605 0.19100001 255 213 203 0.000000
0.00726662 -0.00850418 0.19300000 255 206 196 0.000000
0.00780044 -0.00859230 0.19500001 255 205 195 0.000000
0.00830132 -0.00863637 0.19600001 255 202 190 0.000000
0.00880690 -0.00868043 0.19700001 255 196 184 0.000000
0.00927012 -0.00868043 0.19700001 255 193 178 0.000000
0.00978275 -0.00872449 0.19800001 255 192 177 0.000000
0.01024833 -0.00872449 0.19800001 255 192 177 0.000000
0.01071390 -0.00872449 0.19800001 255 192 177 0.000000
0.01117948 -0.00872449 0.19800001 255 195 183 0.000000
0.01158624 -0.00868043 0.19700001 255 197 185 0.000000
0.01204947 -0.00868043 0.19700001 255 196 183 0.000000
0.01251269 -0.00868043 0.19700001 255 196 183 0.000000
0.01297592 -0.00868043 0.19700001 255 197 186 0.000000
0.01343914 -0.00868043 0.19700001 255 202 191 0.000000
0.01390237 -0.00868043 0.19700001 255 210 196 0.000000
0.01436559 -0.00868043 0.19700001 255 216 202 0.000000
0.01482882 -0.00868043 0.19700001 255 221 207 0.000000
0.01529204 -0.00868043 0.19700001 255 225 211 0.000000
0.01575526 -0.00868043 0.19700001 255 229 216 0.000000
0.01621849 -0.00868043 0.19700001 255 229 216 0.000000
0.01668171 -0.00868043 0.19700001 255 229 216 0.000000
0.01714494 -0.00868043 0.19700001 255 226 213 0.000000
0.01760816 -0.00868043 0.19700001 255 213 205 0.000000
0.01807139 -0.00868043 0.19700001 250 170 166 0.000000
0.01862870 -0.00872449 0.19800001 223 143 139 0.000000
0.01909427 -0.00872449 0.19800001 228 117 119 0.000000
0.01965864 -0.00876856 0.19900002 230 119 121 0.000000
0.02022770 -0.00881262 0.20000000 244 118 118 0.000000
0.02069798 -0.00881262 0.20000000 248 122 122 0.000000
0.02137994 -0.00890074 0.20200001 250 121 118 0.000000
0.02196312 -0.00894481 0.20300001 251 122 119 0.000000
0.02255099 -0.00898887 0.20400001 252 121 119 0.000000
0.02303068 -0.00898887 0.20400001 253 122 120 0.000000
0.02362561 -0.00903293 0.20500001 253 122 120 0.000000
0.02422524 -0.00907700 0.20600002 251 120 118 0.000000
0.02470963 -0.00907700 0.20600002 250 119 117 0.000000
0.02531632 -0.00912106 0.20700002 249 118 116 0.000000
0.02580306 -0.00912106 0.20700002 247 117 112 0.000000
0.02628980 -0.00912106 0.20700002 246 116 111 0.000000
0.02690589 -0.00916512 0.20800000 244 116 110 0.000000
0.02739498 -0.00916512 0.20800000 241 113 107 0.000000
0.02801813 -0.00920919 0.20900001 239 114 107 0.000000
0.02850957 -0.00920919 0.20900001 241 116 109 0.000000
0.02913977 -0.00925325 0.21000001 238 116 108 0.000000
0.02977468 -0.00929731 0.21100001 236 114 106 0.000000
0.03041429 -0.00934138 0.21200001 236 115 109 0.000000
0.03105859 -0.00938544 0.21300001 238 117 111 0.000000
0.03200394 -0.00951763 0.21600001 245 124 120 0.000000
0.03311391 -0.00969388 0.22000001 255 136 132 0.000000
0.03378409 -0.00973794 0.22100002 251 134 131 0.000000
0.03561126 -0.00995826 0.22600001 230 131 129 0.000000
0.03646253 -0.01004639 0.22800002 239 140 138 0.000000
-0.05169563 -0.00996910 0.23900001 33 40 34 0.000000
-0.05113364 -0.00996910 0.23900001 33 40 34 0.000000
-0.05057166 -0.00996910 0.23900001 34 41 35 0.000000
-0.05000968 -0.00996910 0.23900001 34 41 35 0.000000
-0.04944770 -0.00996910 0.23900001 35 42 36 0.000000
-0.04888571 -0.00996910 0.23900001 35 42 36 0.000000
-0.04832373 -0.00996910 0.23900001 34 41 35 0.000000
-0.04756191 -0.00992738 0.23800001 35 42 36 0.000000
-0.04700227 -0.00992738 0.23800001 37 44 38 0.000000
-0.04644264 -0.00992738 0.23800001 35 42 36 0.000000
-0.04569023 -0.00988567 0.23700002 35 42 36 0.000000
-0.04494251 -0.00984396 0.23600002 35 42 36 0.000000
-0.04419950 -0.00980225 0.23500001 37 41 36 0.000000
-0.04364692 -0.00980225 0.23500001 35 39 34 0.000000
-0.04309434 -0.00980225 0.23500001 60 33 27 0.000000
-0.04236074 -0.00976054 0.23400001 106 79 73 0.000000
-0.04181051 -0.00976054 0.23400001 129 71 67 0.000000
-0.04090763 -0.00967711 0.23200001 130 72 68 0.000000
-0.04018813 -0.00963540 0.23100001 139 71 63 0.000000
-0.02538934 -0.00834234 0.20000000 149 75 62 0.000000
-0.02121350 -0.00800865 0.19200000 156 80 68 0.000000
-0.02076203 -0.00800865 0.19200000 156 80 68 0.000000
-0.02031056 -0.00800865 0.19200000 160 81 68 0.000000
-0.01975566 -0.00796693 0.19100001 161 82 69 0.000000
-0.01930655 -0.00796693 0.19100001 161 82 69 0.000000
-0.01885743 -0.00796693 0.19100001 161 82 69 0.000000
-0.01840831 -0.00796693 0.19100001 160 81 68 0.000000
-0.01795920 -0.00796693 0.19100001 162 83 70 0.000000
-0.01760176 -0.00800865 0.19200000 162 83 70 0.000000
-0.01715029 -0.00800865 0.19200000 164 85 72 0.000000
-0.01669882 -0.00800865 0.19200000 162 83 70 0.000000
-0.01624735 -0.00800865 0.19200000 160 81 68 0.000000
-0.01587816 -0.00805036 0.19300000 164 85 74 0.000000
-0.01542434 -0.00805036 0.19300000 162 83 72 0.000000
-0.01497052 -0.00805036 0.19300000 162 83 72 0.000000
-0.01459191 -0.00809207 0.19400001 164 85 74 0.000000
-0.01360906 -0.00805036 0.19300000 161 82 71 0.000000
-0.01315524 -0.00805036 0.19300000 165 85 77 0.000000
-0.01224760 -0.00805036 0.19300000 166 86 80 0.000000
-0.01179378 -0.00805036 0.19300000 165 85 79 0.000000
-0.01128121 -0.00800865 0.19200000 166 86 80 0.000000
-0.01082974 -0.00800865 0.19200000 165 85 79 0.000000
-0.01037827 -0.00800865 0.19200000 165 85 77 0.000000
-0.00987510 -0.00796693 0.19100001 164 84 76 0.000000
-0.00942599 -0.00796693 0.19100001 162 82 74 0.000000
-0.00897687 -0.00796693 0.19100001 162 82 74 0.000000
-0.00852775 -0.00796693 0.19100001 166 83 76 0.000000
-0.00807864 -0.00796693 0.19100001 168 85 78 0.000000
-0.00762952 -0.00796693 0.19100001 170 88 78 0.000000
-0.00718041 -0.00796693 0.19100001 169 87 77 0.000000
-0.00673129 -0.00796693 0.19100001 170 87 75 0.000000
-0.00628217 -0.00796693 0.19100001 170 87 75 0.000000
-0.00586360 -0.00800865 0.19200000 169 86 74 0.000000
-0.00541213 -0.00800865 0.19200000 172 89 77 0.000000
-0.00498650 -0.00805036 0.19300000 172 86 75 0.000000
-0.00453268 -0.00805036 0.19300000 170 84 73 0.000000
-0.00407886 -0.00805036 0.19300000 170 82 72 0.000000
-0.00364382 -0.00809207 0.19400001 175 87 77 0.000000
-0.00318765 -0.00809207 0.19400001 179 88 79 0.000000
-0.00273148 -0.00809207 0.19400001 179 89 77 0.000000
-0.00227531 -0.00809207 0.19400001 181 91 79 0.000000
-0.00180976 -0.00805036 0.19300000 184 91 80 0.000000
-0.00135595 -0.00805036 0.19300000 184 91 80 0.000000
-0.00090213 -0.00805036 0.19300000 184 90 79 0.000000
-0.00044831 -0.00805036 0.19300000 185 91 80 0.000000
0.00000548 -0.00800865 0.19200000 187 90 80 0.000000
0.00045457 -0.00796693 0.19100001 186 89 79 0.000000
0.00090369 -0.00796693 0.19100001 189 86 83 0.000000
0.00134572 -0.00792522 0.19000001 191 88 85 0.000000
0.00265774 -0.00784180 0.18800001 246 157 156 0.000000
0.00308332 -0.00780009 0.18700001 255 182 181 0.000000
0.00352303 -0.00780009 0.18700001 255 197 195 0.000000
0.00396274 -0.00780009 0.18700001 255 201 199 0.000000
0.00440245 -0.00780009 0.18700001 255 209 200 0.000000
0.00484216 -0.00780009 0.18700001 255 208 199 0.000000
0.00531011 -0.00784180 0.18800001 255 203 192 0.000000
0.00575218 -0.00784180 0.18800001 255 197 186 0.000000
0.00622719 -0.00788351 0.18900001 255 194 181 0.000000
0.00973334 -0.00821721 0.19700001 252 173 160 0.000000
0.01112302 -0.00821721 0.19700001 253 174 161 0.000000
0.01158624 -0.00821721 0.19700001 254 175 162 0.000000
0.01204947 -0.00821721 0.19700001 252 173 160 0.000000
0.01251269 -0.00821721 0.19700001 254 175 162 0.000000
0.01297592 -0.00821721 0.19700001 255 178 165 0.000000
0.01343914 -0.00821721 0.19700001 255 178 165 0.000000
0.01390237 -0.00821721 0.19700001 254 184 168 0.000000
0.01436559 -0.00821721 0.19700001 255 191 175 0.000000
0.01475354 -0.00817549 0.19600001 255 198 186 0.000000
0.01521442 -0.00817549 0.19600001 255 187 175 0.000000
0.01567529 -0.00817549 0.19600001 255 196 182 0.000000
0.01613616 -0.00817549 0.19600001 255 206 192 0.000000
0.01659703 -0.00817549 0.19600001 255 211 197 0.000000
0.01705791 -0.00817549 0.19600001 255 218 204 0.000000
0.01760816 -0.00821721 0.19700001 255 229 215 0.000000
0.01807139 -0.00821721 0.19700001 255 237 222 0.000000
0.01853461 -0.00821721 0.19700001 255 235 220 0.000000
0.01909427 -0.00825892 0.19800001 255 200 189 0.000000
0.01955985 -0.00825892 0.19800001 225 154 143 0.000000
0.02012656 -0.00830063 0.19900002 232 125 126 0.000000
0.02069798 -0.00834234 0.20000000 227 120 121 0.000000
0.02127410 -0.00838405 0.20100001 248 121 126 0.000000
0.02185492 -0.00842576 0.20200001 251 124 129 0.000000
0.02244045 -0.00846747 0.20300001 251 122 119 0.000000
0.02303068 -0.00850919 0.20400001 252 123 120 0.000000
0.02362561 -0.00855090 0.20500001 251 122 119 0.000000
0.02410765 -0.00855090 0.20500001 250 121 118 0.000000
0.02470963 -0.00859261 0.20600002 249 121 115 0.000000
0.02519402 -0.00859261 0.20600002 250 122 116 0.000000
0.02580306 -0.00863432 0.20700002 250 120 115 0.000000
0.02628980 -0.00863432 0.20700002 247 117 112 0.000000
0.02690589 -0.00867603 0.20800000 247 117 112 0.000000
0.02739498 -0.00867603 0.20800000 244 114 109 0.000000
0.02801813 -0.00871775 0.20900001 245 115 110 0.000000
0.02850957 -0.00871775 0.20900001 245 115 110 0.000000
0.02913977 -0.00875946 0.21000001 242 117 110 0.000000
0.02977468 -0.00880117 0.21100001 240 115 108 0.000000
0.03041429 -0.00884288 0.21200001 237 115 107 0.000000
0.03105859 -0.00888459 0.21300001 238 116 108 0.000000
0.03200394 -0.00900973 0.21600001 251 132 128 0.000000
0.03311391 -0.00917657 0.22000001 253 134 130 0.000000
0.03378409 -0.00921829 0.22100002 252 135 130 0.000000
0.03545369 -0.00938513 0.22500001 230 132 127 0.000000
0.03630260 -0.00946856 0.22700001 238 140 135 0.000000
-0.05091970 -0.00936775 0.23800001 35 39 32 0.000000
-0.05036006 -0.00936775 0.23800001 35 39 32 0.000000
-0.04980043 -0.00936775 0.23800001 36 40 33 0.000000
-0.04924080 -0.00936775 0.23800001 36 40 33 0.000000
-0.04847663 -0.00932839 0.23700002 38 42 35 0.000000
-0.04791935 -0.00932839 0.23700002 36 40 35 0.000000
-0.04736207 -0.00932839 0.23700002 38 42 37 0.000000
-0.04680479 -0.00932839 0.23700002 37 41 36 0.000000
-0.04624750 -0.00932839 0.23700002 36 40 35 0.000000
-0.04549744 -0.00928903 0.23600002 33 40 34 0.000000
-0.04494251 -0.00928903 0.23600002 32 39 33 0.000000
-0.04419950 -0.00924967 0.23500001 37 41 36 0.000000
-0.04364692 -0.00924967 0.23500001 31 35 30 0.000000
-0.04291096 -0.00921031 0.23400001 56 30 26 0.000000
-0.04236074 -0.00921031 0.23400001 102 76 72 0.000000
-0.04181051 -0.00921031 0.23400001 122 67 62 0.000000
-0.04108396 -0.00917095 0.23300001 123 68 63 0.000000
-0.04053608 -0.00917095 0.23300001 136 71 62 0.000000
-0.02632990 -0.00787206 0.20000000 147 75 66 0.000000
-0.02585962 -0.00787206 0.20000000 149 74 64 0.000000
-0.02538934 -0.00787206 0.20000000 150 75 65 0.000000
-0.02479447 -0.00783270 0.19900002 151 76 66 0.000000
-0.02177780 -0.00759654 0.19300000 155 80 70 0.000000
-0.02121350 -0.00755718 0.19200000 157 81 69 0.000000
-0.02076203 -0.00755718 0.19200000 158 82 70 0.000000
-0.02020478 -0.00751782 0.19100001 160 84 72 0.000000
-0.01975566 -0.00751782 0.19100001 159 83 71 0.000000
-0.01930655 -0.00751782 0.19100001 160 84 72 0.000000
-0.01885743 -0.00751782 0.19100001 158 82 70 0.000000
-0.01831193 -0.00747846 0.19000001 158 82 68 0.000000
-0.01795920 -0.00751782 0.19100001 158 82 68 0.000000
-0.01751008 -0.00751782 0.19100001 159 83 69 0.000000
-0.01706097 -0.00751782 0.19100001 159 83 69 0.000000
-0.01661185 -0.00751782 0.19100001 158 82 68 0.000000
-0.01616273 -0.00751782 0.19100001 158 82 68 0.000000
-0.01579588 -0.00755718 0.19200000 160 84 70 0.000000
-0.01534442 -0.00755718 0.19200000 160 84 70 0.000000
-0.01497052 -0.00759654 0.19300000 160 84 70 0.000000
-0.01451670 -0.00759654 0.19300000 160 84 70 0.000000
-0.01406288 -0.00759654 0.19300000 162 86 74 0.000000
-0.01360906 -0.00759654 0.19300000 162 86 74 0.000000
-0.01315524 -0.00759654 0.19300000 163 86 77 0.000000
-0.01270142 -0.00759654 0.19300000 162 85 76 0.000000
-0.01224760 -0.00759654 0.19300000 160 83 74 0.000000
-0.01179378 -0.00759654 0.19300000 163 86 77 0.000000
-0.01133996 -0.00759654 0.19300000 164 84 76 0.000000
-0.01082974 -0.00755718 0.19200000 162 82 74 0.000000
-0.01037827 -0.00755718 0.19200000 165 85 79 0.000000
-0.00987510 -0.00751782 0.19100001 164 84 78 0.000000
-0.00942599 -0.00751782 0.19100001 162 82 76 0.000000
-0.00897687 -0.00751782 0.19100001 164 84 78 0.000000
-0.00852775 -0.00751782 0.19100001 167 87 79 0.000000
-0.00807864 -0.00751782 0.19100001 167 87 79 0.000000
-0.00762952 -0.00751782 0.19100001 169 87 77 0.000000
-0.00718041 -0.00751782 0.19100001 169 87 77 0.000000
-0.00673129 -0.00751782 0.19100001 170 87 75 0.000000
-0.00628217 -0.00751782 0.19100001 171 88 76 0.000000
-0.00586360 -0.00755718 0.19200000 171 85 74 0.000000
-0.00541213 -0.00755718 0.19200000 174 88 77 0.000000
-0.00496066 -0.00755718 0.19200000 174 86 76 0.000000
-0.00453268 -0.00759654 0.19300000 174 86 76 0.000000
-0.00407886 -0.00759654 0.19300000 177 89 79 0.000000
-0.00362504 -0.00759654 0.19300000 179 91 81 0.000000
-0.00317122 -0.00759654 0.19300000 178 90 80 0.000000
-0.00271740 -0.00759654 0.19300000 182 91 82 0.000000
-0.00226358 -0.00759654 0.19300000 183 92 83 0.000000
-0.00180039 -0.00755718 0.19200000 186 93 82 0.000000
-0.00134892 -0.00755718 0.19200000 186 93 82 0.000000
-0.00089745 -0.00755718 0.19200000 188 91 81 0.000000
-0.00044366 -0.00751782 0.19100001 185 88 78 0.000000
0.00000545 -0.00751782 0.19100001 185 85 79 0.000000
0.00045219 -0.00747846 0.19000001 188 88 82 0.000000
0.00133864 -0.00743910 0.18900001 220 122 117 0.000000
0.00177362 -0.00739974 0.18800001 249 162 158 0.000000
0.00220389 -0.00736038 0.18700001 255 182 178 0.000000
0.00264360 -0.00736038 0.18700001 255 199 194 0.000000
0.00306683 -0.00732102 0.18600000 255 203 198 0.000000
0.00350419 -0.00732102 0.18600000 255 204 198 0.000000
0.00394155 -0.00732102 0.18600000 255 200 194 0.000000
0.00437891 -0.00732102 0.18600000 255 194 186 0.000000
0.00481626 -0.00732102 0.18600000 255 187 179 0.000000
0.00528187 -0.00736038 0.18700001 255 181 172 0.000000
0.00572158 -0.00736038 0.18700001 255 179 170 0.000000
0.00715366 -0.00747846 0.19000001 255 171 157 0.000000
0.00973334 -0.00775398 0.19700001 247 154 141 0.000000
0.01019657 -0.00775398 0.19700001 247 154 141 0.000000
0.01065979 -0.00775398 0.19700001 249 156 143 0.000000
0.01112302 -0.00775398 0.19700001 248 155 142 0.000000
0.01158624 -0.00775398 0.19700001 249 156 143 0.000000
0.01204947 -0.00775398 0.19700001 249 156 143 0.000000
0.01244918 -0.00771462 0.19600001 248 155 142 0.000000
0.01297592 -0.00775398 0.19700001 249 156 143 0.000000
0.01337092 -0.00771462 0.19600001 254 161 148 0.000000
0.01383180 -0.00771462 0.19600001 253 166 153 0.000000
0.01429267 -0.00771462 0.19600001 255 168 155 0.000000
0.01475354 -0.00771462 0.19600001 252 170 158 0.000000
0.01521442 -0.00771462 0.19600001 255 173 161 0.000000
0.01567529 -0.00771462 0.19600001 254 178 166 0.000000
0.01613616 -0.00771462 0.19600001 252 176 164 0.000000
0.01659703 -0.00771462 0.19600001 251 184 169 0.000000
0.01705791 -0.00771462 0.19600001 255 193 178 0.000000
0.01751878 -0.00771462 0.19600001 255 214 199 0.000000
0.01797966 -0.00771462 0.19600001 255 221 204 0.000000
0.01853461 -0.00775398 0.19700001 255 226 209 0.000000
0.01899784 -0.00775398 0.19700001 255 230 213 0.000000
0.01955985 -0.00779334 0.19800001 255 225 208 0.000000
0.02002542 -0.00779334 0.19800001 255 193 189 0.000000
0.02059449 -0.00783270 0.19900002 233 161 157 0.000000
0.02116826 -0.00787206 0.20000000 233 125 133 0.000000
0.02174673 -0.00791142 0.20100001 233 125 133 0.000000
0.02232990 -0.00795078 0.20200001 247 123 125 0.000000
0.02291778 -0.00799014 0.20300001 249 125 127 0.000000
0.02351036 -0.00802950 0.20400001 250 124 120 0.000000
0.02410765 -0.00806886 0.20500001 251 125 121 0.000000
0.02458968 -0.00806886 0.20500001 252 124 118 0.000000
0.02519402 -0.00810822 0.20600002 251 123 117 0.000000
0.02580306 -0.00814758 0.20700002 251 123 117 0.000000
0.02628980 -0.00814758 0.20700002 249 121 115 0.000000
0.02690589 -0.00818694 0.20800000 248 120 114 0.000000
0.02739498 -0.00818694 0.20800000 246 118 112 0.000000
0.02801813 -0.00822630 0.20900001 246 118 112 0.000000
0.02850957 -0.00822630 0.20900001 246 118 112 0.000000
0.02913977 -0.00826566 0.21000001 248 120 114 0.000000
0.02977468 -0.00830502 0.21100001 244 116 110 0.000000
0.03041429 -0.00834438 0.21200001 238 116 108 0.000000
0.03105859 -0.00838375 0.21300001 238 116 108 0.000000
0.03200394 -0.00850183 0.21600001 248 129 125 0.000000
0.03296340 -0.00861991 0.21900001 253 134 130 0.000000
0.03378409 -0.00869863 0.22100002 254 137 132 0.000000
