0.03529025 -0.02441514 0.18300001 255 139 126 0.000000
0.03572055 -0.02441514 0.18300001 252 134 121 0.000000
0.03638127 -0.02428173 0.18200001 255 138 125 0.000000
0.03680922 -0.02428173 0.18200001 255 140 127 0.000000
0.03723717 -0.02428173 0.18200001 255 140 128 0.000000
0.03745817 -0.02414831 0.18100001 255 139 127 0.000000
0.03788378 -0.02414831 0.18100001 255 142 129 0.000000
0.03830938 -0.02414831 0.18100001 255 143 130 0.000000
0.03873498 -0.02414831 0.18100001 255 142 129 0.000000
0.03916059 -0.02414831 0.18100001 255 144 131 0.000000
0.03958619 -0.02414831 0.18100001 254 144 130 0.000000
0.03979073 -0.02401489 0.18000001 255 148 134 0.000000
0.04021398 -0.02401489 0.18000001 252 146 129 0.000000
0.04063723 -0.02401489 0.18000001 255 149 132 0.000000
0.04106048 -0.02401489 0.18000001 255 165 146 0.000000
0.04148373 -0.02401489 0.18000001 255 166 143 0.000000
0.04190699 -0.02401489 0.18000001 255 160 137 0.000000
0.04233024 -0.02401489 0.18000001 255 163 138 0.000000
0.04275348 -0.02401489 0.18000001 255 165 140 0.000000
0.04341661 -0.02414831 0.18100001 255 164 142 0.000000
0.04384221 -0.02414831 0.18100001 255 164 142 0.000000
0.04451239 -0.02428173 0.18200001 255 168 145 0.000000
0.04518727 -0.02441514 0.18300001 255 169 146 0.000000
0.04629950 -0.02454856 0.18400002 255 172 151 0.000000
0.04698614 -0.02468197 0.18500000 255 169 147 0.000000
0.04742115 -0.02468197 0.18500000 255 171 149 0.000000
0.04811483 -0.02481539 0.18600000 255 170 148 0.000000
0.04855219 -0.02481539 0.18600000 255 170 148 0.000000
0.04898956 -0.02481539 0.18600000 255 171 149 0.000000
0.04916118 -0.02468197 0.18500000 255 171 149 0.000000
0.04959618 -0.02468197 0.18500000 255 171 149 0.000000
0.05003119 -0.02468197 0.18500000 255 173 151 0.000000
0.05046620 -0.02468197 0.18500000 255 177 154 0.000000
0.05090121 -0.02468197 0.18500000 255 177 154 0.000000
0.05133622 -0.02468197 0.18500000 255 177 152 0.000000
0.05177123 -0.02468197 0.18500000 255 174 149 0.000000
0.05220623 -0.02468197 0.18500000 255 177 152 0.000000
0.05264124 -0.02468197 0.18500000 255 178 153 0.000000
0.05336315 -0.02481539 0.18600000 255 179 154 0.000000
0.05380050 -0.02481539 0.18600000 255 185 160 0.000000
0.05423786 -0.02481539 0.18600000 255 188 165 0.000000
0.05467523 -0.02481539 0.18600000 255 189 166 0.000000
0.05540889 -0.02494881 0.18700001 255 190 168 0.000000
0.05584860 -0.02494881 0.18700001 255 189 167 0.000000
0.05658932 -0.02508222 0.18800001 255 185 163 0.000000
0.05733474 -0.02521564 0.18900001 255 178 156 0.000000
0.05808486 -0.02534905 0.19000001 255 177 156 0.000000
0.05883969 -0.02548247 0.19100001 255 179 158 0.000000
0.05990963 -0.02574930 0.19300000 255 174 156 0.000000
0.06067621 -0.02588272 0.19400001 255 169 151 0.000000
0.06144750 -0.02601613 0.19500001 255 167 150 0.000000
0.06190602 -0.02601613 0.19500001 255 169 152 0.000000
0.06236454 -0.02601613 0.19500001 255 169 152 0.000000
0.06250089 -0.02588272 0.19400001 255 170 153 0.000000
0.06295706 -0.02588272 0.19400001 255 169 151 0.000000
0.06341323 -0.02588272 0.19400001 255 170 152 0.000000
0.06386940 -0.02588272 0.19400001 255 179 158 0.000000
0.06399400 -0.02574930 0.19300000 255 198 177 0.000000
0.06444782 -0.02574930 0.19300000 255 216 190 0.000000
0.06649124 -0.02601613 0.19500001 255 247 210 0.000000
0.06891091 -0.02641638 0.19800001 255 236 208 0.000000
0.07007726 -0.02668322 0.20000000 255 233 205 0.000000
0.07339754 -0.02721688 0.20400001 248 221 197 0.000000
0.07423937 -0.02735030 0.20500001 251 222 199 0.000000
0.07508590 -0.02748371 0.20600002 253 224 201 0.000000
0.07593714 -0.02761713 0.20700002 255 221 201 0.000000
0.07642388 -0.02761713 0.20700002 255 216 196 0.000000
0.07691061 -0.02761713 0.20700002 243 197 179 0.000000
0.07777125 -0.02775054 0.20800000 245 199 181 0.000000
0.07826034 -0.02775054 0.20800000 255 201 192 0.000000
-0.00144025 -0.02686826 0.20500001 114 60 52 0.000000
-0.00094419 -0.02647506 0.20200001 136 61 51 0.000000
0.00091315 -0.02529548 0.19300000 161 74 61 0.000000
0.00135280 -0.02503335 0.19100001 163 76 63 0.000000
0.00180192 -0.02503335 0.19100001 165 75 61 0.000000
0.00223925 -0.02490229 0.19000001 165 75 61 0.000000
0.00268602 -0.02490229 0.19000001 166 76 60 0.000000
0.00313278 -0.02490229 0.19000001 170 80 64 0.000000
0.00356071 -0.02477122 0.18900001 168 79 60 0.000000
0.00400512 -0.02477122 0.18900001 167 78 59 0.000000
0.00444953 -0.02477122 0.18900001 169 80 61 0.000000
0.00489395 -0.02477122 0.18900001 167 78 59 0.000000
0.00531011 -0.02464016 0.18800001 165 75 59 0.000000
0.00575218 -0.02464016 0.18800001 166 76 60 0.000000
0.00616129 -0.02450909 0.18700001 169 76 61 0.000000
0.00660100 -0.02450909 0.18700001 168 75 60 0.000000
0.01125432 -0.02411590 0.18400002 173 79 68 0.000000
0.01168698 -0.02411590 0.18400002 175 81 70 0.000000
0.01205377 -0.02398484 0.18300001 174 76 69 0.000000
0.01241586 -0.02385377 0.18200001 177 79 72 0.000000
0.01284381 -0.02385377 0.18200001 177 80 70 0.000000
0.01319884 -0.02372271 0.18100001 177 80 70 0.000000
0.01354917 -0.02359164 0.18000001 178 81 69 0.000000
0.01397242 -0.02359164 0.18000001 181 84 72 0.000000
0.01465427 -0.02332951 0.17800000 178 76 66 0.000000
0.01507282 -0.02332951 0.17800000 210 96 88 0.000000
0.01540434 -0.02319845 0.17700000 236 122 114 0.000000
0.01573115 -0.02306738 0.17600001 252 133 127 0.000000
0.01614500 -0.02306738 0.17600001 250 131 125 0.000000
0.01646476 -0.02293632 0.17500001 251 134 129 0.000000
0.01687625 -0.02293632 0.17500001 255 138 133 0.000000
0.01718896 -0.02280525 0.17400001 254 140 134 0.000000
0.01759810 -0.02280525 0.17400001 255 142 136 0.000000
0.01800724 -0.02280525 0.17400001 255 146 140 0.000000
0.01831055 -0.02267419 0.17300001 255 145 137 0.000000
0.01871734 -0.02267419 0.17300001 255 141 133 0.000000
0.01912413 -0.02267419 0.17300001 252 134 125 0.000000
0.01953092 -0.02267419 0.17300001 248 130 121 0.000000
0.01993771 -0.02267419 0.17300001 250 125 118 0.000000
0.02022690 -0.02254312 0.17200001 249 124 117 0.000000
0.02063134 -0.02254312 0.17200001 249 121 115 0.000000
0.02103578 -0.02254312 0.17200001 249 121 115 0.000000
0.02144022 -0.02254312 0.17200001 249 121 113 0.000000
0.02184466 -0.02254312 0.17200001 249 121 113 0.000000
0.02237846 -0.02267419 0.17300001 250 120 113 0.000000
0.02278525 -0.02267419 0.17300001 249 119 112 0.000000
0.02319204 -0.02267419 0.17300001 253 123 116 0.000000
0.02359883 -0.02267419 0.17300001 251 121 114 0.000000
0.02414438 -0.02280525 0.17400001 250 120 113 0.000000
0.02483575 -0.02306738 0.17600001 250 120 113 0.000000
0.02539306 -0.02319845 0.17700000 252 122 115 0.000000
0.02595507 -0.02332951 0.17800000 253 123 116 0.000000
0.02652179 -0.02346058 0.17900001 251 121 114 0.000000
0.02694268 -0.02346058 0.17900001 251 121 114 0.000000
0.02736358 -0.02346058 0.17900001 254 124 117 0.000000
0.02793970 -0.02359164 0.18000001 253 123 116 0.000000
0.02820538 -0.02346058 0.17900001 253 123 116 0.000000
0.02878621 -0.02359164 0.18000001 253 123 116 0.000000
0.02920946 -0.02359164 0.18000001 251 121 114 0.000000
0.02963271 -0.02359164 0.18000001 252 122 115 0.000000
0.03005596 -0.02359164 0.18000001 251 121 114 0.000000
0.03064854 -0.02372271 0.18100001 252 122 115 0.000000
0.03210173 -0.02385377 0.18200001 255 128 120 0.000000
0.03270842 -0.02398484 0.18300001 255 127 119 0.000000
0.03313872 -0.02398484 0.18300001 255 129 121 0.000000
0.03356903 -0.02398484 0.18300001 255 127 119 0.000000
0.03418512 -0.02411590 0.18400002 255 127 119 0.000000
0.03461778 -0.02411590 0.18400002 255 127 119 0.000000
0.03485994 -0.02398484 0.18300001 255 130 121 0.000000
0.03529025 -0.02398484 0.18300001 255 130 121 0.000000
0.03615086 -0.02398484 0.18300001 255 130 121 0.000000
0.03703257 -0.02372271 0.18100001 255 135 124 0.000000
0.03745817 -0.02372271 0.18100001 255 137 126 0.000000
0.03788378 -0.02372271 0.18100001 252 134 123 0.000000
0.03830938 -0.02372271 0.18100001 255 138 127 0.000000
0.03852098 -0.02359164 0.18000001 255 137 126 0.000000
0.03894423 -0.02359164 0.18000001 255 137 126 0.000000
0.03936748 -0.02359164 0.18000001 254 138 124 0.000000
0.03979073 -0.02359164 0.18000001 255 139 125 0.000000
0.04021398 -0.02359164 0.18000001 255 141 127 0.000000
0.04063723 -0.02359164 0.18000001 255 140 126 0.000000
0.04106048 -0.02359164 0.18000001 255 144 126 0.000000
0.04148373 -0.02359164 0.18000001 253 146 126 0.000000
0.04190699 -0.02359164 0.18000001 253 146 126 0.000000
0.04233024 -0.02359164 0.18000001 255 152 132 0.000000
0.04275348 -0.02359164 0.18000001 255 154 134 0.000000
0.04341661 -0.02372271 0.18100001 255 154 133 0.000000
0.04451239 -0.02385377 0.18200001 255 155 136 0.000000
0.04494034 -0.02385377 0.18200001 254 153 134 0.000000
0.04698614 -0.02424696 0.18500000 253 152 133 0.000000
0.04767748 -0.02437803 0.18600000 253 152 133 0.000000
0.04811483 -0.02437803 0.18600000 253 155 135 0.000000
0.04855219 -0.02437803 0.18600000 255 158 138 0.000000
0.04898956 -0.02437803 0.18600000 255 159 139 0.000000
0.04942692 -0.02437803 0.18600000 255 160 140 0.000000
0.04986427 -0.02437803 0.18600000 255 161 141 0.000000
0.05030163 -0.02437803 0.18600000 255 160 140 0.000000
0.05073899 -0.02437803 0.18600000 255 161 138 0.000000
0.05117635 -0.02437803 0.18600000 255 160 137 0.000000
0.05161371 -0.02437803 0.18600000 255 165 139 0.000000
0.05205107 -0.02437803 0.18600000 255 165 139 0.000000
0.05248843 -0.02437803 0.18600000 255 168 142 0.000000
0.05292579 -0.02437803 0.18600000 255 164 138 0.000000
0.05336315 -0.02437803 0.18600000 255 160 135 0.000000
0.05380050 -0.02437803 0.18600000 255 159 134 0.000000
0.05452947 -0.02450909 0.18700001 255 156 134 0.000000
0.05526313 -0.02464016 0.18800001 255 158 136 0.000000
0.05600150 -0.02477122 0.18900001 255 152 136 0.000000
0.05644591 -0.02477122 0.18900001 248 144 128 0.000000
0.05719133 -0.02490229 0.19000001 250 144 129 0.000000
0.05763810 -0.02490229 0.19000001 249 143 128 0.000000
0.05869628 -0.02516442 0.19200000 254 146 133 0.000000
0.05976387 -0.02542655 0.19400001 255 149 136 0.000000
0.06053046 -0.02555761 0.19500001 243 135 122 0.000000
0.06130174 -0.02568868 0.19600001 240 132 119 0.000000
0.06176261 -0.02568868 0.19600001 244 133 124 0.000000
0.06222349 -0.02568868 0.19600001 245 134 125 0.000000
0.06268436 -0.02568868 0.19600001 246 136 124 0.000000
0.06282306 -0.02555761 0.19500001 247 137 125 0.000000
0.06341323 -0.02542655 0.19400001 246 135 126 0.000000
0.06354018 -0.02529548 0.19300000 252 146 133 0.000000
0.06399400 -0.02529548 0.19300000 250 144 131 0.000000
0.06411389 -0.02516442 0.19200000 244 148 131 0.000000
0.06422909 -0.02503335 0.19100001 255 160 143 0.000000
0.06501683 -0.02516442 0.19200000 255 189 163 0.000000
0.06775396 -0.02568868 0.19600001 255 240 207 0.000000
0.06856288 -0.02581974 0.19700001 255 236 206 0.000000
0.06972687 -0.02608187 0.19900002 255 234 204 0.000000
0.07423937 -0.02686826 0.20500001 248 219 196 0.000000
0.07508590 -0.02699932 0.20600002 246 217 194 0.000000
0.07557029 -0.02699932 0.20600002 250 216 194 0.000000
0.07642388 -0.02713039 0.20700002 249 215 193 0.000000
0.07691061 -0.02713039 0.20700002 253 207 189 0.000000
0.07777125 -0.02726145 0.20800000 249 203 185 0.000000
0.07826034 -0.02726145 0.20800000 249 190 181 0.000000
0.07874943 -0.02726145 0.20800000 254 195 186 0.000000
-0.00143323 -0.02625751 0.20400001 112 60 51 0.000000
-0.00093952 -0.02587137 0.20100001 132 60 51 0.000000
0.00091315 -0.02484166 0.19300000 160 72 62 0.000000
0.00135280 -0.02458424 0.19100001 161 73 63 0.000000
0.00180192 -0.02458424 0.19100001 163 73 61 0.000000
0.00223925 -0.02445552 0.19000001 162 72 60 0.000000
0.00268602 -0.02445552 0.19000001 165 75 59 0.000000
0.00313278 -0.02445552 0.19000001 170 80 64 0.000000
0.00356071 -0.02432681 0.18900001 164 78 58 0.000000
0.00400512 -0.02432681 0.18900001 163 77 57 0.000000
0.00444953 -0.02432681 0.18900001 161 75 55 0.000000
0.00486805 -0.02419810 0.18800001 163 77 57 0.000000
0.00531011 -0.02419810 0.18800001 165 78 61 0.000000
0.00575218 -0.02419810 0.18800001 165 78 61 0.000000
0.00616129 -0.02406938 0.18700001 164 77 60 0.000000
0.00660100 -0.02406938 0.18700001 165 78 61 0.000000
0.00704071 -0.02406938 0.18700001 164 77 62 0.000000
0.00748042 -0.02406938 0.18700001 165 78 63 0.000000
0.00792013 -0.02406938 0.18700001 168 78 64 0.000000
0.00831514 -0.02394067 0.18600000 168 78 64 0.000000
0.00875250 -0.02394067 0.18600000 169 79 65 0.000000
0.00918986 -0.02394067 0.18600000 168 78 64 0.000000
0.01088048 -0.02381196 0.18500000 169 79 67 0.000000
0.01125432 -0.02368325 0.18400002 171 78 67 0.000000
0.01162347 -0.02355453 0.18300001 171 78 67 0.000000
0.01198790 -0.02342582 0.18200001 173 78 70 0.000000
0.01241586 -0.02342582 0.18200001 175 80 72 0.000000
0.01277324 -0.02329710 0.18100001 176 82 71 0.000000
0.01312592 -0.02316839 0.18000001 177 83 72 0.000000
0.01389480 -0.02303968 0.17900001 175 78 66 0.000000
0.01423572 -0.02291096 0.17800000 189 80 72 0.000000
0.01465427 -0.02291096 0.17800000 200 91 83 0.000000
0.01498814 -0.02278225 0.17700000 249 132 125 0.000000
0.01540434 -0.02278225 0.17700000 249 132 125 0.000000
0.01573115 -0.02265354 0.17600001 250 133 128 0.000000
0.01614500 -0.02265354 0.17600001 255 138 133 0.000000
0.01646476 -0.02252483 0.17500001 255 143 137 0.000000
0.01687625 -0.02252483 0.17500001 255 145 139 0.000000
0.01728775 -0.02252483 0.17500001 255 146 139 0.000000
0.01759810 -0.02239611 0.17400001 255 146 139 0.000000
0.01800724 -0.02239611 0.17400001 255 143 135 0.000000
0.01841639 -0.02239611 0.17400001 254 134 125 0.000000
0.01882553 -0.02239611 0.17400001 245 125 116 0.000000
0.01923467 -0.02239611 0.17400001 248 120 112 0.000000
0.01953092 -0.02226740 0.17300001 249 121 113 0.000000
0.01993771 -0.02226740 0.17300001 252 120 113 0.000000
0.02034450 -0.02226740 0.17300001 249 117 110 0.000000
0.02075129 -0.02226740 0.17300001 251 119 110 0.000000
0.02115808 -0.02226740 0.17300001 252 120 111 0.000000
0.02156487 -0.02226740 0.17300001 252 120 111 0.000000
0.02197166 -0.02226740 0.17300001 252 120 111 0.000000
0.02237846 -0.02226740 0.17300001 252 120 111 0.000000
0.02278525 -0.02226740 0.17300001 252 120 111 0.000000
0.02319204 -0.02226740 0.17300001 253 121 112 0.000000
0.02373524 -0.02239611 0.17400001 253 121 112 0.000000
0.02428314 -0.02252483 0.17500001 252 120 111 0.000000
0.02483575 -0.02265354 0.17600001 252 120 111 0.000000
0.02539306 -0.02278225 0.17700000 253 121 112 0.000000
0.02595507 -0.02291096 0.17800000 254 122 113 0.000000
0.02652179 -0.02303968 0.17900001 253 121 112 0.000000
0.02694268 -0.02303968 0.17900001 254 122 113 0.000000
0.02736358 -0.02303968 0.17900001 254 122 113 0.000000
0.02778448 -0.02303968 0.17900001 254 122 113 0.000000
0.02820538 -0.02303968 0.17900001 252 120 111 0.000000
0.02878621 -0.02316839 0.18000001 254 122 113 0.000000
0.02920946 -0.02316839 0.18000001 253 121 112 0.000000
0.02963271 -0.02316839 0.18000001 253 121 112 0.000000
0.03005596 -0.02316839 0.18000001 252 120 111 0.000000
0.03064854 -0.02329710 0.18100001 252 120 111 0.000000
0.03107414 -0.02329710 0.18100001 253 121 112 0.000000
0.03210173 -0.02342582 0.18200001 254 124 115 0.000000
0.03270842 -0.02355453 0.18300001 253 123 114 0.000000
0.03313872 -0.02355453 0.18300001 255 126 117 0.000000
0.03356903 -0.02355453 0.18300001 254 124 115 0.000000
0.03399933 -0.02355453 0.18300001 252 124 114 0.000000
0.03442964 -0.02355453 0.18300001 253 125 115 0.000000
0.03485994 -0.02355453 0.18300001 253 125 115 0.000000
0.03529025 -0.02355453 0.18300001 255 127 117 0.000000
0.03572055 -0.02355453 0.18300001 255 127 119 0.000000
0.03595331 -0.02342582 0.18200001 255 127 119 0.000000
0.03638127 -0.02342582 0.18200001 255 130 121 0.000000
0.03703257 -0.02329710 0.18100001 255 134 124 0.000000
0.03745817 -0.02329710 0.18100001 255 133 123 0.000000
0.03788378 -0.02329710 0.18100001 253 133 122 0.000000
0.03809772 -0.02316839 0.18000001 255 135 124 0.000000
0.03852098 -0.02316839 0.18000001 255 135 124 0.000000
0.03894423 -0.02316839 0.18000001 254 134 123 0.000000
0.03936748 -0.02316839 0.18000001 254 134 121 0.000000
0.03979073 -0.02316839 0.18000001 254 134 121 0.000000
0.04021398 -0.02316839 0.18000001 255 138 122 0.000000
0.04063723 -0.02316839 0.18000001 255 138 122 0.000000
0.04106048 -0.02316839 0.18000001 254 139 122 0.000000
0.04148373 -0.02316839 0.18000001 255 140 123 0.000000
0.04190699 -0.02316839 0.18000001 255 141 124 0.000000
0.04233024 -0.02316839 0.18000001 255 143 125 0.000000
0.04275348 -0.02316839 0.18000001 255 144 126 0.000000
0.04341661 -0.02329710 0.18100001 255 146 127 0.000000
0.04655113 -0.02381196 0.18500000 253 146 126 0.000000
0.04698614 -0.02381196 0.18500000 254 147 127 0.000000
0.04767748 -0.02394067 0.18600000 253 146 126 0.000000
0.04837352 -0.02406938 0.18700001 252 145 125 0.000000
0.04881323 -0.02406938 0.18700001 253 146 126 0.000000
0.04925294 -0.02406938 0.18700001 252 145 125 0.000000
0.04969265 -0.02406938 0.18700001 252 145 125 0.000000
0.05013236 -0.02406938 0.18700001 254 147 125 0.000000
0.05057207 -0.02406938 0.18700001 252 145 123 0.000000
0.05101179 -0.02406938 0.18700001 253 144 123 0.000000
0.05145149 -0.02406938 0.18700001 251 142 121 0.000000
0.05189120 -0.02406938 0.18700001 252 141 116 0.000000
0.05233091 -0.02406938 0.18700001 249 138 113 0.000000
0.05277062 -0.02406938 0.18700001 249 135 111 0.000000
0.05349488 -0.02419810 0.18800001 244 130 106 0.000000
0.05393695 -0.02419810 0.18800001 250 132 109 0.000000
0.05437900 -0.02419810 0.18800001 246 128 105 0.000000
0.05511267 -0.02432681 0.18900001 239 119 99 0.000000
0.06068806 -0.02535652 0.19700001 239 114 103 0.000000
0.06115128 -0.02535652 0.19700001 206 90 78 0.000000
0.06192727 -0.02548523 0.19800001 191 75 63 0.000000
0.06239285 -0.02548523 0.19800001 176 68 55 0.000000
0.06285843 -0.02548523 0.19800001 168 60 47 0.000000
0.06300418 -0.02535652 0.19700001 167 59 46 0.000000
0.06282306 -0.02509909 0.19500001 171 63 50 0.000000
0.06328159 -0.02509909 0.19500001 175 67 54 0.000000
0.06377997 -0.02458424 0.19100001 216 106 94 0.000000
0.06786681 -0.02509909 0.19500001 255 236 206 0.000000
0.06902610 -0.02535652 0.19700001 255 224 194 0.000000
0.07019480 -0.02561394 0.19900002 251 218 191 0.000000
0.07101782 -0.02574266 0.20000000 250 217 190 0.000000
0.07184553 -0.02587137 0.20100001 253 219 195 0.000000
0.07267796 -0.02600008 0.20200001 255 224 200 0.000000
0.07387723 -0.02625751 0.20400001 255 222 198 0.000000
0.07472141 -0.02638622 0.20500001 255 222 198 0.000000
0.07520344 -0.02638622 0.20500001 255 220 197 0.000000
0.07605468 -0.02651494 0.20600002 248 212 189 0.000000
0.07653906 -0.02651494 0.20600002 253 207 189 0.000000
0.07739735 -0.02664365 0.20700002 249 203 185 0.000000
0.07788409 -0.02664365 0.20700002 250 194 180 0.000000
0.07874943 -0.02677236 0.20800000 248 192 178 0.000000
0.07923851 -0.02677236 0.20800000 255 195 190 0.000000
-0.00142620 -0.02565146 0.20300001 108 61 48 0.000000
-0.00093485 -0.02527238 0.20000000 130 59 48 0.000000
0.00091315 -0.02438785 0.19300000 157 71 60 0.000000
0.00135989 -0.02426148 0.19200000 160 74 63 0.000000
0.00180192 -0.02413512 0.19100001 161 74 61 0.000000
0.00225104 -0.02413512 0.19100001 160 73 60 0.000000
0.00268602 -0.02400876 0.19000001 160 73 58 0.000000
0.00313278 -0.02400876 0.19000001 167 80 65 0.000000
0.00357955 -0.02400876 0.19000001 166 79 62 0.000000
0.00400512 -0.02388240 0.18900001 165 78 61 0.000000
0.00444953 -0.02388240 0.18900001 163 76 59 0.000000
0.00486805 -0.02375604 0.18800001 161 74 57 0.000000
0.00531011 -0.02375604 0.18800001 164 77 60 0.000000
0.00575218 -0.02375604 0.18800001 165 78 61 0.000000
0.00616129 -0.02362967 0.18700001 164 77 60 0.000000
0.00660100 -0.02362967 0.18700001 167 80 63 0.000000
0.00704071 -0.02362967 0.18700001 164 77 62 0.000000
0.00748042 -0.02362967 0.18700001 165 78 63 0.000000
0.00792013 -0.02362967 0.18700001 167 80 65 0.000000
0.00831514 -0.02350331 0.18600000 167 80 65 0.000000
0.00875250 -0.02350331 0.18600000 167 80 65 0.000000
0.01198790 -0.02299787 0.18200001 175 80 72 0.000000
0.01234764 -0.02287150 0.18100001 176 81 73 0.000000
0.01277324 -0.02287150 0.18100001 176 82 71 0.000000
0.01347390 -0.02261878 0.17900001 177 75 67 0.000000
0.01389480 -0.02261878 0.17900001 180 78 70 0.000000
0.01423572 -0.02249242 0.17800000 216 99 94 0.000000
0.01465427 -0.02249242 0.17800000 245 128 123 0.000000
0.01498814 -0.02236605 0.17700000 253 134 130 0.000000
0.01540434 -0.02236605 0.17700000 252 133 129 0.000000
0.01573115 -0.02223969 0.17600001 255 138 133 0.000000
0.01614500 -0.02223969 0.17600001 255 144 139 0.000000
0.01646476 -0.02211333 0.17500001 255 145 139 0.000000
0.01687625 -0.02211333 0.17500001 255 143 137 0.000000
0.01728775 -0.02211333 0.17500001 255 139 132 0.000000
0.01769924 -0.02211333 0.17500001 251 131 120 0.000000
0.01800724 -0.02198697 0.17400001 244 124 113 0.000000
0.01841639 -0.02198697 0.17400001 249 121 111 0.000000
0.01882553 -0.02198697 0.17400001 246 118 108 0.000000
0.01923467 -0.02198697 0.17400001 248 114 106 0.000000
0.01964381 -0.02198697 0.17400001 248 114 106 0.000000
0.02005296 -0.02198697 0.17400001 251 114 107 0.000000
0.02046210 -0.02198697 0.17400001 249 112 105 0.000000
0.02075129 -0.02186061 0.17300001 250 113 106 0.000000
0.02115808 -0.02186061 0.17300001 250 113 106 0.000000
0.02156487 -0.02186061 0.17300001 249 112 105 0.000000
0.02197166 -0.02186061 0.17300001 254 117 110 0.000000
0.02237846 -0.02186061 0.17300001 254 117 110 0.000000
0.02291695 -0.02198697 0.17400001 254 117 110 0.000000
0.02332610 -0.02198697 0.17400001 255 118 111 0.000000
0.02373524 -0.02198697 0.17400001 255 118 111 0.000000
0.02428314 -0.02211333 0.17500001 255 120 110 0.000000
0.02483575 -0.02223969 0.17600001 255 120 110 0.000000
0.02539306 -0.02236605 0.17700000 254 121 110 0.000000
0.02595507 -0.02249242 0.17800000 253 120 109 0.000000
0.02637362 -0.02249242 0.17800000 250 117 106 0.000000
0.02694268 -0.02261878 0.17900001 250 117 106 0.000000
0.02736358 -0.02261878 0.17900001 254 121 110 0.000000
0.02778448 -0.02261878 0.17900001 255 122 111 0.000000
0.02820538 -0.02261878 0.17900001 253 122 110 0.000000
0.02862628 -0.02261878 0.17900001 254 123 111 0.000000
0.02920946 -0.02274514 0.18000001 253 122 110 0.000000
0.02963271 -0.02274514 0.18000001 252 121 109 0.000000
0.03005596 -0.02274514 0.18000001 253 121 112 0.000000
0.03047921 -0.02274514 0.18000001 254 122 113 0.000000
0.03107414 -0.02287150 0.18100001 253 121 112 0.000000
0.03149974 -0.02287150 0.18100001 253 121 112 0.000000
0.03210173 -0.02299787 0.18200001 255 123 114 0.000000
0.03313872 -0.02312423 0.18300001 254 124 115 0.000000
0.03356903 -0.02312423 0.18300001 254 124 115 0.000000
0.03399933 -0.02312423 0.18300001 253 123 114 0.000000
0.03442964 -0.02312423 0.18300001 254 124 115 0.000000
0.03485994 -0.02312423 0.18300001 254 124 115 0.000000
0.03529025 -0.02312423 0.18300001 253 123 114 0.000000
0.03572055 -0.02312423 0.18300001 249 121 111 0.000000
0.03595331 -0.02299787 0.18200001 252 124 114 0.000000
0.03638127 -0.02299787 0.18200001 255 127 117 0.000000
0.03680922 -0.02299787 0.18200001 255 127 117 0.000000
0.03703257 -0.02287150 0.18100001 255 128 120 0.000000
0.03745817 -0.02287150 0.18100001 255 130 122 0.000000
0.03788378 -0.02287150 0.18100001 255 130 121 0.000000
0.03830938 -0.02287150 0.18100001 255 131 122 0.000000
0.03873498 -0.02287150 0.18100001 254 132 120 0.000000
0.03894423 -0.02274514 0.18000001 252 130 118 0.000000
0.03936748 -0.02274514 0.18000001 251 129 117 0.000000
0.03979073 -0.02274514 0.18000001 254 132 120 0.000000
0.04021398 -0.02274514 0.18000001 254 135 119 0.000000
0.04063723 -0.02274514 0.18000001 255 136 120 0.000000
0.04106048 -0.02274514 0.18000001 253 134 118 0.000000
0.04148373 -0.02274514 0.18000001 251 134 118 0.000000
0.04190699 -0.02274514 0.18000001 253 136 120 0.000000
0.04233024 -0.02274514 0.18000001 255 139 123 0.000000
0.04299100 -0.02287150 0.18100001 255 139 123 0.000000
0.04341661 -0.02287150 0.18100001 255 140 124 0.000000
0.04384221 -0.02287150 0.18100001 255 140 124 0.000000
0.04451239 -0.02299787 0.18200001 252 137 120 0.000000
0.04655113 -0.02337695 0.18500000 255 140 123 0.000000
0.04863220 -0.02375604 0.18800001 250 135 116 0.000000
0.04951632 -0.02375604 0.18800001 250 132 111 0.000000
0.04995839 -0.02375604 0.18800001 246 128 107 0.000000
0.05040045 -0.02375604 0.18800001 251 131 111 0.000000
0.05111295 -0.02388240 0.18900001 246 126 106 0.000000
0.05155737 -0.02388240 0.18900001 251 128 107 0.000000
0.05200177 -0.02388240 0.18900001 244 121 100 0.000000
0.05244619 -0.02388240 0.18900001 242 115 91 0.000000
0.05289061 -0.02388240 0.18900001 245 118 94 0.000000
0.05361721 -0.02400876 0.19000001 241 112 88 0.000000
0.05406398 -0.02400876 0.19000001 243 114 90 0.000000
0.05438127 -0.02337695 0.18500000 239 104 87 0.000000
0.06253643 -0.02565146 0.20300001 192 65 52 0.000000
0.06270334 -0.02552510 0.20200001 157 44 33 0.000000
0.06317832 -0.02552510 0.20200001 153 40 29 0.000000
0.06333819 -0.02539874 0.20100001 143 36 26 0.000000
0.06349336 -0.02527238 0.20000000 141 34 24 0.000000
0.06364381 -0.02514602 0.19900002 143 38 27 0.000000
0.06346741 -0.02489330 0.19700001 142 37 26 0.000000
0.06360611 -0.02476693 0.19600001 142 37 26 0.000000
0.06467820 -0.02413512 0.19100001 191 78 65 0.000000
0.07030764 -0.02501966 0.19800001 250 205 180 0.000000
0.07148809 -0.02527238 0.20000000 255 216 193 0.000000
0.07231816 -0.02539874 0.20100001 255 221 198 0.000000
0.07315294 -0.02552510 0.20200001 254 214 190 0.000000
0.07399242 -0.02565146 0.20300001 254 214 190 0.000000
0.07483660 -0.02577783 0.20400001 255 215 195 0.000000
0.07568548 -0.02590419 0.20500001 246 202 182 0.000000
0.07616752 -0.02590419 0.20500001 249 198 180 0.000000
0.07702345 -0.02603055 0.20600002 251 200 182 0.000000
0.07750784 -0.02603055 0.20600002 253 195 179 0.000000
0.07837083 -0.02615691 0.20700002 249 191 175 0.000000
0.07885756 -0.02615691 0.20700002 244 176 168 0.000000
0.07972760 -0.02628327 0.20800000 251 183 175 0.000000
-0.00045992 -0.02455408 0.19800001 131 66 53 0.000000
0.00046409 -0.02418205 0.19500001 149 73 59 0.000000
0.00091788 -0.02405803 0.19400001 153 72 57 0.000000
0.00135989 -0.02381001 0.19200000 156 75 60 0.000000
0.00180192 -0.02368600 0.19100001 159 74 60 0.000000
0.00225104 -0.02368600 0.19100001 159 74 60 0.000000
0.00270015 -0.02368600 0.19100001 159 74 58 0.000000
0.00313278 -0.02356199 0.19000001 160 75 59 0.000000
0.00357955 -0.02356199 0.19000001 162 77 59 0.000000
0.00400512 -0.02343798 0.18900001 164 79 61 0.000000
0.00444953 -0.02343798 0.18900001 162 77 59 0.000000
0.00486805 -0.02331397 0.18800001 162 77 59 0.000000
0.00531011 -0.02331397 0.18800001 163 78 60 0.000000
0.00575218 -0.02331397 0.18800001 164 79 61 0.000000
0.00616129 -0.02318996 0.18700001 163 81 64 0.000000
0.00660100 -0.02318996 0.18700001 163 81 64 0.000000
0.00704071 -0.02318996 0.18700001 161 79 62 0.000000
0.00744042 -0.02306595 0.18600000 163 81 64 0.000000
0.00787778 -0.02306595 0.18600000 167 82 66 0.000000
0.00831514 -0.02306595 0.18600000 166 81 65 0.000000
0.00875250 -0.02306595 0.18600000 165 80 64 0.000000
0.00918986 -0.02306595 0.18600000 166 81 65 0.000000
0.00962722 -0.02306595 0.18600000 164 79 63 0.000000
0.01006458 -0.02306595 0.18600000 163 78 62 0.000000
0.01234764 -0.02244590 0.18100001 175 82 71 0.000000
0.01312592 -0.02232189 0.18000001 171 77 66 0.000000
0.01347390 -0.02219788 0.17900001 179 68 63 0.000000
0.01381717 -0.02207387 0.17800000 210 99 94 0.000000
0.01423572 -0.02207387 0.17800000 247 124 123 0.000000
0.01465427 -0.02207387 0.17800000 247 124 123 0.000000
0.01498814 -0.02194986 0.17700000 247 130 125 0.000000
0.01540434 -0.02194986 0.17700000 255 138 133 0.000000
0.01573115 -0.02182585 0.17600001 254 140 132 0.000000
0.01614500 -0.02182585 0.17600001 255 145 137 0.000000
0.01655884 -0.02182585 0.17600001 254 140 132 0.000000
0.01687625 -0.02170184 0.17500001 254 140 132 0.000000
0.01728775 -0.02170184 0.17500001 255 135 126 0.000000
0.01769924 -0.02170184 0.17500001 247 115 106 0.000000
0.01811073 -0.02170184 0.17500001 245 113 104 0.000000
0.01852223 -0.02170184 0.17500001 252 113 104 0.000000
0.01893372 -0.02170184 0.17500001 252 113 104 0.000000
0.01934521 -0.02170184 0.17500001 251 112 103 0.000000
0.01975671 -0.02170184 0.17500001 249 110 101 0.000000
0.02005296 -0.02157783 0.17400001 251 110 100 0.000000
0.02046210 -0.02157783 0.17400001 251 110 100 0.000000
0.02087124 -0.02157783 0.17400001 251 110 100 0.000000
0.02128038 -0.02157783 0.17400001 251 110 100 0.000000
0.02168953 -0.02157783 0.17400001 249 108 100 0.000000
0.02209867 -0.02157783 0.17400001 252 111 103 0.000000
0.02250781 -0.02157783 0.17400001 253 113 107 0.000000
0.02291695 -0.02157783 0.17400001 255 117 111 0.000000
0.02346016 -0.02170184 0.17500001 255 119 109 0.000000
0.02387165 -0.02170184 0.17500001 255 119 109 0.000000
0.02442190 -0.02182585 0.17600001 253 120 109 0.000000
0.02497686 -0.02194986 0.17700000 253 120 109 0.000000
0.02553652 -0.02207387 0.17800000 253 120 109 0.000000
0.02595507 -0.02207387 0.17800000 253 120 109 0.000000
0.02652179 -0.02219788 0.17900001 252 119 108 0.000000
0.02694268 -0.02219788 0.17900001 252 119 108 0.000000
0.02736358 -0.02219788 0.17900001 254 121 110 0.000000
0.02778448 -0.02219788 0.17900001 254 121 110 0.000000
0.02820538 -0.02219788 0.17900001 254 121 110 0.000000
0.02862628 -0.02219788 0.17900001 253 120 109 0.000000
0.02920946 -0.02232189 0.18000001 253 120 109 0.000000
0.02963271 -0.02232189 0.18000001 252 119 108 0.000000
0.03005596 -0.02232189 0.18000001 249 118 106 0.000000
0.03047921 -0.02232189 0.18000001 255 124 112 0.000000
0.03107414 -0.02244590 0.18100001 253 122 110 0.000000
0.03149974 -0.02244590 0.18100001 254 123 111 0.000000
0.03210173 -0.02256991 0.18200001 254 123 111 0.000000
0.03252968 -0.02256991 0.18200001 255 124 112 0.000000
0.03313872 -0.02269392 0.18300001 255 124 112 0.000000
0.03356903 -0.02269392 0.18300001 255 124 112 0.000000
0.03399933 -0.02269392 0.18300001 252 123 111 0.000000
0.03442964 -0.02269392 0.18300001 252 123 111 0.000000
0.03485994 -0.02269392 0.18300001 254 125 113 0.000000
0.03529025 -0.02269392 0.18300001 253 124 112 0.000000
0.03572055 -0.02269392 0.18300001 251 122 110 0.000000
0.03595331 -0.02256991 0.18200001 253 124 112 0.000000
0.03638127 -0.02256991 0.18200001 253 123 114 0.000000
0.03680922 -0.02256991 0.18200001 253 123 114 0.000000
0.03703257 -0.02244590 0.18100001 253 125 115 0.000000
0.03745817 -0.02244590 0.18100001 255 127 117 0.000000
0.03788378 -0.02244590 0.18100001 255 127 117 0.000000
0.03830938 -0.02244590 0.18100001 255 127 117 0.000000
0.03873498 -0.02244590 0.18100001 255 127 117 0.000000
0.03894423 -0.02232189 0.18000001 253 125 115 0.000000
0.03936748 -0.02232189 0.18000001 253 128 117 0.000000
0.03979073 -0.02232189 0.18000001 255 130 119 0.000000
0.04021398 -0.02232189 0.18000001 254 130 116 0.000000
0.04063723 -0.02232189 0.18000001 253 132 117 0.000000
0.04106048 -0.02232189 0.18000001 254 133 118 0.000000
0.04148373 -0.02232189 0.18000001 254 135 119 0.000000
0.04190699 -0.02232189 0.18000001 254 135 119 0.000000
0.04233024 -0.02232189 0.18000001 254 135 119 0.000000
0.04299100 -0.02244590 0.18100001 254 135 119 0.000000
0.04341661 -0.02244590 0.18100001 255 138 122 0.000000
0.04408443 -0.02256991 0.18200001 255 139 123 0.000000
0.04475696 -0.02269392 0.18300001 252 133 117 0.000000
0.04543419 -0.02281793 0.18400002 253 134 118 0.000000
0.04680276 -0.02306595 0.18600000 251 132 116 0.000000
0.04749409 -0.02318996 0.18700001 255 134 117 0.000000
0.04819014 -0.02331397 0.18800001 241 120 103 0.000000
0.04889088 -0.02343798 0.18900001 240 114 94 0.000000
0.04933530 -0.02343798 0.18900001 248 122 102 0.000000
0.04977971 -0.02343798 0.18900001 250 118 98 0.000000
0.05022413 -0.02343798 0.18900001 247 115 95 0.000000
0.05093662 -0.02356199 0.19000001 249 117 97 0.000000
0.05138339 -0.02356199 0.19000001 249 117 97 0.000000
0.05183016 -0.02356199 0.19000001 251 116 97 0.000000
0.05227692 -0.02356199 0.19000001 249 114 95 0.000000
0.05300118 -0.02368600 0.19100001 242 108 84 0.000000
0.05345030 -0.02368600 0.19100001 240 106 82 0.000000
0.05463307 -0.02381001 0.19200000 244 107 84 0.000000
0.06097504 -0.02492611 0.20100001 221 89 73 0.000000
0.06175338 -0.02505012 0.20200001 212 85 72 0.000000
0.06284449 -0.02529814 0.20400001 213 86 73 0.000000
0.06363458 -0.02542215 0.20500001 165 55 43 0.000000
0.06380385 -0.02529814 0.20400001 154 44 32 0.000000
0.06396842 -0.02517413 0.20300001 146 47 34 0.000000
0.06444576 -0.02517413 0.20300001 144 45 32 0.000000
0.06428345 -0.02492611 0.20100001 141 47 32 0.000000
0.06411175 -0.02467809 0.19900002 141 47 32 0.000000
0.06425515 -0.02455408 0.19800001 141 47 32 0.000000
0.06472072 -0.02455408 0.19800001 144 50 35 0.000000
0.07030764 -0.02455408 0.19800001 255 195 171 0.000000
0.07195837 -0.02480210 0.20000000 255 201 182 0.000000
0.07279079 -0.02492611 0.20100001 255 208 191 0.000000
0.07399242 -0.02517413 0.20300001 255 207 190 0.000000
0.07483660 -0.02529814 0.20400001 255 205 187 0.000000
0.07531628 -0.02529814 0.20400001 248 197 179 0.000000
0.07616752 -0.02542215 0.20500001 251 193 177 0.000000
0.07702345 -0.02554616 0.20600002 251 193 177 0.000000
0.07750784 -0.02554616 0.20600002 255 192 178 0.000000
0.07837083 -0.02567017 0.20700002 250 187 173 0.000000
0.07885756 -0.02567017 0.20700002 239 168 159 0.000000
0.07934430 -0.02567017 0.20700002 243 172 163 0.000000
0.00000563 -0.02396684 0.19700001 142 68 53 0.000000
0.00046647 -0.02384518 0.19600001 144 70 55 0.000000
0.00091788 -0.02360187 0.19400001 148 69 56 0.000000
0.00136697 -0.02348020 0.19300000 152 73 60 0.000000
0.00181135 -0.02335855 0.19200000 156 75 60 0.000000
0.00225104 -0.02323689 0.19100001 156 75 60 0.000000
0.00270015 -0.02323689 0.19100001 157 75 60 0.000000
0.00314927 -0.02323689 0.19100001 158 76 61 0.000000
0.00357955 -0.02311523 0.19000001 158 76 59 0.000000
0.00402631 -0.02311523 0.19000001 161 79 62 0.000000
0.00444953 -0.02299357 0.18900001 160 78 61 0.000000
0.00489395 -0.02299357 0.18900001 161 79 62 0.000000
0.00531011 -0.02287191 0.18800001 160 78 59 0.000000
0.00575218 -0.02287191 0.18800001 160 78 59 0.000000
0.00619424 -0.02287191 0.18800001 160 78 61 0.000000
0.00660100 -0.02275025 0.18700001 161 79 62 0.000000
0.00704071 -0.02275025 0.18700001 161 79 64 0.000000
0.00744042 -0.02262859 0.18600000 161 79 64 0.000000
0.00787778 -0.02262859 0.18600000 163 80 68 0.000000
0.00831514 -0.02262859 0.18600000 162 79 67 0.000000
0.00875250 -0.02262859 0.18600000 165 79 68 0.000000
0.00918986 -0.02262859 0.18600000 167 81 70 0.000000
0.00962722 -0.02262859 0.18600000 165 80 66 0.000000
0.01001047 -0.02250693 0.18500000 166 81 67 0.000000
0.01076286 -0.02226362 0.18300001 166 79 64 0.000000
0.01270267 -0.02189864 0.18000001 180 81 70 0.000000
0.01305300 -0.02177698 0.17900001 175 76 65 0.000000
0.01347390 -0.02177698 0.17900001 221 104 101 0.000000
0.01389480 -0.02177698 0.17900001 242 125 122 0.000000
0.01423572 -0.02165532 0.17800000 244 123 121 0.000000
0.01465427 -0.02165532 0.17800000 250 129 127 0.000000
0.01498814 -0.02153366 0.17700000 254 137 132 0.000000
0.01540434 -0.02153366 0.17700000 255 141 136 0.000000
0.01582053 -0.02153366 0.17700000 255 142 135 0.000000
0.01614500 -0.02141200 0.17600001 255 142 135 0.000000
0.01655884 -0.02141200 0.17600001 253 135 126 0.000000
0.01697269 -0.02141200 0.17600001 245 127 118 0.000000
0.01738653 -0.02141200 0.17600001 249 117 108 0.000000
0.01769924 -0.02129034 0.17500001 249 110 101 0.000000
0.01811073 -0.02129034 0.17500001 249 110 101 0.000000
0.01852223 -0.02129034 0.17500001 250 109 99 0.000000
0.01893372 -0.02129034 0.17500001 251 110 100 0.000000
0.01934521 -0.02129034 0.17500001 252 108 99 0.000000
0.01975671 -0.02129034 0.17500001 251 107 98 0.000000
0.02016820 -0.02129034 0.17500001 249 106 94 0.000000
0.02057970 -0.02129034 0.17500001 251 108 96 0.000000
0.02099119 -0.02129034 0.17500001 248 105 93 0.000000
0.02140268 -0.02129034 0.17500001 249 106 94 0.000000
0.02181418 -0.02129034 0.17500001 249 105 96 0.000000
0.02222567 -0.02129034 0.17500001 251 107 98 0.000000
0.02263717 -0.02129034 0.17500001 253 112 104 0.000000
0.02304866 -0.02129034 0.17500001 255 117 109 0.000000
0.02346016 -0.02129034 0.17500001 255 118 107 0.000000
0.02400806 -0.02141200 0.17600001 255 118 107 0.000000
0.02442190 -0.02141200 0.17600001 255 117 106 0.000000
0.02497686 -0.02153366 0.17700000 255 118 107 0.000000
0.02553652 -0.02165532 0.17800000 254 118 106 0.000000
0.02595507 -0.02165532 0.17800000 254 118 106 0.000000
0.02637362 -0.02165532 0.17800000 254 118 106 0.000000
0.02694268 -0.02177698 0.17900001 254 118 106 0.000000
0.02736358 -0.02177698 0.17900001 253 120 109 0.000000
0.02778448 -0.02177698 0.17900001 255 122 111 0.000000
0.02820538 -0.02177698 0.17900001 255 122 111 0.000000
0.02862628 -0.02177698 0.17900001 253 120 109 0.000000
0.02904718 -0.02177698 0.17900001 252 119 108 0.000000
0.02946808 -0.02177698 0.17900001 253 120 109 0.000000
0.03005596 -0.02189864 0.18000001 252 118 110 0.000000
0.03047921 -0.02189864 0.18000001 254 120 112 0.000000
0.03090246 -0.02189864 0.18000001 253 122 110 0.000000
0.03149974 -0.02202030 0.18100001 254 123 111 0.000000
0.03192534 -0.02202030 0.18100001 255 124 112 0.000000
0.03252968 -0.02214196 0.18200001 254 123 111 0.000000
0.03295764 -0.02214196 0.18200001 255 124 112 0.000000
0.03338559 -0.02214196 0.18200001 254 123 111 0.000000
0.03381354 -0.02214196 0.18200001 254 123 109 0.000000
0.03424150 -0.02214196 0.18200001 254 123 109 0.000000
0.03466945 -0.02214196 0.18200001 253 124 110 0.000000
0.03509741 -0.02214196 0.18200001 254 125 111 0.000000
0.03552536 -0.02214196 0.18200001 253 124 112 0.000000
0.03595331 -0.02214196 0.18200001 252 123 111 0.000000
0.03638127 -0.02214196 0.18200001 252 123 111 0.000000
0.03680922 -0.02214196 0.18200001 252 123 111 0.000000
0.03703257 -0.02202030 0.18100001 254 124 115 0.000000
0.03745817 -0.02202030 0.18100001 254 124 115 0.000000
0.03788378 -0.02202030 0.18100001 253 125 115 0.000000
0.03830938 -0.02202030 0.18100001 255 127 117 0.000000
0.03873498 -0.02202030 0.18100001 255 130 119 0.000000
0.03916059 -0.02202030 0.18100001 255 130 119 0.000000
0.03958619 -0.02202030 0.18100001 255 130 119 0.000000
0.04001179 -0.02202030 0.18100001 255 131 120 0.000000
0.04021398 -0.02189864 0.18000001 255 134 119 0.000000
0.04063723 -0.02189864 0.18000001 254 133 118 0.000000
0.04106048 -0.02189864 0.18000001 255 135 120 0.000000
0.04171420 -0.02202030 0.18100001 255 137 122 0.000000
0.04213980 -0.02202030 0.18100001 255 135 120 0.000000
0.04256541 -0.02202030 0.18100001 255 135 120 0.000000
0.04299100 -0.02202030 0.18100001 253 132 117 0.000000
0.04341661 -0.02202030 0.18100001 249 128 113 0.000000
0.04408443 -0.02214196 0.18200001 252 131 116 0.000000
0.04475696 -0.02226362 0.18300001 251 130 115 0.000000
0.04543419 -0.02238527 0.18400002 249 128 113 0.000000
0.04611612 -0.02250693 0.18500000 251 127 113 0.000000
0.04705438 -0.02275025 0.18700001 251 127 113 0.000000
0.04774808 -0.02287191 0.18800001 251 124 109 0.000000
0.04844647 -0.02299357 0.18900001 244 117 102 0.000000
0.04889088 -0.02299357 0.18900001 244 112 96 0.000000
0.04933530 -0.02299357 0.18900001 242 110 94 0.000000
0.05004309 -0.02311523 0.19000001 246 111 94 0.000000
0.05048986 -0.02311523 0.19000001 247 112 95 0.000000
0.05120471 -0.02323689 0.19100001 243 108 91 0.000000
0.05165383 -0.02323689 0.19100001 240 105 88 0.000000
0.05210295 -0.02323689 0.19100001 242 107 88 0.000000
0.05282720 -0.02335855 0.19200000 246 111 92 0.000000
0.05327867 -0.02335855 0.19200000 235 101 79 0.000000
0.05400998 -0.02348020 0.19300000 225 91 69 0.000000
0.06002978 -0.02445348 0.20100001 207 75 59 0.000000
0.06394500 -0.02506177 0.20600002 186 73 60 0.000000
0.06578353 -0.02396684 0.19700001 145 44 29 0.000000
0.06694975 -0.02372352 0.19500001 154 44 28 0.000000
0.06740828 -0.02372352 0.19500001 173 63 47 0.000000
0.07030764 -0.02408850 0.19800001 255 185 166 0.000000
0.07113066 -0.02421016 0.19900002 253 183 167 0.000000
0.07195837 -0.02433182 0.20000000 250 180 164 0.000000
0.07279079 -0.02445348 0.20100001 246 181 168 0.000000
0.07362792 -0.02457514 0.20200001 254 189 176 0.000000
0.07446975 -0.02469680 0.20300001 255 196 183 0.000000
0.07531628 -0.02481846 0.20400001 255 192 179 0.000000
0.07616752 -0.02494012 0.20500001 248 183 170 0.000000
0.07664955 -0.02494012 0.20500001 251 186 173 0.000000
0.07750784 -0.02506177 0.20600002 253 185 173 0.000000
0.07799222 -0.02506177 0.20600002 251 183 171 0.000000
0.07885756 -0.02518343 0.20700002 254 177 170 0.000000
0.07934430 -0.02518343 0.20700002 243 166 159 0.000000
0.07983105 -0.02518343 0.20700002 244 163 162 0.000000
-0.00046224 -0.02374223 0.19900002 123 67 53 0.000000
0.00000565 -0.02362293 0.19800001 136 69 52 0.000000
0.00046885 -0.02350362 0.19700001 136 69 52 0.000000
0.00092261 -0.02326500 0.19500001 145 69 55 0.000000
0.00137405 -0.02314570 0.19400001 149 73 59 0.000000
0.00182079 -0.02302639 0.19300000 153 74 61 0.000000
0.00226282 -0.02290708 0.19200000 153 74 61 0.000000
0.00271429 -0.02290708 0.19200000 153 74 61 0.000000
0.00314927 -0.02278777 0.19100001 154 75 62 0.000000
0.00359839 -0.02278777 0.19100001 156 75 60 0.000000
0.00402631 -0.02266847 0.19000001 156 75 60 0.000000
0.00447308 -0.02266847 0.19000001 157 76 59 0.000000
0.00489395 -0.02254916 0.18900001 160 79 62 0.000000
0.00533836 -0.02254916 0.18900001 160 79 62 0.000000
0.00575218 -0.02242985 0.18800001 161 80 63 0.000000
0.00619424 -0.02242985 0.18800001 161 80 63 0.000000
0.00663630 -0.02242985 0.18800001 161 80 63 0.000000
0.00704071 -0.02231054 0.18700001 161 79 67 0.000000
0.00748042 -0.02231054 0.18700001 161 79 67 0.000000
0.00787778 -0.02219123 0.18600000 161 79 69 0.000000
0.00831514 -0.02219123 0.18600000 159 77 67 0.000000
0.00875250 -0.02219123 0.18600000 162 79 69 0.000000
0.00918986 -0.02219123 0.18600000 164 81 71 0.000000
0.00962722 -0.02219123 0.18600000 163 80 68 0.000000
0.01006458 -0.02219123 0.18600000 163 80 68 0.000000
0.01185617 -0.02147539 0.18000001 172 79 66 0.000000
0.01227942 -0.02147539 0.18000001 176 83 70 0.000000
0.01270267 -0.02147539 0.18000001 180 78 70 0.000000
0.01305300 -0.02135608 0.17900001 185 83 75 0.000000
0.01347390 -0.02135608 0.17900001 248 129 127 0.000000
0.01389480 -0.02135608 0.17900001 251 132 130 0.000000
0.01423572 -0.02123677 0.17800000 251 130 126 0.000000
0.01465427 -0.02123677 0.17800000 254 133 129 0.000000
0.01498814 -0.02111746 0.17700000 255 139 134 0.000000
0.01540434 -0.02111746 0.17700000 255 140 135 0.000000
0.01582053 -0.02111746 0.17700000 255 145 139 0.000000
0.01614500 -0.02099816 0.17600001 253 134 128 0.000000
0.01655884 -0.02099816 0.17600001 251 123 113 0.000000
0.01697269 -0.02099816 0.17600001 249 121 111 0.000000
0.01738653 -0.02099816 0.17600001 251 115 105 0.000000
0.01780038 -0.02099816 0.17600001 250 109 99 0.000000
0.01821422 -0.02099816 0.17600001 247 106 96 0.000000
0.01862807 -0.02099816 0.17600001 249 105 96 0.000000
0.01904191 -0.02099816 0.17600001 252 108 99 0.000000
0.01945576 -0.02099816 0.17600001 251 108 96 0.000000
0.01975671 -0.02087885 0.17500001 249 106 94 0.000000
0.02016820 -0.02087885 0.17500001 251 108 96 0.000000
0.02057970 -0.02087885 0.17500001 252 109 97 0.000000
0.02099119 -0.02087885 0.17500001 250 106 94 0.000000
0.02140268 -0.02087885 0.17500001 250 106 94 0.000000
0.02181418 -0.02087885 0.17500001 254 110 98 0.000000
0.02222567 -0.02087885 0.17500001 253 109 97 0.000000
0.02263717 -0.02087885 0.17500001 253 109 100 0.000000
0.02304866 -0.02087885 0.17500001 255 111 102 0.000000
0.02346016 -0.02087885 0.17500001 255 112 103 0.000000
0.02400806 -0.02099816 0.17600001 255 112 103 0.000000
0.02442190 -0.02099816 0.17600001 254 113 103 0.000000
0.02497686 -0.02111746 0.17700000 255 114 104 0.000000
0.02539306 -0.02111746 0.17700000 255 117 106 0.000000
0.02595507 -0.02123677 0.17800000 254 115 104 0.000000
0.02637362 -0.02123677 0.17800000 255 117 108 0.000000
0.02679216 -0.02123677 0.17800000 255 118 109 0.000000
0.02736358 -0.02135608 0.17900001 255 119 109 0.000000
0.02778448 -0.02135608 0.17900001 255 121 111 0.000000
0.02820538 -0.02135608 0.17900001 255 121 111 0.000000
0.02862628 -0.02135608 0.17900001 255 119 109 0.000000
0.02904718 -0.02135608 0.17900001 252 119 108 0.000000
0.02946808 -0.02135608 0.17900001 253 120 109 0.000000
0.02988898 -0.02135608 0.17900001 252 118 110 0.000000
0.03047921 -0.02147539 0.18000001 254 120 112 0.000000
0.03090246 -0.02147539 0.18000001 253 119 111 0.000000
0.03132571 -0.02147539 0.18000001 252 118 110 0.000000
0.03192534 -0.02159470 0.18100001 255 124 112 0.000000
0.03235095 -0.02159470 0.18100001 255 129 117 0.000000
0.03277655 -0.02159470 0.18100001 255 127 115 0.000000
0.03338559 -0.02171400 0.18200001 252 123 111 0.000000
0.03381354 -0.02171400 0.18200001 251 122 110 0.000000
0.03424150 -0.02171400 0.18200001 252 123 111 0.000000
0.03466945 -0.02171400 0.18200001 252 123 109 0.000000
0.03509741 -0.02171400 0.18200001 252 123 109 0.000000
0.03552536 -0.02171400 0.18200001 252 123 109 0.000000
0.03595331 -0.02171400 0.18200001 251 122 108 0.000000
0.03638127 -0.02171400 0.18200001 251 122 110 0.000000
0.03680922 -0.02171400 0.18200001 252 123 111 0.000000
0.03723717 -0.02171400 0.18200001 254 125 113 0.000000
0.03745817 -0.02159470 0.18100001 254 125 113 0.000000
0.03788378 -0.02159470 0.18100001 255 130 117 0.000000
0.03830938 -0.02159470 0.18100001 255 130 117 0.000000
0.03873498 -0.02159470 0.18100001 255 131 117 0.000000
0.03916059 -0.02159470 0.18100001 255 133 119 0.000000
0.03958619 -0.02159470 0.18100001 255 136 122 0.000000
0.04001179 -0.02159470 0.18100001 255 136 122 0.000000
0.04043739 -0.02159470 0.18100001 255 134 119 0.000000
0.04086299 -0.02159470 0.18100001 255 134 119 0.000000
0.04128860 -0.02159470 0.18100001 254 133 118 0.000000
0.04171420 -0.02159470 0.18100001 253 132 115 0.000000
0.04213980 -0.02159470 0.18100001 251 130 113 0.000000
0.04256541 -0.02159470 0.18100001 248 124 108 0.000000
0.04322853 -0.02171400 0.18200001 246 122 106 0.000000
0.04365648 -0.02171400 0.18200001 249 123 105 0.000000
0.04432666 -0.02183331 0.18300001 250 124 106 0.000000
0.04500154 -0.02195262 0.18400002 252 124 107 0.000000
0.04568112 -0.02207193 0.18500000 251 123 106 0.000000
0.04636540 -0.02219123 0.18600000 251 123 106 0.000000
0.04705438 -0.02231054 0.18700001 253 125 108 0.000000
0.04774808 -0.02242985 0.18800001 251 122 108 0.000000
0.04844647 -0.02254916 0.18900001 247 118 104 0.000000
0.04914956 -0.02266847 0.19000001 242 109 96 0.000000
0.04959633 -0.02266847 0.19000001 242 109 96 0.000000
0.05004309 -0.02266847 0.19000001 238 106 90 0.000000
0.05075560 -0.02278777 0.19100001 232 100 84 0.000000
0.05120471 -0.02278777 0.19100001 222 92 75 0.000000
0.05192427 -0.02290708 0.19200000 222 92 75 0.000000
0.05237573 -0.02290708 0.19200000 230 97 84 0.000000
0.05310234 -0.02302639 0.19300000 240 107 94 0.000000
0.05355616 -0.02302639 0.19300000 233 98 81 0.000000
0.05428983 -0.02314570 0.19400001 212 77 60 0.000000
0.05502819 -0.02326500 0.19500001 216 87 63 0.000000
0.05577126 -0.02338431 0.19600001 215 86 62 0.000000
0.06425541 -0.02469670 0.20700002 198 82 68 0.000000
0.06505491 -0.02481600 0.20800000 156 40 26 0.000000
0.06745316 -0.02410016 0.20200001 141 40 25 0.000000
0.06797976 -0.02362293 0.19800001 165 55 39 0.000000
0.06809965 -0.02350362 0.19700001 158 48 32 0.000000
0.06821484 -0.02338431 0.19600001 177 65 47 0.000000
0.06867571 -0.02338431 0.19600001 238 126 108 0.000000
0.06948932 -0.02350362 0.19700001 255 176 159 0.000000
0.07030764 -0.02362293 0.19800001 255 174 157 0.000000
0.07148809 -0.02386154 0.20000000 253 175 157 0.000000
0.07195837 -0.02386154 0.20000000 253 175 157 0.000000
0.07279079 -0.02398085 0.20100001 255 183 170 0.000000
0.07362792 -0.02410016 0.20200001 255 182 169 0.000000
0.07446975 -0.02421946 0.20300001 249 175 162 0.000000
0.07531628 -0.02433877 0.20400001 251 177 164 0.000000
