0.03244758 -0.03054860 0.18900001 228 110 87 0.000000
0.03306603 -0.03071023 0.19000001 225 107 84 0.000000
0.03351279 -0.03071023 0.19000001 228 105 82 0.000000
0.03395956 -0.03071023 0.19000001 232 109 86 0.000000
0.03458741 -0.03087187 0.19100001 235 109 87 0.000000
0.03503653 -0.03087187 0.19100001 240 114 92 0.000000
0.03548564 -0.03087187 0.19100001 242 116 94 0.000000
0.03593476 -0.03087187 0.19100001 242 116 94 0.000000
0.03657436 -0.03103350 0.19200000 243 116 92 0.000000
0.03702583 -0.03103350 0.19200000 243 116 92 0.000000
0.03767249 -0.03119513 0.19300000 241 116 91 0.000000
0.03812631 -0.03119513 0.19300000 241 116 91 0.000000
0.03858013 -0.03119513 0.19300000 236 117 90 0.000000
0.03923620 -0.03135676 0.19400001 227 108 81 0.000000
0.03969237 -0.03135676 0.19400001 227 108 81 0.000000
0.04035549 -0.03151840 0.19500001 226 107 80 0.000000
0.04081402 -0.03151840 0.19500001 221 103 78 0.000000
0.04127254 -0.03151840 0.19500001 215 97 72 0.000000
0.04173106 -0.03151840 0.19500001 218 100 75 0.000000
0.04218958 -0.03151840 0.19500001 219 101 76 0.000000
0.04286681 -0.03168003 0.19600001 221 103 78 0.000000
0.04332769 -0.03168003 0.19600001 221 103 78 0.000000
0.04378856 -0.03168003 0.19600001 223 106 78 0.000000
0.04424943 -0.03168003 0.19600001 224 107 79 0.000000
0.04493842 -0.03184166 0.19700001 224 107 79 0.000000
0.04540164 -0.03184166 0.19700001 224 107 79 0.000000
0.04586487 -0.03184166 0.19700001 220 104 81 0.000000
0.04632809 -0.03184166 0.19700001 219 103 80 0.000000
0.04702884 -0.03200329 0.19800001 218 104 78 0.000000
0.04749441 -0.03200329 0.19800001 215 101 75 0.000000
0.04795999 -0.03200329 0.19800001 214 100 74 0.000000
0.04842557 -0.03200329 0.19800001 212 98 72 0.000000
0.04913807 -0.03216493 0.19900002 211 97 71 0.000000
0.04960599 -0.03216493 0.19900002 209 95 69 0.000000
0.05007392 -0.03216493 0.19900002 209 95 69 0.000000
0.05054185 -0.03216493 0.19900002 210 94 71 0.000000
0.05100978 -0.03216493 0.19900002 210 94 71 0.000000
0.05147770 -0.03216493 0.19900002 213 97 72 0.000000
0.05194563 -0.03216493 0.19900002 213 97 72 0.000000
0.05241356 -0.03216493 0.19900002 214 96 71 0.000000
0.05288149 -0.03216493 0.19900002 210 92 67 0.000000
0.05334941 -0.03216493 0.19900002 211 93 68 0.000000
0.05381734 -0.03216493 0.19900002 205 87 62 0.000000
0.05428527 -0.03216493 0.19900002 202 84 61 0.000000
0.05475320 -0.03216493 0.19900002 202 84 61 0.000000
0.05522112 -0.03216493 0.19900002 203 86 68 0.000000
0.05540921 -0.03200329 0.19800001 209 92 74 0.000000
0.05587478 -0.03200329 0.19800001 214 105 84 0.000000
0.05634036 -0.03200329 0.19800001 237 128 107 0.000000
0.05680593 -0.03200329 0.19800001 252 156 128 0.000000
0.05756076 -0.03216493 0.19900002 255 167 139 0.000000
0.05802869 -0.03216493 0.19900002 255 195 162 0.000000
0.05849662 -0.03216493 0.19900002 255 206 173 0.000000
0.05896455 -0.03216493 0.19900002 255 220 180 0.000000
0.05943247 -0.03216493 0.19900002 255 215 175 0.000000
0.05990040 -0.03216493 0.19900002 255 222 179 0.000000
0.06036833 -0.03216493 0.19900002 254 217 174 0.000000
0.06083625 -0.03216493 0.19900002 255 219 180 0.000000
0.06130418 -0.03216493 0.19900002 255 219 180 0.000000
0.06177211 -0.03216493 0.19900002 252 214 178 0.000000
0.06224003 -0.03216493 0.19900002 249 211 175 0.000000
0.06270796 -0.03216493 0.19900002 255 205 176 0.000000
0.06317589 -0.03216493 0.19900002 255 210 181 0.000000
0.06364381 -0.03216493 0.19900002 255 199 185 0.000000
0.07334173 -0.03652901 0.22600001 224 146 146 0.000000
-0.00418852 -0.03551975 0.22300000 102 67 62 0.000000
-0.00366416 -0.03551975 0.22300000 107 66 58 0.000000
-0.00312572 -0.03536047 0.22200002 106 65 57 0.000000
-0.00100496 -0.03424550 0.21500000 130 72 60 0.000000
-0.00049244 -0.03376766 0.21200001 131 73 61 0.000000
0.00000600 -0.03344909 0.21000001 136 73 61 0.000000
0.00049503 -0.03313053 0.20800000 139 76 64 0.000000
0.00098412 -0.03313053 0.20800000 149 78 69 0.000000
0.00145904 -0.03281197 0.20600002 153 82 73 0.000000
0.00193400 -0.03265269 0.20500001 162 87 79 0.000000
0.00241603 -0.03265269 0.20500001 166 91 83 0.000000
0.00286980 -0.03233413 0.20300001 170 95 87 0.000000
0.00334713 -0.03233413 0.20300001 175 100 92 0.000000
0.00380562 -0.03217484 0.20200001 179 99 93 0.000000
0.00425941 -0.03201556 0.20100001 178 98 92 0.000000
0.00473204 -0.03201556 0.20100001 182 99 92 0.000000
0.00517878 -0.03185628 0.20000000 187 104 97 0.000000
0.00562081 -0.03169700 0.19900002 195 107 97 0.000000
0.00608874 -0.03169700 0.19900002 195 107 97 0.000000
0.00652372 -0.03153772 0.19800001 205 108 98 0.000000
0.00695400 -0.03137844 0.19700001 209 112 102 0.000000
0.00741722 -0.03137844 0.19700001 215 107 104 0.000000
0.00784044 -0.03121916 0.19600001 216 108 105 0.000000
0.00825896 -0.03105987 0.19500001 255 157 148 0.000000
0.00871748 -0.03105987 0.19500001 255 173 164 0.000000
0.00912895 -0.03090059 0.19400001 255 166 154 0.000000
0.00953571 -0.03074131 0.19300000 255 154 142 0.000000
0.00993777 -0.03058203 0.19200000 250 134 124 0.000000
0.01033513 -0.03042275 0.19100001 247 131 121 0.000000
0.01078425 -0.03042275 0.19100001 251 126 117 0.000000
0.01117455 -0.03026347 0.19000001 250 125 116 0.000000
0.01156015 -0.03010419 0.18900001 252 124 114 0.000000
0.01200456 -0.03010419 0.18900001 252 124 114 0.000000
0.01238311 -0.02994490 0.18800001 251 122 110 0.000000
0.01282517 -0.02994490 0.18800001 252 123 111 0.000000
0.01319666 -0.02978562 0.18700001 252 124 107 0.000000
0.01363637 -0.02978562 0.18700001 249 121 104 0.000000
0.01407608 -0.02978562 0.18700001 249 119 102 0.000000
0.01443817 -0.02962634 0.18600000 251 121 104 0.000000
0.01487553 -0.02962634 0.18600000 251 123 106 0.000000
0.01531289 -0.02962634 0.18600000 252 124 107 0.000000
0.01575025 -0.02962634 0.18600000 250 126 110 0.000000
0.01610058 -0.02946706 0.18500000 250 126 110 0.000000
0.01653558 -0.02946706 0.18500000 248 130 117 0.000000
0.01697059 -0.02946706 0.18500000 251 133 120 0.000000
0.01740560 -0.02946706 0.18500000 247 139 122 0.000000
0.01774417 -0.02930778 0.18400002 255 148 131 0.000000
0.01817683 -0.02930778 0.18400002 254 161 141 0.000000
0.01860949 -0.02930778 0.18400002 255 164 144 0.000000
0.01904214 -0.02930778 0.18400002 255 174 150 0.000000
0.01947480 -0.02930778 0.18400002 253 184 154 0.000000
0.01990746 -0.02930778 0.18400002 255 190 160 0.000000
0.02034011 -0.02930778 0.18400002 255 194 159 0.000000
0.02077277 -0.02930778 0.18400002 255 196 161 0.000000
0.02120543 -0.02930778 0.18400002 255 209 169 0.000000
0.02163808 -0.02930778 0.18400002 255 210 170 0.000000
0.02207074 -0.02930778 0.18400002 255 209 169 0.000000
0.02250339 -0.02930778 0.18400002 255 211 171 0.000000
0.02293605 -0.02930778 0.18400002 255 218 179 0.000000
0.02336871 -0.02930778 0.18400002 255 227 188 0.000000
0.02393072 -0.02946706 0.18500000 255 228 188 0.000000
0.02436573 -0.02946706 0.18500000 255 225 185 0.000000
0.02480074 -0.02946706 0.18500000 255 220 182 0.000000
0.02523574 -0.02946706 0.18500000 255 224 186 0.000000
0.02567075 -0.02946706 0.18500000 255 215 183 0.000000
0.02610576 -0.02946706 0.18500000 255 201 169 0.000000
0.02654077 -0.02946706 0.18500000 255 188 158 0.000000
0.02697577 -0.02946706 0.18500000 255 174 144 0.000000
0.02741078 -0.02946706 0.18500000 250 154 126 0.000000
0.02799631 -0.02962634 0.18600000 237 141 113 0.000000
0.02843367 -0.02962634 0.18600000 239 128 105 0.000000
0.02902625 -0.02978562 0.18700001 227 116 93 0.000000
0.02962353 -0.02994490 0.18800001 229 113 90 0.000000
0.03006559 -0.02994490 0.18800001 222 106 83 0.000000
0.03066993 -0.03010419 0.18900001 221 103 82 0.000000
0.03111434 -0.03010419 0.18900001 222 104 83 0.000000
0.03172573 -0.03026347 0.19000001 226 108 87 0.000000
0.03217250 -0.03026347 0.19000001 230 112 91 0.000000
0.03279094 -0.03042275 0.19100001 231 108 85 0.000000
0.03324006 -0.03042275 0.19100001 232 109 86 0.000000
0.03368917 -0.03042275 0.19100001 237 111 89 0.000000
0.03413830 -0.03042275 0.19100001 236 110 88 0.000000
0.03458741 -0.03042275 0.19100001 240 114 92 0.000000
0.03521996 -0.03058203 0.19200000 242 116 94 0.000000
0.03567143 -0.03058203 0.19200000 240 114 92 0.000000
0.03612290 -0.03058203 0.19200000 241 115 93 0.000000
0.03676486 -0.03074131 0.19300000 241 116 91 0.000000
0.03721868 -0.03074131 0.19300000 237 112 87 0.000000
0.03767249 -0.03074131 0.19300000 224 102 76 0.000000
0.03832386 -0.03090059 0.19400001 231 109 83 0.000000
0.03878003 -0.03090059 0.19400001 230 113 85 0.000000
0.03943845 -0.03105987 0.19500001 228 111 83 0.000000
0.03989697 -0.03105987 0.19500001 221 106 78 0.000000
0.04035549 -0.03105987 0.19500001 219 104 76 0.000000
0.04102332 -0.03121916 0.19600001 215 99 74 0.000000
0.04148419 -0.03121916 0.19600001 213 97 72 0.000000
0.04194507 -0.03121916 0.19600001 212 96 71 0.000000
0.04240594 -0.03121916 0.19600001 213 97 72 0.000000
0.04308552 -0.03137844 0.19700001 215 99 74 0.000000
0.04354874 -0.03137844 0.19700001 215 99 74 0.000000
0.04401197 -0.03137844 0.19700001 220 104 81 0.000000
0.04447519 -0.03137844 0.19700001 221 105 82 0.000000
0.04516653 -0.03153772 0.19800001 220 106 82 0.000000
0.04563211 -0.03153772 0.19800001 221 107 83 0.000000
0.04609768 -0.03153772 0.19800001 219 108 85 0.000000
0.04656326 -0.03153772 0.19800001 207 96 73 0.000000
0.04726636 -0.03169700 0.19900002 211 100 77 0.000000
0.04773428 -0.03169700 0.19900002 210 99 72 0.000000
0.04820221 -0.03169700 0.19900002 210 99 72 0.000000
0.04891471 -0.03185628 0.20000000 207 99 71 0.000000
0.04938499 -0.03185628 0.20000000 205 97 69 0.000000
0.04985527 -0.03185628 0.20000000 205 97 71 0.000000
0.05032554 -0.03185628 0.20000000 204 96 70 0.000000
0.05079582 -0.03185628 0.20000000 208 94 72 0.000000
0.05126610 -0.03185628 0.20000000 209 95 73 0.000000
0.05173638 -0.03185628 0.20000000 213 97 74 0.000000
0.05220666 -0.03185628 0.20000000 212 96 73 0.000000
0.05267694 -0.03185628 0.20000000 213 97 72 0.000000
0.05314722 -0.03185628 0.20000000 208 92 67 0.000000
0.05361750 -0.03185628 0.20000000 209 92 64 0.000000
0.05408778 -0.03185628 0.20000000 210 93 65 0.000000
0.05455806 -0.03185628 0.20000000 208 90 65 0.000000
0.05475320 -0.03169700 0.19900002 208 90 65 0.000000
0.05522112 -0.03169700 0.19900002 208 90 67 0.000000
0.05568905 -0.03169700 0.19900002 207 89 66 0.000000
0.05615697 -0.03169700 0.19900002 202 86 63 0.000000
0.05662490 -0.03169700 0.19900002 205 89 66 0.000000
0.05709283 -0.03169700 0.19900002 214 100 78 0.000000
0.05785000 -0.03185628 0.20000000 230 116 94 0.000000
0.05832028 -0.03185628 0.20000000 246 143 120 0.000000
0.05879056 -0.03185628 0.20000000 255 165 142 0.000000
0.05926085 -0.03185628 0.20000000 255 192 161 0.000000
0.05973112 -0.03185628 0.20000000 255 205 174 0.000000
0.06020140 -0.03185628 0.20000000 255 220 180 0.000000
0.06067168 -0.03185628 0.20000000 255 212 172 0.000000
0.06114196 -0.03185628 0.20000000 255 215 176 0.000000
0.06161224 -0.03185628 0.20000000 255 215 176 0.000000
0.06208252 -0.03185628 0.20000000 250 209 172 0.000000
0.06224003 -0.03169700 0.19900002 250 209 172 0.000000
0.06270796 -0.03169700 0.19900002 252 202 170 0.000000
0.06317589 -0.03169700 0.19900002 250 200 168 0.000000
0.06364381 -0.03169700 0.19900002 255 199 179 0.000000
0.07334173 -0.03599760 0.22600001 243 168 162 0.000000
0.07387315 -0.03599760 0.22600001 227 152 146 0.000000
-0.00473401 -0.03515232 0.22400001 98 66 62 0.000000
-0.00420730 -0.03515232 0.22400001 99 67 63 0.000000
-0.00368059 -0.03515232 0.22400001 105 67 58 0.000000
-0.00312572 -0.03483847 0.22200002 104 66 57 0.000000
-0.00259198 -0.03468154 0.22100002 107 62 51 0.000000
-0.00100496 -0.03373995 0.21500000 128 72 60 0.000000
-0.00049476 -0.03342609 0.21300001 131 75 63 0.000000
0.00000600 -0.03295530 0.21000001 137 74 64 0.000000
0.00049741 -0.03279837 0.20900001 141 78 68 0.000000
0.00098412 -0.03264144 0.20800000 146 78 68 0.000000
0.00146613 -0.03248452 0.20700002 150 82 72 0.000000
0.00193400 -0.03217065 0.20500001 159 84 76 0.000000
0.00240425 -0.03201373 0.20400001 165 90 82 0.000000
0.00286980 -0.03185679 0.20300001 170 95 87 0.000000
0.00334713 -0.03185679 0.20300001 173 98 90 0.000000
0.00380562 -0.03169986 0.20200001 176 99 92 0.000000
0.00425941 -0.03154293 0.20100001 177 100 93 0.000000
0.00470850 -0.03138600 0.20000000 180 97 90 0.000000
0.00517878 -0.03138600 0.20000000 185 102 95 0.000000
0.00562081 -0.03122908 0.19900002 194 106 98 0.000000
0.00605814 -0.03107215 0.19800001 194 106 98 0.000000
0.00649077 -0.03091522 0.19700001 210 107 102 0.000000
0.00695400 -0.03091522 0.19700001 209 106 101 0.000000
0.00737957 -0.03075828 0.19600001 209 106 101 0.000000
0.00784044 -0.03075828 0.19600001 247 144 139 0.000000
0.00825896 -0.03060135 0.19500001 255 175 165 0.000000
0.00867278 -0.03044442 0.19400001 255 166 156 0.000000
0.00912895 -0.03044442 0.19400001 255 158 144 0.000000
0.00953571 -0.03028749 0.19300000 247 143 129 0.000000
0.00993777 -0.03013056 0.19200000 249 131 120 0.000000
0.01033513 -0.02997364 0.19100001 245 127 116 0.000000
0.01078425 -0.02997364 0.19100001 249 124 115 0.000000
0.01117455 -0.02981670 0.19000001 249 124 115 0.000000
0.01156015 -0.02965977 0.18900001 251 123 115 0.000000
0.01200456 -0.02965977 0.18900001 250 122 114 0.000000
0.01238311 -0.02950284 0.18800001 250 121 109 0.000000
0.01282517 -0.02950284 0.18800001 249 120 108 0.000000
0.01326723 -0.02950284 0.18800001 250 122 105 0.000000
0.01363637 -0.02934591 0.18700001 249 121 104 0.000000
0.01407608 -0.02934591 0.18700001 248 122 104 0.000000
0.01451579 -0.02934591 0.18700001 250 124 106 0.000000
0.01495550 -0.02934591 0.18700001 248 128 108 0.000000
0.01531289 -0.02918898 0.18600000 252 132 112 0.000000
0.01575025 -0.02918898 0.18600000 247 132 115 0.000000
0.01618761 -0.02918898 0.18600000 250 135 118 0.000000
0.01662496 -0.02918898 0.18600000 253 149 133 0.000000
0.01706233 -0.02918898 0.18600000 255 152 136 0.000000
0.01740560 -0.02903205 0.18500000 253 167 145 0.000000
0.01784061 -0.02903205 0.18500000 255 179 157 0.000000
0.01827562 -0.02903205 0.18500000 255 191 166 0.000000
0.01871062 -0.02903205 0.18500000 255 186 161 0.000000
0.01914563 -0.02903205 0.18500000 252 195 163 0.000000
0.01958064 -0.02903205 0.18500000 255 205 169 0.000000
0.02001565 -0.02903205 0.18500000 255 205 169 0.000000
0.02045066 -0.02903205 0.18500000 255 212 172 0.000000
0.02088566 -0.02903205 0.18500000 255 226 186 0.000000
0.02132067 -0.02903205 0.18500000 255 226 185 0.000000
0.02175568 -0.02903205 0.18500000 255 226 185 0.000000
0.02219069 -0.02903205 0.18500000 255 224 184 0.000000
0.02262569 -0.02903205 0.18500000 255 222 182 0.000000
0.02318536 -0.02918898 0.18600000 255 220 185 0.000000
0.02362271 -0.02918898 0.18600000 255 214 179 0.000000
0.02406007 -0.02918898 0.18600000 255 200 169 0.000000
0.02462914 -0.02934591 0.18700001 255 184 153 0.000000
0.02506885 -0.02934591 0.18700001 255 162 134 0.000000
0.02550856 -0.02934591 0.18700001 235 139 111 0.000000
0.02594827 -0.02934591 0.18700001 230 118 98 0.000000
0.02638798 -0.02934591 0.18700001 227 115 95 0.000000
0.02682769 -0.02934591 0.18700001 231 110 93 0.000000
0.02726740 -0.02934591 0.18700001 227 106 89 0.000000
0.02770711 -0.02934591 0.18700001 228 105 86 0.000000
0.02814683 -0.02934591 0.18700001 232 109 90 0.000000
0.02873941 -0.02950284 0.18800001 237 111 91 0.000000
0.02933669 -0.02965977 0.18900001 235 109 89 0.000000
0.02978110 -0.02965977 0.18900001 237 111 91 0.000000
0.03038544 -0.02981670 0.19000001 230 104 84 0.000000
0.03083220 -0.02981670 0.19000001 223 97 77 0.000000
0.03144360 -0.02997364 0.19100001 220 94 74 0.000000
0.03189271 -0.02997364 0.19100001 219 99 79 0.000000
0.03251116 -0.03013056 0.19200000 223 103 83 0.000000
0.03296262 -0.03013056 0.19200000 225 105 85 0.000000
0.03341409 -0.03013056 0.19200000 226 106 86 0.000000
0.03386556 -0.03013056 0.19200000 230 110 88 0.000000
0.03431703 -0.03013056 0.19200000 231 111 89 0.000000
0.03476849 -0.03013056 0.19200000 225 105 83 0.000000
0.03540340 -0.03028749 0.19300000 230 110 88 0.000000
0.03585722 -0.03028749 0.19300000 230 110 88 0.000000
0.03631104 -0.03028749 0.19300000 231 111 89 0.000000
0.03676486 -0.03028749 0.19300000 229 109 85 0.000000
0.03741152 -0.03044442 0.19400001 217 97 73 0.000000
0.03786769 -0.03044442 0.19400001 218 100 75 0.000000
0.03852141 -0.03060135 0.19500001 214 96 71 0.000000
0.03897993 -0.03060135 0.19500001 208 92 67 0.000000
0.03943845 -0.03060135 0.19500001 216 100 75 0.000000
0.04010157 -0.03075828 0.19600001 211 100 73 0.000000
0.04056244 -0.03075828 0.19600001 212 101 74 0.000000
0.04123262 -0.03091522 0.19700001 209 98 71 0.000000
0.04169584 -0.03091522 0.19700001 206 95 68 0.000000
0.04215907 -0.03091522 0.19700001 206 95 70 0.000000
0.04262229 -0.03091522 0.19700001 209 98 73 0.000000
0.04308552 -0.03091522 0.19700001 209 98 73 0.000000
0.04376981 -0.03107215 0.19800001 211 100 75 0.000000
0.04423538 -0.03107215 0.19800001 213 102 79 0.000000
0.04470095 -0.03107215 0.19800001 218 107 84 0.000000
0.04539465 -0.03122908 0.19900002 220 105 86 0.000000
0.04586257 -0.03122908 0.19900002 226 111 92 0.000000
0.04633050 -0.03122908 0.19900002 227 115 97 0.000000
0.04679843 -0.03122908 0.19900002 200 88 68 0.000000
0.04750387 -0.03138600 0.20000000 203 91 71 0.000000
0.04797415 -0.03138600 0.20000000 204 98 71 0.000000
0.04844443 -0.03138600 0.20000000 206 100 73 0.000000
0.04891471 -0.03138600 0.20000000 200 96 67 0.000000
0.04963191 -0.03154293 0.20100001 201 97 68 0.000000
0.05010454 -0.03154293 0.20100001 202 96 69 0.000000
0.05057717 -0.03154293 0.20100001 203 97 70 0.000000
0.05104980 -0.03154293 0.20100001 204 95 74 0.000000
0.05152244 -0.03154293 0.20100001 207 98 77 0.000000
0.05199506 -0.03154293 0.20100001 212 98 74 0.000000
0.05246769 -0.03154293 0.20100001 211 97 73 0.000000
0.05294033 -0.03154293 0.20100001 211 97 71 0.000000
0.05341296 -0.03154293 0.20100001 207 93 67 0.000000
0.05388558 -0.03154293 0.20100001 206 91 63 0.000000
0.05435822 -0.03154293 0.20100001 205 90 62 0.000000
0.05483085 -0.03154293 0.20100001 206 91 63 0.000000
0.05502833 -0.03138600 0.20000000 205 90 62 0.000000
0.05549861 -0.03138600 0.20000000 206 90 65 0.000000
0.05596889 -0.03138600 0.20000000 205 89 64 0.000000
0.05643917 -0.03138600 0.20000000 200 84 61 0.000000
0.05719400 -0.03154293 0.20100001 201 85 62 0.000000
0.05766663 -0.03154293 0.20100001 201 85 64 0.000000
0.05813925 -0.03154293 0.20100001 202 86 65 0.000000
0.05861189 -0.03154293 0.20100001 202 88 66 0.000000
0.05908452 -0.03154293 0.20100001 232 118 96 0.000000
0.05955715 -0.03154293 0.20100001 246 149 124 0.000000
0.06032843 -0.03169986 0.20200001 255 176 151 0.000000
0.06050241 -0.03154293 0.20100001 255 200 167 0.000000
0.06097504 -0.03154293 0.20100001 255 209 176 0.000000
0.06144767 -0.03154293 0.20100001 255 217 181 0.000000
0.06192030 -0.03154293 0.20100001 255 211 175 0.000000
0.06208252 -0.03138600 0.20000000 254 209 171 0.000000
0.06255279 -0.03138600 0.20000000 250 205 167 0.000000
0.06302308 -0.03138600 0.20000000 253 203 169 0.000000
0.06349336 -0.03138600 0.20000000 248 198 164 0.000000
0.06396363 -0.03138600 0.20000000 250 189 163 0.000000
0.06443391 -0.03138600 0.20000000 255 195 169 0.000000
0.07321940 -0.03515232 0.22400001 244 172 161 0.000000
-0.00528421 -0.03478019 0.22500001 88 68 71 0.000000
-0.00473401 -0.03462561 0.22400001 100 68 64 0.000000
-0.00420730 -0.03462561 0.22400001 99 67 63 0.000000
-0.00368059 -0.03462561 0.22400001 104 68 58 0.000000
-0.00313980 -0.03447103 0.22300000 102 66 56 0.000000
-0.00259198 -0.03416188 0.22100002 106 61 50 0.000000
-0.00205357 -0.03385272 0.21900001 109 64 53 0.000000
-0.00100963 -0.03338898 0.21600001 128 71 62 0.000000
-0.00049476 -0.03292525 0.21300001 131 74 65 0.000000
0.00000603 -0.03261609 0.21100001 135 75 64 0.000000
0.00049741 -0.03230693 0.20900001 138 78 67 0.000000
0.00098412 -0.03215235 0.20800000 145 80 69 0.000000
0.00146613 -0.03199777 0.20700002 148 83 72 0.000000
0.00193400 -0.03168862 0.20500001 159 87 78 0.000000
0.00240425 -0.03153404 0.20400001 162 90 81 0.000000
0.00286980 -0.03137946 0.20300001 169 94 86 0.000000
0.00333064 -0.03122488 0.20200001 173 98 90 0.000000
0.00380562 -0.03122488 0.20200001 178 98 92 0.000000
0.00425941 -0.03107030 0.20100001 180 100 94 0.000000
0.00470850 -0.03091572 0.20000000 183 100 93 0.000000
0.00515289 -0.03076115 0.19900002 188 105 98 0.000000
0.00562081 -0.03076115 0.19900002 196 104 100 0.000000
0.00605814 -0.03060657 0.19800001 197 105 101 0.000000
0.00649077 -0.03045199 0.19700001 205 102 99 0.000000
0.00695400 -0.03045199 0.19700001 209 106 103 0.000000
0.00737957 -0.03029741 0.19600001 251 153 146 0.000000
0.00780044 -0.03014283 0.19500001 255 173 166 0.000000
0.00825896 -0.03014283 0.19500001 255 173 163 0.000000
0.00867278 -0.02998825 0.19400001 255 161 151 0.000000
0.00912895 -0.02998825 0.19400001 253 143 131 0.000000
0.00953571 -0.02983367 0.19300000 241 131 119 0.000000
0.00993777 -0.02967909 0.19200000 253 131 121 0.000000
0.01038924 -0.02967909 0.19200000 248 126 116 0.000000
0.01078425 -0.02952452 0.19100001 249 121 111 0.000000
0.01117455 -0.02936994 0.19000001 252 124 114 0.000000
0.01162131 -0.02936994 0.19000001 252 123 111 0.000000
0.01200456 -0.02921536 0.18900001 251 122 110 0.000000
0.01244898 -0.02921536 0.18900001 251 120 108 0.000000
0.01282517 -0.02906078 0.18800001 251 120 108 0.000000
0.01326723 -0.02906078 0.18800001 251 122 108 0.000000
0.01370929 -0.02906078 0.18800001 252 123 109 0.000000
0.01407608 -0.02890620 0.18700001 249 128 111 0.000000
0.01451579 -0.02890620 0.18700001 255 134 117 0.000000
0.01495550 -0.02890620 0.18700001 251 142 123 0.000000
0.01539521 -0.02890620 0.18700001 250 141 122 0.000000
0.01575025 -0.02875162 0.18600000 247 149 131 0.000000
0.01618761 -0.02875162 0.18600000 255 158 140 0.000000
0.01662496 -0.02875162 0.18600000 249 169 145 0.000000
0.01706233 -0.02875162 0.18600000 255 181 157 0.000000
0.01749969 -0.02875162 0.18600000 255 192 164 0.000000
0.01793704 -0.02875162 0.18600000 255 194 166 0.000000
0.01837440 -0.02875162 0.18600000 255 203 170 0.000000
0.01881176 -0.02875162 0.18600000 255 211 178 0.000000
0.01924912 -0.02875162 0.18600000 255 215 181 0.000000
0.01968648 -0.02875162 0.18600000 255 222 183 0.000000
0.02012384 -0.02875162 0.18600000 255 223 184 0.000000
0.02056120 -0.02875162 0.18600000 255 216 178 0.000000
0.02099856 -0.02875162 0.18600000 255 218 180 0.000000
0.02143592 -0.02875162 0.18600000 255 215 178 0.000000
0.02187328 -0.02875162 0.18600000 255 202 165 0.000000
0.02243059 -0.02890620 0.18700001 255 180 147 0.000000
0.02287030 -0.02890620 0.18700001 246 159 126 0.000000
0.02331001 -0.02890620 0.18700001 245 139 114 0.000000
0.02387672 -0.02906078 0.18800001 231 125 100 0.000000
0.02431879 -0.02906078 0.18800001 224 108 87 0.000000
0.02476085 -0.02906078 0.18800001 222 106 85 0.000000
0.02520291 -0.02906078 0.18800001 225 102 83 0.000000
0.02564497 -0.02906078 0.18800001 229 106 87 0.000000
0.02608703 -0.02906078 0.18800001 234 108 90 0.000000
0.02652910 -0.02906078 0.18800001 236 110 92 0.000000
0.02697116 -0.02906078 0.18800001 239 109 92 0.000000
0.02741322 -0.02906078 0.18800001 240 110 93 0.000000
0.02785528 -0.02906078 0.18800001 242 116 98 0.000000
0.02844786 -0.02921536 0.18900001 249 123 105 0.000000
0.02889228 -0.02921536 0.18900001 247 124 105 0.000000
0.02949191 -0.02936994 0.19000001 251 128 109 0.000000
0.03009625 -0.02952452 0.19100001 243 120 101 0.000000
0.03054536 -0.02952452 0.19100001 242 119 100 0.000000
0.03115675 -0.02967909 0.19200000 236 113 94 0.000000
0.03160822 -0.02967909 0.19200000 224 101 82 0.000000
0.03222667 -0.02983367 0.19300000 218 94 78 0.000000
0.03268049 -0.02983367 0.19300000 219 95 79 0.000000
0.03313430 -0.02983367 0.19300000 218 99 83 0.000000
0.03358812 -0.02983367 0.19300000 222 103 87 0.000000
0.03404194 -0.02983367 0.19300000 222 105 87 0.000000
0.03449576 -0.02983367 0.19300000 226 109 91 0.000000
0.03494958 -0.02983367 0.19300000 224 107 89 0.000000
0.03540340 -0.02983367 0.19300000 221 104 86 0.000000
0.03604301 -0.02998825 0.19400001 224 107 89 0.000000
0.03649918 -0.02998825 0.19400001 224 107 89 0.000000
0.03695535 -0.02998825 0.19400001 224 107 89 0.000000
0.03741152 -0.02998825 0.19400001 222 105 87 0.000000
0.03806288 -0.03014283 0.19500001 221 107 85 0.000000
0.03852141 -0.03014283 0.19500001 216 102 80 0.000000
0.03897993 -0.03014283 0.19500001 208 100 76 0.000000
0.03964070 -0.03029741 0.19600001 203 95 71 0.000000
0.04010157 -0.03029741 0.19600001 200 95 73 0.000000
0.04076939 -0.03045199 0.19700001 200 95 73 0.000000
0.04123262 -0.03045199 0.19700001 200 96 71 0.000000
0.04169584 -0.03045199 0.19700001 199 95 70 0.000000
0.04215907 -0.03045199 0.19700001 197 95 69 0.000000
0.04262229 -0.03045199 0.19700001 199 97 71 0.000000
0.04330423 -0.03060657 0.19800001 201 98 75 0.000000
0.04376981 -0.03060657 0.19800001 205 102 79 0.000000
0.04423538 -0.03060657 0.19800001 208 99 80 0.000000
0.04492672 -0.03076115 0.19900002 214 105 86 0.000000
0.04539465 -0.03076115 0.19900002 231 119 101 0.000000
0.04586257 -0.03076115 0.19900002 236 124 106 0.000000
0.04656332 -0.03091572 0.20000000 236 123 108 0.000000
0.04703359 -0.03091572 0.20000000 223 113 97 0.000000
0.04750387 -0.03091572 0.20000000 205 95 79 0.000000
0.04797415 -0.03091572 0.20000000 201 97 72 0.000000
0.04868665 -0.03107030 0.20100001 200 96 71 0.000000
0.04915928 -0.03107030 0.20100001 199 97 71 0.000000
0.04963191 -0.03107030 0.20100001 199 97 71 0.000000
0.05010454 -0.03107030 0.20100001 199 95 70 0.000000
0.05057717 -0.03107030 0.20100001 200 96 71 0.000000
0.05104980 -0.03107030 0.20100001 203 97 72 0.000000
0.05152244 -0.03107030 0.20100001 206 100 75 0.000000
0.05199506 -0.03107030 0.20100001 204 96 70 0.000000
0.05246769 -0.03107030 0.20100001 205 97 71 0.000000
0.05294033 -0.03107030 0.20100001 207 96 69 0.000000
0.05341296 -0.03107030 0.20100001 202 91 64 0.000000
0.05388558 -0.03107030 0.20100001 202 89 60 0.000000
0.05435822 -0.03107030 0.20100001 202 89 60 0.000000
0.05483085 -0.03107030 0.20100001 205 90 62 0.000000
0.05530347 -0.03107030 0.20100001 203 88 60 0.000000
0.05549861 -0.03091572 0.20000000 202 86 61 0.000000
0.05624874 -0.03107030 0.20100001 202 86 61 0.000000
0.05672136 -0.03107030 0.20100001 201 85 62 0.000000
0.05747854 -0.03122488 0.20200001 202 86 63 0.000000
0.05795353 -0.03122488 0.20200001 200 84 63 0.000000
0.05842850 -0.03122488 0.20200001 195 79 58 0.000000
0.05890349 -0.03122488 0.20200001 180 71 52 0.000000
0.05937847 -0.03122488 0.20200001 180 71 52 0.000000
0.05985346 -0.03122488 0.20200001 187 89 69 0.000000
0.06062709 -0.03137946 0.20300001 217 119 99 0.000000
0.06080342 -0.03122488 0.20200001 254 163 138 0.000000
0.06097504 -0.03107030 0.20100001 255 179 154 0.000000
0.06144767 -0.03107030 0.20100001 255 200 168 0.000000
0.06192030 -0.03107030 0.20100001 255 205 173 0.000000
0.06239293 -0.03107030 0.20100001 255 205 170 0.000000
0.06286556 -0.03107030 0.20100001 255 202 167 0.000000
0.06302308 -0.03091572 0.20000000 255 201 166 0.000000
0.06381082 -0.03107030 0.20100001 252 197 162 0.000000
0.06396363 -0.03091572 0.20000000 253 191 163 0.000000
0.06475608 -0.03107030 0.20100001 248 186 158 0.000000
0.07374611 -0.03462561 0.22400001 210 140 140 0.000000
-0.00528421 -0.03425113 0.22500001 87 70 72 0.000000
-0.00475515 -0.03425113 0.22500001 101 71 66 0.000000
-0.00422608 -0.03425113 0.22500001 98 68 63 0.000000
-0.00369702 -0.03425113 0.22500001 102 66 56 0.000000
-0.00313980 -0.03394667 0.22300000 103 67 57 0.000000
-0.00259198 -0.03364222 0.22100002 105 63 51 0.000000
-0.00206294 -0.03348999 0.22000001 107 65 53 0.000000
-0.00100963 -0.03288108 0.21600001 126 72 62 0.000000
-0.00049476 -0.03242440 0.21300001 127 73 63 0.000000
0.00000603 -0.03211994 0.21100001 133 73 62 0.000000
0.00049741 -0.03181549 0.20900001 139 79 68 0.000000
0.00098412 -0.03166326 0.20800000 144 79 68 0.000000
0.00146613 -0.03151104 0.20700002 145 80 69 0.000000
0.00193400 -0.03120658 0.20500001 157 85 76 0.000000
0.00240425 -0.03105436 0.20400001 161 89 80 0.000000
0.00286980 -0.03090213 0.20300001 169 92 85 0.000000
0.00333064 -0.03074990 0.20200001 172 95 88 0.000000
0.00378678 -0.03059767 0.20100001 178 95 88 0.000000
0.00425941 -0.03059767 0.20100001 181 98 91 0.000000
0.00470850 -0.03044545 0.20000000 185 101 96 0.000000
0.00515289 -0.03029322 0.19900002 190 106 101 0.000000
0.00562081 -0.03029322 0.19900002 197 102 101 0.000000
0.00605814 -0.03014099 0.19800001 196 101 100 0.000000
0.00649077 -0.02998876 0.19700001 205 106 104 0.000000
0.00695400 -0.02998876 0.19700001 255 157 155 0.000000
0.00737957 -0.02983654 0.19600001 255 182 176 0.000000
0.00784044 -0.02983654 0.19600001 255 177 171 0.000000
0.00825896 -0.02968431 0.19500001 255 157 147 0.000000
0.00867278 -0.02953208 0.19400001 252 150 140 0.000000
0.00912895 -0.02953208 0.19400001 252 134 125 0.000000
0.00953571 -0.02937985 0.19300000 246 128 119 0.000000
0.00993777 -0.02922763 0.19200000 252 124 116 0.000000
0.01038924 -0.02922763 0.19200000 251 123 115 0.000000
0.01078425 -0.02907540 0.19100001 249 120 108 0.000000
0.01123336 -0.02907540 0.19100001 250 121 109 0.000000
0.01162131 -0.02892317 0.19000001 253 122 110 0.000000
0.01206808 -0.02892317 0.19000001 249 118 106 0.000000
0.01244898 -0.02877095 0.18900001 249 120 106 0.000000
0.01289339 -0.02877095 0.18900001 252 123 109 0.000000
0.01326723 -0.02861872 0.18800001 251 132 114 0.000000
0.01370929 -0.02861872 0.18800001 255 139 121 0.000000
0.01415136 -0.02861872 0.18800001 255 150 130 0.000000
0.01459342 -0.02861872 0.18800001 254 147 127 0.000000
0.01495550 -0.02846649 0.18700001 247 158 137 0.000000
0.01539521 -0.02846649 0.18700001 255 170 149 0.000000
0.01583493 -0.02846649 0.18700001 255 187 161 0.000000
0.01627464 -0.02846649 0.18700001 255 184 158 0.000000
0.01671435 -0.02846649 0.18700001 255 196 164 0.000000
0.01715406 -0.02846649 0.18700001 255 206 174 0.000000
0.01759377 -0.02846649 0.18700001 255 209 176 0.000000
0.01803348 -0.02846649 0.18700001 255 210 177 0.000000
0.01847319 -0.02846649 0.18700001 255 212 179 0.000000
0.01891290 -0.02846649 0.18700001 255 215 182 0.000000
0.01935261 -0.02846649 0.18700001 255 219 183 0.000000
0.01979232 -0.02846649 0.18700001 255 212 179 0.000000
0.02023203 -0.02846649 0.18700001 255 202 169 0.000000
0.02067174 -0.02846649 0.18700001 255 180 150 0.000000
0.02111145 -0.02846649 0.18700001 245 155 125 0.000000
0.02166641 -0.02861872 0.18800001 238 132 105 0.000000
0.02210847 -0.02861872 0.18800001 223 117 90 0.000000
0.02355931 -0.02877095 0.18900001 226 106 86 0.000000
0.02400373 -0.02877095 0.18900001 224 104 84 0.000000
0.02457750 -0.02892317 0.19000001 224 98 80 0.000000
0.02502426 -0.02892317 0.19000001 228 102 84 0.000000
0.02547103 -0.02892317 0.19000001 221 98 79 0.000000
0.02591779 -0.02892317 0.19000001 222 99 80 0.000000
0.02636456 -0.02892317 0.19000001 229 103 85 0.000000
0.02681132 -0.02892317 0.19000001 229 103 85 0.000000
0.02770485 -0.02892317 0.19000001 249 120 106 0.000000
0.02815162 -0.02892317 0.19000001 251 124 109 0.000000
0.02859838 -0.02892317 0.19000001 253 126 111 0.000000
0.02919802 -0.02907540 0.19100001 254 131 112 0.000000
0.02964713 -0.02907540 0.19100001 255 133 114 0.000000
0.03025382 -0.02922763 0.19200000 254 131 112 0.000000
0.03086521 -0.02937985 0.19300000 253 130 111 0.000000
0.03131903 -0.02937985 0.19300000 253 129 113 0.000000
0.03193747 -0.02953208 0.19400001 246 122 106 0.000000
0.03239365 -0.02953208 0.19400001 220 99 84 0.000000
0.03284981 -0.02953208 0.19400001 210 89 74 0.000000
0.03330598 -0.02953208 0.19400001 207 90 74 0.000000
0.03376215 -0.02953208 0.19400001 207 90 74 0.000000
0.03421832 -0.02953208 0.19400001 209 99 83 0.000000
0.03467450 -0.02953208 0.19400001 212 102 86 0.000000
0.03513066 -0.02953208 0.19400001 215 106 87 0.000000
0.03558684 -0.02953208 0.19400001 215 106 87 0.000000
0.03604301 -0.02953208 0.19400001 219 107 89 0.000000
0.03649918 -0.02953208 0.19400001 217 105 87 0.000000
0.03695535 -0.02953208 0.19400001 221 106 89 0.000000
0.03760436 -0.02968431 0.19500001 229 114 97 0.000000
0.03806288 -0.02968431 0.19500001 225 112 97 0.000000
0.03852141 -0.02968431 0.19500001 226 113 98 0.000000
0.03917982 -0.02983654 0.19600001 215 107 90 0.000000
0.03964070 -0.02983654 0.19600001 207 99 82 0.000000
0.04030617 -0.02998876 0.19700001 195 95 73 0.000000
0.04076939 -0.02998876 0.19700001 194 94 72 0.000000
0.04123262 -0.02998876 0.19700001 193 96 71 0.000000
0.04169584 -0.02998876 0.19700001 193 96 71 0.000000
0.04215907 -0.02998876 0.19700001 193 96 71 0.000000
0.04283865 -0.03014099 0.19800001 195 98 73 0.000000
0.04330423 -0.03014099 0.19800001 199 99 77 0.000000
0.04376981 -0.03014099 0.19800001 203 103 81 0.000000
0.04423538 -0.03014099 0.19800001 218 111 91 0.000000
0.04492672 -0.03029322 0.19900002 222 115 95 0.000000
0.04539465 -0.03029322 0.19900002 241 125 111 0.000000
0.04586257 -0.03029322 0.19900002 247 131 117 0.000000
0.04656332 -0.03044545 0.20000000 252 139 124 0.000000
0.04703359 -0.03044545 0.20000000 239 129 115 0.000000
0.04750387 -0.03044545 0.20000000 214 104 90 0.000000
0.04821402 -0.03059767 0.20100001 193 90 69 0.000000
0.04868665 -0.03059767 0.20100001 198 95 74 0.000000
0.04915928 -0.03059767 0.20100001 199 96 73 0.000000
0.04963191 -0.03059767 0.20100001 198 95 72 0.000000
0.05010454 -0.03059767 0.20100001 198 95 72 0.000000
0.05082880 -0.03074990 0.20200001 201 98 75 0.000000
0.05130378 -0.03074990 0.20200001 202 98 73 0.000000
0.05177877 -0.03074990 0.20200001 205 101 76 0.000000
0.05225375 -0.03074990 0.20200001 204 98 69 0.000000
0.05272873 -0.03074990 0.20200001 204 98 69 0.000000
0.05320371 -0.03074990 0.20200001 204 96 68 0.000000
0.05367870 -0.03074990 0.20200001 201 93 65 0.000000
0.05415367 -0.03074990 0.20200001 199 89 59 0.000000
0.05462866 -0.03074990 0.20200001 199 89 59 0.000000
0.05510364 -0.03074990 0.20200001 200 90 60 0.000000
0.05530347 -0.03059767 0.20100001 200 90 60 0.000000
0.05605360 -0.03074990 0.20200001 200 86 60 0.000000
0.05680843 -0.03090213 0.20300001 199 85 59 0.000000
0.05728576 -0.03090213 0.20300001 200 86 62 0.000000
0.05804764 -0.03105436 0.20400001 199 85 61 0.000000
0.05852733 -0.03105436 0.20400001 193 81 61 0.000000
0.05900701 -0.03105436 0.20400001 190 78 58 0.000000
0.05948669 -0.03105436 0.20400001 178 72 57 0.000000
0.05996638 -0.03105436 0.20400001 171 65 50 0.000000
0.06044606 -0.03105436 0.20400001 155 62 44 0.000000
0.06062709 -0.03090213 0.20300001 157 64 46 0.000000
0.06080342 -0.03074990 0.20200001 176 87 68 0.000000
0.06127840 -0.03074990 0.20200001 209 120 101 0.000000
0.06175338 -0.03074990 0.20200001 246 160 136 0.000000
0.06192030 -0.03059767 0.20100001 255 184 160 0.000000
0.06239293 -0.03059767 0.20100001 255 196 162 0.000000
0.06286556 -0.03059767 0.20100001 255 200 166 0.000000
0.06333819 -0.03059767 0.20100001 255 197 162 0.000000
0.06381082 -0.03059767 0.20100001 255 194 159 0.000000
0.06428345 -0.03059767 0.20100001 255 187 159 0.000000
0.06507825 -0.03074990 0.20200001 248 179 151 0.000000
0.06555323 -0.03074990 0.20200001 251 173 153 0.000000
0.07275845 -0.03364222 0.22100002 242 170 163 0.000000
-0.00475515 -0.03372206 0.22500001 103 75 72 0.000000
-0.00422608 -0.03372206 0.22500001 102 74 71 0.000000
-0.00369702 -0.03372206 0.22500001 101 66 61 0.000000
-0.00313980 -0.03342231 0.22300000 99 64 59 0.000000
-0.00260371 -0.03327243 0.22200002 105 62 55 0.000000
-0.00206294 -0.03297268 0.22000001 106 63 56 0.000000
-0.00100963 -0.03237318 0.21600001 126 72 62 0.000000
-0.00049709 -0.03207343 0.21400002 128 74 64 0.000000
0.00000603 -0.03162380 0.21100001 133 75 61 0.000000
0.00049741 -0.03132405 0.20900001 137 79 65 0.000000
0.00098412 -0.03117417 0.20800000 141 78 66 0.000000
0.00146613 -0.03102430 0.20700002 144 81 69 0.000000
0.00193400 -0.03072454 0.20500001 156 84 75 0.000000
0.00240425 -0.03057467 0.20400001 161 89 80 0.000000
0.00286980 -0.03042479 0.20300001 169 92 83 0.000000
0.00333064 -0.03027492 0.20200001 170 93 84 0.000000
0.00378678 -0.03012504 0.20100001 177 94 87 0.000000
0.00423822 -0.02997516 0.20000000 181 98 91 0.000000
0.00470850 -0.02997516 0.20000000 187 100 94 0.000000
0.00515289 -0.02982529 0.19900002 191 104 98 0.000000
0.00559257 -0.02967541 0.19800001 201 105 102 0.000000
0.00605814 -0.02967541 0.19800001 213 117 114 0.000000
0.00649077 -0.02952554 0.19700001 247 151 148 0.000000
0.00695400 -0.02952554 0.19700001 255 180 177 0.000000
0.00737957 -0.02937566 0.19600001 255 175 168 0.000000
0.00784044 -0.02937566 0.19600001 255 161 154 0.000000
0.00825896 -0.02922579 0.19500001 251 142 134 0.000000
0.00867278 -0.02907591 0.19400001 247 138 130 0.000000
0.00912895 -0.02907591 0.19400001 247 122 115 0.000000
0.00953571 -0.02892603 0.19300000 248 123 116 0.000000
0.00998953 -0.02892603 0.19300000 250 122 114 0.000000
0.01038924 -0.02877616 0.19200000 250 122 114 0.000000
0.01078425 -0.02862628 0.19100001 251 122 108 0.000000
0.01123336 -0.02862628 0.19100001 247 118 104 0.000000
0.01168248 -0.02862628 0.19100001 246 119 104 0.000000
0.01206808 -0.02847641 0.19000001 248 121 106 0.000000
0.01251484 -0.02847641 0.19000001 242 125 107 0.000000
0.01289339 -0.02832653 0.18900001 255 138 120 0.000000
0.01333780 -0.02832653 0.18900001 247 142 120 0.000000
0.01378222 -0.02832653 0.18900001 255 150 128 0.000000
0.01422663 -0.02832653 0.18900001 255 170 144 0.000000
0.01467104 -0.02832653 0.18900001 255 173 147 0.000000
0.01511546 -0.02832653 0.18900001 255 189 161 0.000000
0.01547754 -0.02817666 0.18800001 255 201 173 0.000000
0.01600428 -0.02832653 0.18900001 255 210 177 0.000000
0.01644870 -0.02832653 0.18900001 255 214 181 0.000000
0.01689311 -0.02832653 0.18900001 255 216 182 0.000000
0.01733752 -0.02832653 0.18900001 255 213 179 0.000000
0.01778194 -0.02832653 0.18900001 255 208 177 0.000000
0.01822635 -0.02832653 0.18900001 255 210 179 0.000000
0.01867077 -0.02832653 0.18900001 255 204 176 0.000000
0.01911518 -0.02832653 0.18900001 255 191 163 0.000000
0.01955959 -0.02832653 0.18900001 255 172 150 0.000000
0.02000401 -0.02832653 0.18900001 234 129 107 0.000000
0.02044842 -0.02832653 0.18900001 223 118 96 0.000000
0.02089283 -0.02832653 0.18900001 231 108 87 0.000000
0.02133725 -0.02832653 0.18900001 228 105 84 0.000000
0.02178166 -0.02832653 0.18900001 231 101 80 0.000000
0.02234367 -0.02847641 0.19000001 225 95 74 0.000000
0.02323720 -0.02847641 0.19000001 227 99 80 0.000000
0.02380862 -0.02862628 0.19100001 230 104 84 0.000000
0.02425773 -0.02862628 0.19100001 230 104 84 0.000000
0.02470685 -0.02862628 0.19100001 226 103 84 0.000000
0.02515597 -0.02862628 0.19100001 224 101 82 0.000000
0.02560509 -0.02862628 0.19100001 221 98 79 0.000000
0.02605420 -0.02862628 0.19100001 225 102 83 0.000000
0.02650332 -0.02862628 0.19100001 228 102 84 0.000000
0.02695243 -0.02862628 0.19100001 242 116 98 0.000000
0.02799648 -0.02877616 0.19200000 255 131 113 0.000000
0.02829978 -0.02862628 0.19100001 253 132 115 0.000000
0.02889941 -0.02877616 0.19200000 253 132 115 0.000000
0.02935088 -0.02877616 0.19200000 255 136 118 0.000000
0.02995757 -0.02892603 0.19300000 255 138 120 0.000000
0.03041139 -0.02892603 0.19300000 254 135 117 0.000000
0.03102513 -0.02907591 0.19400001 253 134 116 0.000000
0.03148130 -0.02907591 0.19400001 252 133 117 0.000000
0.03193747 -0.02907591 0.19400001 255 136 120 0.000000
0.03239365 -0.02907591 0.19400001 253 132 117 0.000000
0.03301914 -0.02922579 0.19500001 230 109 94 0.000000
0.03347767 -0.02922579 0.19500001 200 82 69 0.000000
0.03376215 -0.02907591 0.19400001 203 85 72 0.000000
0.03421832 -0.02907591 0.19400001 200 94 79 0.000000
0.03467450 -0.02907591 0.19400001 201 95 80 0.000000
0.05177877 -0.03027492 0.20200001 204 100 75 0.000000
0.05225375 -0.03027492 0.20200001 206 100 71 0.000000
0.05272873 -0.03027492 0.20200001 204 98 69 0.000000
0.05346709 -0.03042479 0.20300001 201 95 66 0.000000
0.05394443 -0.03042479 0.20300001 199 93 64 0.000000
0.05442176 -0.03042479 0.20300001 197 89 61 0.000000
0.05462866 -0.03027492 0.20200001 200 92 64 0.000000
0.05537643 -0.03042479 0.20300001 197 89 61 0.000000
0.05585376 -0.03042479 0.20300001 196 88 60 0.000000
0.05660859 -0.03057467 0.20400001 195 87 61 0.000000
0.05736812 -0.03072454 0.20500001 195 87 61 0.000000
0.05813235 -0.03087442 0.20600002 197 86 61 0.000000
0.05861674 -0.03087442 0.20600002 193 82 57 0.000000
0.05938802 -0.03102430 0.20700002 190 81 60 0.000000
0.06103176 -0.03162380 0.21100001 184 75 54 0.000000
0.06211111 -0.03192355 0.21300001 175 74 59 0.000000
0.06261195 -0.03192355 0.21300001 166 65 50 0.000000
0.06311280 -0.03192355 0.21300001 148 59 40 0.000000
0.06301633 -0.03162380 0.21100001 144 55 36 0.000000
0.06110442 -0.03042479 0.20300001 133 48 30 0.000000
0.06127840 -0.03027492 0.20200001 135 50 32 0.000000
0.06175338 -0.03027492 0.20200001 163 77 57 0.000000
0.06222836 -0.03027492 0.20200001 215 129 109 0.000000
0.06270334 -0.03027492 0.20200001 255 170 146 0.000000
0.06286556 -0.03012504 0.20100001 255 186 162 0.000000
0.06333819 -0.03012504 0.20100001 255 192 162 0.000000
0.06412829 -0.03027492 0.20200001 255 185 155 0.000000
0.06460327 -0.03027492 0.20200001 255 185 157 0.000000
0.06540042 -0.03042479 0.20300001 252 178 150 0.000000
0.06587776 -0.03042479 0.20300001 249 172 149 0.000000
0.07327811 -0.03312256 0.22100002 223 143 135 0.000000
-0.00581327 -0.03319300 0.22500001 61 48 54 0.000000
-0.00528421 -0.03319300 0.22500001 86 73 79 0.000000
-0.00475515 -0.03319300 0.22500001 105 82 81 0.000000
-0.00422608 -0.03319300 0.22500001 103 80 79 0.000000
-0.00368059 -0.03304547 0.22400001 102 67 64 0.000000
-0.00313980 -0.03289795 0.22300000 97 62 59 0.000000
-0.00260371 -0.03275043 0.22200002 106 63 58 0.000000
-0.00206294 -0.03245538 0.22000001 115 66 56 0.000000
-0.00100963 -0.03186528 0.21600001 123 70 57 0.000000
-0.00049709 -0.03157023 0.21400002 128 75 62 0.000000
0.00000605 -0.03127518 0.21200001 134 74 61 0.000000
0.00049741 -0.03083261 0.20900001 138 78 65 0.000000
0.00145904 -0.03039004 0.20600002 146 83 71 0.000000
0.00193400 -0.03024251 0.20500001 155 83 72 0.000000
0.00240425 -0.03009498 0.20400001 159 87 76 0.000000
0.00285566 -0.02979994 0.20200001 166 90 78 0.000000
0.00333064 -0.02979994 0.20200001 172 96 84 0.000000
0.00378678 -0.02965241 0.20100001 180 98 88 0.000000
0.00423822 -0.02950489 0.20000000 185 103 93 0.000000
0.00468496 -0.02935736 0.19900002 193 98 95 0.000000
0.00515289 -0.02935736 0.19900002 191 96 93 0.000000
0.00559257 -0.02920984 0.19800001 193 98 92 0.000000
0.00605814 -0.02920984 0.19800001 237 142 136 0.000000
0.00649077 -0.02906231 0.19700001 255 175 169 0.000000
0.00695400 -0.02906231 0.19700001 255 174 168 0.000000
0.00737957 -0.02891479 0.19600001 255 158 153 0.000000
0.00784044 -0.02891479 0.19600001 251 148 143 0.000000
0.00825896 -0.02876727 0.19500001 244 125 119 0.000000
0.00867278 -0.02861974 0.19400001 246 127 121 0.000000
0.00912895 -0.02861974 0.19400001 251 123 117 0.000000
0.00953571 -0.02847221 0.19300000 250 122 116 0.000000
0.00998953 -0.02847221 0.19300000 249 121 113 0.000000
0.01038924 -0.02832469 0.19200000 250 122 114 0.000000
0.01084071 -0.02832469 0.19200000 250 123 108 0.000000
0.01123336 -0.02817717 0.19100001 251 124 109 0.000000
0.01168248 -0.02817717 0.19100001 252 133 115 0.000000
0.01213160 -0.02817717 0.19100001 255 141 123 0.000000
0.01251484 -0.02802964 0.19000001 253 150 127 0.000000
0.01296161 -0.02802964 0.19000001 255 153 130 0.000000
0.01340837 -0.02802964 0.19000001 254 172 139 0.000000
0.01385514 -0.02802964 0.19000001 255 181 148 0.000000
0.01430190 -0.02802964 0.19000001 255 197 164 0.000000
0.01474867 -0.02802964 0.19000001 255 205 172 0.000000
0.01519543 -0.02802964 0.19000001 255 207 175 0.000000
0.01564220 -0.02802964 0.19000001 255 210 178 0.000000
0.01608896 -0.02802964 0.19000001 255 214 182 0.000000
0.01653573 -0.02802964 0.19000001 255 214 182 0.000000
0.01698249 -0.02802964 0.19000001 255 205 177 0.000000
0.01742926 -0.02802964 0.19000001 255 198 170 0.000000
0.01787602 -0.02802964 0.19000001 255 186 160 0.000000
0.01832279 -0.02802964 0.19000001 255 167 141 0.000000
0.01876955 -0.02802964 0.19000001 230 125 103 0.000000
0.01921632 -0.02802964 0.19000001 215 110 88 0.000000
0.01966308 -0.02802964 0.19000001 224 107 89 0.000000
0.02010985 -0.02802964 0.19000001 235 112 93 0.000000
0.02055661 -0.02802964 0.19000001 240 117 98 0.000000
0.02100338 -0.02802964 0.19000001 246 116 97 0.000000
0.02145014 -0.02802964 0.19000001 245 115 96 0.000000
0.02201215 -0.02817717 0.19100001 245 113 93 0.000000
0.02246127 -0.02817717 0.19100001 245 113 93 0.000000
0.02291039 -0.02817717 0.19100001 230 102 81 0.000000
0.02348180 -0.02832469 0.19200000 234 106 85 0.000000
0.02393327 -0.02832469 0.19200000 227 101 81 0.000000
0.02451174 -0.02847221 0.19300000 228 102 82 0.000000
0.02496556 -0.02847221 0.19300000 223 103 83 0.000000
0.02541938 -0.02847221 0.19300000 219 99 79 0.000000
0.02587320 -0.02847221 0.19300000 217 97 77 0.000000
0.02632702 -0.02847221 0.19300000 216 96 76 0.000000
0.02678084 -0.02847221 0.19300000 226 103 84 0.000000
0.02723466 -0.02847221 0.19300000 255 132 113 0.000000
0.02768848 -0.02847221 0.19300000 255 133 117 0.000000
0.02799648 -0.02832469 0.19200000 255 132 116 0.000000
0.02844795 -0.02832469 0.19200000 254 136 115 0.000000
0.02904993 -0.02847221 0.19300000 255 137 116 0.000000
0.02950375 -0.02847221 0.19300000 255 139 118 0.000000
0.02995757 -0.02847221 0.19300000 255 137 116 0.000000
0.03041139 -0.02847221 0.19300000 255 137 124 0.000000
0.03102513 -0.02861974 0.19400001 255 138 125 0.000000
0.05298976 -0.02994746 0.20300001 202 98 71 0.000000
0.05346709 -0.02994746 0.20300001 199 95 68 0.000000
0.05394443 -0.02994746 0.20300001 197 93 66 0.000000
0.05442176 -0.02994746 0.20300001 195 89 64 0.000000
0.05489910 -0.02994746 0.20300001 199 93 68 0.000000
0.05564922 -0.03009498 0.20400001 199 93 68 0.000000
0.05640404 -0.03024251 0.20500001 195 89 64 0.000000
0.05716357 -0.03039004 0.20600002 195 89 64 0.000000
0.05792781 -0.03053756 0.20700002 196 90 65 0.000000
0.06247801 -0.03186528 0.21600001 190 83 63 0.000000
0.06327751 -0.03201280 0.21700001 171 75 58 0.000000
0.06408172 -0.03216033 0.21800001 164 68 51 0.000000
0.06459432 -0.03216033 0.21800001 144 57 42 0.000000
0.06267051 -0.03024251 0.20500001 127 42 24 0.000000
0.06222836 -0.02979994 0.20200001 143 58 40 0.000000
0.06270334 -0.02979994 0.20200001 178 92 70 0.000000
0.06317832 -0.02979994 0.20200001 232 146 124 0.000000
0.06365331 -0.02979994 0.20200001 255 175 152 0.000000
0.06444576 -0.02994746 0.20300001 255 185 162 0.000000
0.06524290 -0.03009498 0.20400001 255 186 160 0.000000
0.06572259 -0.03009498 0.20400001 255 176 150 0.000000
0.06652680 -0.03024251 0.20500001 248 167 143 0.000000
0.07379777 -0.03260290 0.22100002 176 110 106 0.000000
-0.00581327 -0.03266394 0.22500001 110 101 106 0.000000
-0.00528421 -0.03266394 0.22500001 96 87 92 0.000000
-0.00475515 -0.03266394 0.22500001 101 80 79 0.000000
-0.00420730 -0.03251876 0.22400001 98 77 76 0.000000
-0.00368059 -0.03251876 0.22400001 99 64 61 0.000000
-0.00313980 -0.03237359 0.22300000 96 61 58 0.000000
-0.00260371 -0.03222842 0.22200002 104 61 56 0.000000
-0.00206294 -0.03193807 0.22000001 118 65 59 0.000000
-0.00153159 -0.03164772 0.21800001 121 68 62 0.000000
-0.00100963 -0.03135738 0.21600001 129 71 59 0.000000
-0.00049709 -0.03106703 0.21400002 132 74 62 0.000000
0.00000605 -0.03077669 0.21200001 134 74 59 0.000000
0.00049741 -0.03034117 0.20900001 138 78 63 0.000000
0.00098412 -0.03019599 0.20800000 144 79 66 0.000000
0.00145904 -0.02990565 0.20600002 149 84 71 0.000000
0.00193400 -0.02976048 0.20500001 154 83 72 0.000000
0.00239246 -0.02947013 0.20300001 158 87 76 0.000000
0.00285566 -0.02932496 0.20200001 169 90 79 0.000000
0.00331415 -0.02917978 0.20100001 174 95 84 0.000000
0.00378678 -0.02917978 0.20100001 183 97 88 0.000000
0.00423822 -0.02903461 0.20000000 181 95 86 0.000000
0.00468496 -0.02888944 0.19900002 193 95 90 0.000000
0.00515289 -0.02888944 0.19900002 195 97 92 0.000000
