0.00711601 -0.06921258 0.18900001 139 80 83 0.000000
0.00756043 -0.06921258 0.18900001 137 78 81 0.000000
0.00800484 -0.06921258 0.18900001 137 78 81 0.000000
0.00844925 -0.06921258 0.18900001 139 80 83 0.000000
0.00894072 -0.06957878 0.19000001 143 82 85 0.000000
0.00938749 -0.06957878 0.19000001 143 82 85 0.000000
0.00983425 -0.06957878 0.19000001 144 81 85 0.000000
0.01028102 -0.06957878 0.19000001 144 81 85 0.000000
0.01078425 -0.06994499 0.19100001 148 86 87 0.000000
0.01123336 -0.06994499 0.19100001 147 85 86 0.000000
0.01168248 -0.06994499 0.19100001 147 85 86 0.000000
0.01213160 -0.06994499 0.19100001 147 85 86 0.000000
0.01258071 -0.06994499 0.19100001 151 86 88 0.000000
0.01302983 -0.06994499 0.19100001 151 86 88 0.000000
0.01347894 -0.06994499 0.19100001 151 86 88 0.000000
0.01392806 -0.06994499 0.19100001 154 89 91 0.000000
0.01437718 -0.06994499 0.19100001 157 90 93 0.000000
0.01482629 -0.06994499 0.19100001 156 89 92 0.000000
0.01519543 -0.06957878 0.19000001 157 90 93 0.000000
0.01564220 -0.06957878 0.19000001 159 92 95 0.000000
0.01608896 -0.06957878 0.19000001 159 92 95 0.000000
0.01653573 -0.06957878 0.19000001 162 95 98 0.000000
0.01698249 -0.06957878 0.19000001 161 94 97 0.000000
0.01742926 -0.06957878 0.19000001 162 95 98 0.000000
0.01778194 -0.06921258 0.18900001 164 94 96 0.000000
0.01822635 -0.06921258 0.18900001 163 93 95 0.000000
0.01867077 -0.06921258 0.18900001 167 94 97 0.000000
0.01901404 -0.06884637 0.18800001 168 95 98 0.000000
0.01945610 -0.06884637 0.18800001 167 94 97 0.000000
0.01989817 -0.06884637 0.18800001 167 94 97 0.000000
0.02023203 -0.06848016 0.18700001 167 94 99 0.000000
0.02067174 -0.06848016 0.18700001 168 95 100 0.000000
0.02111145 -0.06848016 0.18700001 172 99 104 0.000000
0.02155117 -0.06848016 0.18700001 172 99 104 0.000000
0.02199088 -0.06848016 0.18700001 172 99 104 0.000000
0.02243059 -0.06848016 0.18700001 170 97 102 0.000000
0.02287030 -0.06848016 0.18700001 172 95 99 0.000000
0.02331001 -0.06848016 0.18700001 173 96 100 0.000000
0.02374972 -0.06848016 0.18700001 173 96 100 0.000000
0.02418943 -0.06848016 0.18700001 172 95 99 0.000000
0.02462914 -0.06848016 0.18700001 175 93 97 0.000000
0.02520291 -0.06884637 0.18800001 175 93 97 0.000000
0.02564497 -0.06884637 0.18800001 175 93 97 0.000000
0.02608703 -0.06884637 0.18800001 176 94 98 0.000000
0.02652910 -0.06884637 0.18800001 178 93 95 0.000000
0.02711462 -0.06921258 0.18900001 176 91 93 0.000000
0.02755903 -0.06921258 0.18900001 181 93 94 0.000000
0.02815162 -0.06957878 0.19000001 181 93 94 0.000000
0.02859838 -0.06957878 0.19000001 182 93 92 0.000000
0.02904515 -0.06957878 0.19000001 185 96 95 0.000000
0.02949191 -0.06957878 0.19000001 185 96 95 0.000000
0.03009625 -0.06994499 0.19100001 187 95 93 0.000000
0.03054536 -0.06994499 0.19100001 188 96 94 0.000000
0.03099448 -0.06994499 0.19100001 188 96 94 0.000000
0.03160822 -0.07031118 0.19200000 189 97 95 0.000000
0.03205969 -0.07031118 0.19200000 191 96 95 0.000000
0.03268049 -0.07067739 0.19300000 191 96 95 0.000000
0.03313430 -0.07067739 0.19300000 192 96 95 0.000000
0.03376215 -0.07104360 0.19400001 193 97 96 0.000000
0.03439471 -0.07140980 0.19500001 194 98 97 0.000000
0.03485323 -0.07140980 0.19500001 192 96 95 0.000000
0.03549284 -0.07177600 0.19600001 194 98 97 0.000000
0.03613715 -0.07214221 0.19700001 196 100 99 0.000000
0.03660037 -0.07214221 0.19700001 194 95 95 0.000000
0.03706360 -0.07214221 0.19700001 196 97 97 0.000000
0.03771732 -0.07250842 0.19800001 196 97 97 0.000000
0.03818289 -0.07250842 0.19800001 195 96 96 0.000000
0.03884366 -0.07287462 0.19900002 194 95 95 0.000000
0.03931159 -0.07287462 0.19900002 195 96 96 0.000000
0.03977952 -0.07287462 0.19900002 196 97 97 0.000000
0.04024744 -0.07287462 0.19900002 196 97 97 0.000000
0.04071537 -0.07287462 0.19900002 192 96 95 0.000000
0.04139025 -0.07324082 0.20000000 194 98 97 0.000000
0.04186053 -0.07324082 0.20000000 193 97 96 0.000000
0.04233081 -0.07324082 0.20000000 194 98 97 0.000000
0.04280109 -0.07324082 0.20000000 194 98 97 0.000000
0.04327136 -0.07324082 0.20000000 197 101 100 0.000000
0.04374164 -0.07324082 0.20000000 196 101 102 0.000000
0.04443298 -0.07360702 0.20100001 197 102 103 0.000000
0.04490561 -0.07360702 0.20100001 192 102 104 0.000000
0.04537824 -0.07360702 0.20100001 188 98 100 0.000000
0.04607899 -0.07397323 0.20200001 180 99 98 0.000000
0.04655397 -0.07397323 0.20200001 180 99 98 0.000000
0.04702895 -0.07397323 0.20200001 167 102 100 0.000000
-0.01175126 -0.07277054 0.20000000 69 38 38 0.000000
-0.01128098 -0.07277054 0.20000000 89 58 58 0.000000
-0.01081070 -0.07277054 0.20000000 107 64 59 0.000000
-0.01028872 -0.07240669 0.19900002 113 70 65 0.000000
-0.00982079 -0.07240669 0.19900002 123 73 68 0.000000
-0.00935287 -0.07240669 0.19900002 124 74 69 0.000000
-0.00888494 -0.07240669 0.19900002 129 76 72 0.000000
-0.00841701 -0.07240669 0.19900002 129 76 72 0.000000
-0.00794908 -0.07240669 0.19900002 130 75 70 0.000000
-0.00748116 -0.07240669 0.19900002 130 75 70 0.000000
-0.00701323 -0.07240669 0.19900002 135 77 73 0.000000
-0.00654530 -0.07240669 0.19900002 136 78 74 0.000000
-0.00607737 -0.07240669 0.19900002 136 78 76 0.000000
-0.00560945 -0.07240669 0.19900002 135 77 75 0.000000
-0.00514152 -0.07240669 0.19900002 137 77 75 0.000000
-0.00467359 -0.07240669 0.19900002 137 77 75 0.000000
-0.00420566 -0.07240669 0.19900002 137 77 75 0.000000
-0.00371895 -0.07204284 0.19800001 134 74 72 0.000000
-0.00325338 -0.07204284 0.19800001 136 76 72 0.000000
-0.00277372 -0.07167898 0.19700001 134 74 70 0.000000
-0.00231050 -0.07167898 0.19700001 134 75 68 0.000000
-0.00183790 -0.07131513 0.19600001 134 75 68 0.000000
-0.00137702 -0.07131513 0.19600001 134 75 68 0.000000
-0.00091147 -0.07095128 0.19500001 134 75 68 0.000000
-0.00045295 -0.07095128 0.19500001 133 74 67 0.000000
0.00000557 -0.07095128 0.19500001 131 72 65 0.000000
0.00046409 -0.07095128 0.19500001 133 74 67 0.000000
0.00091788 -0.07058742 0.19400001 132 73 66 0.000000
0.00137405 -0.07058742 0.19400001 132 73 66 0.000000
0.00182079 -0.07022357 0.19300000 134 75 68 0.000000
0.00227461 -0.07022357 0.19300000 132 73 66 0.000000
0.00271429 -0.06985971 0.19200000 133 73 69 0.000000
0.00316576 -0.06985971 0.19200000 133 73 69 0.000000
0.00359839 -0.06949586 0.19100001 131 73 69 0.000000
0.00402631 -0.06913202 0.19000001 131 73 69 0.000000
0.00447308 -0.06913202 0.19000001 131 73 69 0.000000
0.00491984 -0.06913202 0.19000001 131 73 69 0.000000
0.00533836 -0.06876816 0.18900001 131 73 71 0.000000
0.00578277 -0.06876816 0.18900001 134 76 74 0.000000
0.00622719 -0.06876816 0.18900001 135 76 79 0.000000
0.00667160 -0.06876816 0.18900001 138 79 82 0.000000
0.00711601 -0.06876816 0.18900001 138 79 82 0.000000
0.00756043 -0.06876816 0.18900001 137 78 81 0.000000
0.00800484 -0.06876816 0.18900001 138 79 82 0.000000
0.00844925 -0.06876816 0.18900001 139 80 83 0.000000
0.00894072 -0.06913202 0.19000001 143 82 85 0.000000
0.00938749 -0.06913202 0.19000001 143 82 85 0.000000
0.00983425 -0.06913202 0.19000001 144 81 85 0.000000
0.01028102 -0.06913202 0.19000001 145 82 86 0.000000
0.01072778 -0.06913202 0.19000001 146 84 85 0.000000
0.01123336 -0.06949586 0.19100001 147 85 86 0.000000
0.01168248 -0.06949586 0.19100001 146 84 85 0.000000
0.01213160 -0.06949586 0.19100001 146 84 85 0.000000
0.01258071 -0.06949586 0.19100001 151 86 86 0.000000
0.01302983 -0.06949586 0.19100001 151 86 86 0.000000
0.01347894 -0.06949586 0.19100001 154 87 88 0.000000
0.01385514 -0.06913202 0.19000001 155 88 89 0.000000
0.01430190 -0.06913202 0.19000001 156 89 90 0.000000
0.01474867 -0.06913202 0.19000001 156 89 90 0.000000
0.01519543 -0.06913202 0.19000001 157 90 91 0.000000
0.01564220 -0.06913202 0.19000001 161 94 95 0.000000
0.01608896 -0.06913202 0.19000001 159 92 95 0.000000
0.01644870 -0.06876816 0.18900001 162 95 98 0.000000
0.01689311 -0.06876816 0.18900001 161 93 99 0.000000
0.01733752 -0.06876816 0.18900001 162 94 100 0.000000
0.01778194 -0.06876816 0.18900001 162 95 98 0.000000
0.01822635 -0.06876816 0.18900001 162 95 98 0.000000
0.01857198 -0.06840431 0.18800001 165 95 99 0.000000
0.01901404 -0.06840431 0.18800001 166 96 100 0.000000
0.01945610 -0.06840431 0.18800001 168 95 100 0.000000
0.01989817 -0.06840431 0.18800001 167 94 99 0.000000
0.02023203 -0.06804045 0.18700001 167 94 99 0.000000
0.02067174 -0.06804045 0.18700001 168 95 100 0.000000
0.02111145 -0.06804045 0.18700001 169 96 101 0.000000
0.02155117 -0.06804045 0.18700001 169 96 101 0.000000
0.02187328 -0.06767660 0.18600000 172 99 104 0.000000
0.02231064 -0.06767660 0.18600000 170 97 102 0.000000
0.02274800 -0.06767660 0.18600000 171 97 100 0.000000
0.02331001 -0.06804045 0.18700001 171 97 100 0.000000
0.02374972 -0.06804045 0.18700001 170 96 99 0.000000
0.02418943 -0.06804045 0.18700001 171 97 100 0.000000
0.02462914 -0.06804045 0.18700001 172 95 99 0.000000
0.02506885 -0.06804045 0.18700001 171 94 98 0.000000
0.02564497 -0.06840431 0.18800001 171 92 95 0.000000
0.02608703 -0.06840431 0.18800001 171 92 95 0.000000
0.02652910 -0.06840431 0.18800001 172 90 94 0.000000
0.02711462 -0.06876816 0.18900001 173 91 95 0.000000
0.02755903 -0.06876816 0.18900001 178 93 95 0.000000
0.02800345 -0.06876816 0.18900001 178 93 95 0.000000
0.02859838 -0.06913202 0.19000001 180 92 93 0.000000
0.02904515 -0.06913202 0.19000001 181 93 94 0.000000
0.02949191 -0.06913202 0.19000001 184 95 94 0.000000
0.03009625 -0.06949586 0.19100001 184 95 94 0.000000
0.03054536 -0.06949586 0.19100001 185 96 95 0.000000
0.03099448 -0.06949586 0.19100001 189 97 95 0.000000
0.03160822 -0.06985971 0.19200000 188 96 94 0.000000
0.03205969 -0.06985971 0.19200000 190 98 96 0.000000
0.03268049 -0.07022357 0.19300000 189 97 95 0.000000
0.03313430 -0.07022357 0.19300000 191 96 95 0.000000
0.03376215 -0.07058742 0.19400001 191 96 95 0.000000
0.03439471 -0.07095128 0.19500001 191 96 97 0.000000
0.03485323 -0.07095128 0.19500001 191 96 97 0.000000
0.03549284 -0.07131513 0.19600001 193 97 98 0.000000
0.03613715 -0.07167898 0.19700001 193 97 98 0.000000
0.03660037 -0.07167898 0.19700001 192 96 97 0.000000
0.03706360 -0.07167898 0.19700001 193 97 98 0.000000
0.03771732 -0.07204284 0.19800001 193 97 98 0.000000
0.03818289 -0.07204284 0.19800001 194 98 99 0.000000
0.03864847 -0.07204284 0.19800001 193 97 96 0.000000
0.03931159 -0.07240669 0.19900002 193 97 96 0.000000
0.03977952 -0.07240669 0.19900002 194 98 97 0.000000
0.04024744 -0.07240669 0.19900002 194 98 97 0.000000
0.04071537 -0.07240669 0.19900002 192 96 95 0.000000
0.04118330 -0.07240669 0.19900002 193 97 96 0.000000
0.04186053 -0.07277054 0.20000000 195 96 96 0.000000
0.04233081 -0.07277054 0.20000000 196 97 97 0.000000
0.04280109 -0.07277054 0.20000000 196 100 101 0.000000
0.04327136 -0.07277054 0.20000000 198 102 103 0.000000
0.04374164 -0.07277054 0.20000000 197 102 103 0.000000
0.04443298 -0.07313439 0.20100001 196 101 102 0.000000
0.04490561 -0.07313439 0.20100001 191 101 103 0.000000
0.04537824 -0.07313439 0.20100001 189 99 101 0.000000
0.04607899 -0.07349824 0.20200001 182 98 98 0.000000
0.04655397 -0.07349824 0.20200001 183 99 99 0.000000
0.04702895 -0.07349824 0.20200001 169 104 102 0.000000
-0.01175126 -0.07230026 0.20000000 75 42 41 0.000000
-0.01128098 -0.07230026 0.20000000 91 58 57 0.000000
-0.01081070 -0.07230026 0.20000000 108 62 58 0.000000
-0.01028872 -0.07193876 0.19900002 117 71 67 0.000000
-0.00982079 -0.07193876 0.19900002 121 73 67 0.000000
-0.00935287 -0.07193876 0.19900002 124 76 70 0.000000
-0.00888494 -0.07193876 0.19900002 128 75 69 0.000000
-0.00841701 -0.07193876 0.19900002 127 74 68 0.000000
-0.00794908 -0.07193876 0.19900002 127 72 67 0.000000
-0.00748116 -0.07193876 0.19900002 130 75 70 0.000000
-0.00701323 -0.07193876 0.19900002 132 77 72 0.000000
-0.00654530 -0.07193876 0.19900002 133 78 73 0.000000
-0.00607737 -0.07193876 0.19900002 134 79 76 0.000000
-0.00560945 -0.07193876 0.19900002 133 78 75 0.000000
-0.00514152 -0.07193876 0.19900002 135 77 75 0.000000
-0.00467359 -0.07193876 0.19900002 135 77 75 0.000000
-0.00420566 -0.07193876 0.19900002 134 76 74 0.000000
-0.00371895 -0.07157726 0.19800001 130 72 70 0.000000
-0.00325338 -0.07157726 0.19800001 130 72 70 0.000000
-0.00277372 -0.07121576 0.19700001 131 73 71 0.000000
-0.00231050 -0.07121576 0.19700001 132 74 70 0.000000
-0.00183790 -0.07085425 0.19600001 132 74 70 0.000000
-0.00137702 -0.07085425 0.19600001 131 74 67 0.000000
-0.00091147 -0.07049275 0.19500001 130 73 66 0.000000
-0.00045295 -0.07049275 0.19500001 129 72 65 0.000000
0.00000557 -0.07049275 0.19500001 128 71 64 0.000000
0.00046171 -0.07013125 0.19400001 130 73 66 0.000000
0.00091788 -0.07013125 0.19400001 130 73 66 0.000000
0.00137405 -0.07013125 0.19400001 129 72 65 0.000000
0.00182079 -0.06976975 0.19300000 129 71 67 0.000000
0.00227461 -0.06976975 0.19300000 130 72 68 0.000000
0.00271429 -0.06940825 0.19200000 130 72 68 0.000000
0.00314927 -0.06904675 0.19100001 131 73 69 0.000000
0.00359839 -0.06904675 0.19100001 129 74 71 0.000000
0.00402631 -0.06868525 0.19000001 128 73 70 0.000000
0.00447308 -0.06868525 0.19000001 129 74 71 0.000000
0.00489395 -0.06832375 0.18900001 128 73 70 0.000000
0.00533836 -0.06832375 0.18900001 129 74 73 0.000000
0.00578277 -0.06832375 0.18900001 132 77 76 0.000000
0.00622719 -0.06832375 0.18900001 132 77 76 0.000000
0.00667160 -0.06832375 0.18900001 134 79 78 0.000000
0.00711601 -0.06832375 0.18900001 135 80 79 0.000000
0.00756043 -0.06832375 0.18900001 134 79 78 0.000000
0.00800484 -0.06832375 0.18900001 137 82 81 0.000000
0.00849396 -0.06868525 0.19000001 136 81 80 0.000000
0.00894072 -0.06868525 0.19000001 141 81 81 0.000000
0.00938749 -0.06868525 0.19000001 141 81 81 0.000000
0.00983425 -0.06868525 0.19000001 145 83 84 0.000000
0.01028102 -0.06868525 0.19000001 145 83 84 0.000000
0.01072778 -0.06868525 0.19000001 146 84 85 0.000000
0.01117455 -0.06868525 0.19000001 146 84 85 0.000000
0.01168248 -0.06904675 0.19100001 146 84 85 0.000000
0.01213160 -0.06904675 0.19100001 146 84 85 0.000000
0.01258071 -0.06904675 0.19100001 151 86 86 0.000000
0.01296161 -0.06868525 0.19000001 153 88 88 0.000000
0.01340837 -0.06868525 0.19000001 153 88 88 0.000000
0.01385514 -0.06868525 0.19000001 155 90 90 0.000000
0.01430190 -0.06868525 0.19000001 156 89 90 0.000000
0.01474867 -0.06868525 0.19000001 156 89 90 0.000000
0.01519543 -0.06868525 0.19000001 157 90 91 0.000000
0.01555987 -0.06832375 0.18900001 162 95 96 0.000000
0.01600428 -0.06832375 0.18900001 158 91 94 0.000000
0.01644870 -0.06832375 0.18900001 162 95 98 0.000000
0.01689311 -0.06832375 0.18900001 164 96 102 0.000000
0.01733752 -0.06832375 0.18900001 162 94 100 0.000000
0.01778194 -0.06832375 0.18900001 164 93 100 0.000000
0.01812991 -0.06796224 0.18800001 164 93 100 0.000000
0.01857198 -0.06796224 0.18800001 164 93 100 0.000000
0.01901404 -0.06796224 0.18800001 166 95 102 0.000000
0.01945610 -0.06796224 0.18800001 169 95 103 0.000000
0.01979232 -0.06760074 0.18700001 168 94 102 0.000000
0.02023203 -0.06760074 0.18700001 167 94 99 0.000000
0.02067174 -0.06760074 0.18700001 168 95 100 0.000000
0.02111145 -0.06760074 0.18700001 168 95 100 0.000000
0.02155117 -0.06760074 0.18700001 168 95 100 0.000000
0.02187328 -0.06723924 0.18600000 172 99 104 0.000000
0.02231064 -0.06723924 0.18600000 169 96 101 0.000000
0.02274800 -0.06723924 0.18600000 172 99 104 0.000000
0.02318536 -0.06723924 0.18600000 169 96 101 0.000000
0.02374972 -0.06760074 0.18700001 169 96 101 0.000000
0.02418943 -0.06760074 0.18700001 170 97 102 0.000000
0.02462914 -0.06760074 0.18700001 171 97 100 0.000000
0.02506885 -0.06760074 0.18700001 173 99 102 0.000000
0.02550856 -0.06760074 0.18700001 172 95 99 0.000000
0.02608703 -0.06796224 0.18800001 169 92 96 0.000000
0.02652910 -0.06796224 0.18800001 170 91 94 0.000000
0.02697116 -0.06796224 0.18800001 171 92 95 0.000000
0.02755903 -0.06832375 0.18900001 174 90 92 0.000000
0.02800345 -0.06832375 0.18900001 175 91 93 0.000000
0.02844786 -0.06832375 0.18900001 176 91 91 0.000000
0.02904515 -0.06868525 0.19000001 177 92 92 0.000000
0.02949191 -0.06868525 0.19000001 179 94 94 0.000000
0.02993867 -0.06868525 0.19000001 182 93 92 0.000000
0.03054536 -0.06904675 0.19100001 186 97 96 0.000000
0.03099448 -0.06904675 0.19100001 186 97 96 0.000000
0.03160822 -0.06940825 0.19200000 185 96 95 0.000000
0.03205969 -0.06940825 0.19200000 188 96 96 0.000000
0.03268049 -0.06976975 0.19300000 189 97 97 0.000000
0.03330598 -0.07013125 0.19400001 193 101 101 0.000000
0.03376215 -0.07013125 0.19400001 191 99 99 0.000000
0.03439471 -0.07049275 0.19500001 190 98 98 0.000000
0.03485323 -0.07049275 0.19500001 189 97 97 0.000000
0.03549284 -0.07085425 0.19600001 192 97 98 0.000000
0.03595371 -0.07085425 0.19600001 193 98 99 0.000000
0.03660037 -0.07121576 0.19700001 192 97 98 0.000000
0.03706360 -0.07121576 0.19700001 192 97 98 0.000000
0.03752682 -0.07121576 0.19700001 193 98 99 0.000000
0.03818289 -0.07157726 0.19800001 193 98 99 0.000000
0.03864847 -0.07157726 0.19800001 193 98 99 0.000000
0.03911404 -0.07157726 0.19800001 193 98 99 0.000000
0.03977952 -0.07193876 0.19900002 193 98 97 0.000000
0.04024744 -0.07193876 0.19900002 192 97 96 0.000000
0.04071537 -0.07193876 0.19900002 192 96 95 0.000000
0.04118330 -0.07193876 0.19900002 193 97 96 0.000000
0.04165123 -0.07193876 0.19900002 196 97 97 0.000000
0.04233081 -0.07230026 0.20000000 195 96 96 0.000000
0.04280109 -0.07230026 0.20000000 194 98 97 0.000000
0.04327136 -0.07230026 0.20000000 198 102 101 0.000000
0.04374164 -0.07230026 0.20000000 199 104 105 0.000000
0.04443298 -0.07266176 0.20100001 197 102 103 0.000000
0.04490561 -0.07266176 0.20100001 191 101 103 0.000000
0.04537824 -0.07266176 0.20100001 189 99 101 0.000000
0.04607899 -0.07302326 0.20200001 181 100 99 0.000000
0.04655397 -0.07302326 0.20200001 183 102 101 0.000000
0.04702895 -0.07302326 0.20200001 172 107 107 0.000000
0.04773910 -0.07338476 0.20300001 172 107 107 0.000000
-0.01175126 -0.07182998 0.20000000 82 47 44 0.000000
-0.01128098 -0.07182998 0.20000000 93 58 55 0.000000
-0.01081070 -0.07182998 0.20000000 108 62 58 0.000000
-0.01028872 -0.07147083 0.19900002 116 70 66 0.000000
-0.00982079 -0.07147083 0.19900002 119 71 65 0.000000
-0.00935287 -0.07147083 0.19900002 123 75 69 0.000000
-0.00888494 -0.07147083 0.19900002 126 73 69 0.000000
-0.00841701 -0.07147083 0.19900002 126 73 69 0.000000
-0.00794908 -0.07147083 0.19900002 128 73 68 0.000000
-0.00748116 -0.07147083 0.19900002 129 74 69 0.000000
-0.00701323 -0.07147083 0.19900002 127 72 67 0.000000
-0.00654530 -0.07147083 0.19900002 128 73 68 0.000000
-0.00607737 -0.07147083 0.19900002 130 75 72 0.000000
-0.00560945 -0.07147083 0.19900002 129 74 71 0.000000
-0.00514152 -0.07147083 0.19900002 130 72 70 0.000000
-0.00467359 -0.07147083 0.19900002 131 73 71 0.000000
-0.00420566 -0.07147083 0.19900002 130 72 70 0.000000
-0.00373774 -0.07147083 0.19900002 130 72 70 0.000000
-0.00325338 -0.07111169 0.19800001 125 67 65 0.000000
-0.00277372 -0.07075254 0.19700001 130 72 70 0.000000
-0.00231050 -0.07075254 0.19700001 128 70 68 0.000000
-0.00183790 -0.07039338 0.19600001 130 72 70 0.000000
-0.00137702 -0.07039338 0.19600001 130 72 70 0.000000
-0.00091147 -0.07003424 0.19500001 130 72 70 0.000000
-0.00045295 -0.07003424 0.19500001 130 72 70 0.000000
0.00000554 -0.06967508 0.19400001 128 70 68 0.000000
0.00046171 -0.06967508 0.19400001 128 70 66 0.000000
0.00091315 -0.06931593 0.19300000 129 71 67 0.000000
0.00136697 -0.06931593 0.19300000 129 71 67 0.000000
0.00181135 -0.06895678 0.19200000 127 69 65 0.000000
0.00226282 -0.06895678 0.19200000 128 70 66 0.000000
0.00270015 -0.06859764 0.19100001 129 71 69 0.000000
0.00314927 -0.06859764 0.19100001 130 72 70 0.000000
0.00357955 -0.06823849 0.19000001 127 72 69 0.000000
0.00402631 -0.06823849 0.19000001 128 73 70 0.000000
0.00444953 -0.06787933 0.18900001 129 74 73 0.000000
0.00489395 -0.06787933 0.18900001 129 74 73 0.000000
0.00533836 -0.06787933 0.18900001 129 74 73 0.000000
0.00578277 -0.06787933 0.18900001 132 77 76 0.000000
0.00622719 -0.06787933 0.18900001 132 76 78 0.000000
0.00667160 -0.06787933 0.18900001 133 77 79 0.000000
0.00711601 -0.06787933 0.18900001 135 79 81 0.000000
0.00756043 -0.06787933 0.18900001 134 78 80 0.000000
0.00800484 -0.06787933 0.18900001 135 79 81 0.000000
0.00844925 -0.06787933 0.18900001 137 81 83 0.000000
0.00894072 -0.06823849 0.19000001 139 80 83 0.000000
0.00938749 -0.06823849 0.19000001 139 80 83 0.000000
0.00983425 -0.06823849 0.19000001 143 82 85 0.000000
0.01028102 -0.06823849 0.19000001 144 83 86 0.000000
0.01072778 -0.06823849 0.19000001 145 85 85 0.000000
0.01117455 -0.06823849 0.19000001 146 86 86 0.000000
0.01162131 -0.06823849 0.19000001 148 86 87 0.000000
0.01206808 -0.06823849 0.19000001 148 86 87 0.000000
0.01251484 -0.06823849 0.19000001 151 86 88 0.000000
0.01289339 -0.06787933 0.18900001 153 88 90 0.000000
0.01333780 -0.06787933 0.18900001 155 90 92 0.000000
0.01378222 -0.06787933 0.18900001 155 90 92 0.000000
0.01422663 -0.06787933 0.18900001 155 90 92 0.000000
0.01467104 -0.06787933 0.18900001 157 92 94 0.000000
0.01511546 -0.06787933 0.18900001 158 91 94 0.000000
0.01555987 -0.06787933 0.18900001 161 94 97 0.000000
0.01591961 -0.06752019 0.18800001 159 92 95 0.000000
0.01636167 -0.06752019 0.18800001 161 94 97 0.000000
0.01680373 -0.06752019 0.18800001 163 93 97 0.000000
0.01724579 -0.06752019 0.18800001 164 94 98 0.000000
0.01768785 -0.06752019 0.18800001 164 94 98 0.000000
0.01812991 -0.06752019 0.18800001 164 94 98 0.000000
0.01857198 -0.06752019 0.18800001 165 95 99 0.000000
0.01901404 -0.06752019 0.18800001 165 95 99 0.000000
0.01945610 -0.06752019 0.18800001 167 94 99 0.000000
0.01979232 -0.06716103 0.18700001 168 95 100 0.000000
0.02023203 -0.06716103 0.18700001 168 95 100 0.000000
0.02067174 -0.06716103 0.18700001 168 95 100 0.000000
0.02111145 -0.06716103 0.18700001 169 96 101 0.000000
0.02143592 -0.06680188 0.18600000 168 95 100 0.000000
0.02187328 -0.06680188 0.18600000 170 97 102 0.000000
0.02231064 -0.06680188 0.18600000 170 97 102 0.000000
0.02274800 -0.06680188 0.18600000 172 99 104 0.000000
0.02318536 -0.06680188 0.18600000 172 99 104 0.000000
0.02362271 -0.06680188 0.18600000 172 99 104 0.000000
0.02406007 -0.06680188 0.18600000 170 97 102 0.000000
0.02462914 -0.06716103 0.18700001 171 97 102 0.000000
0.02506885 -0.06716103 0.18700001 171 97 102 0.000000
0.02550856 -0.06716103 0.18700001 170 96 101 0.000000
0.02594827 -0.06716103 0.18700001 168 94 99 0.000000
0.02652910 -0.06752019 0.18800001 169 92 96 0.000000
0.02697116 -0.06752019 0.18800001 170 93 97 0.000000
0.02741322 -0.06752019 0.18800001 171 89 93 0.000000
0.02800345 -0.06787933 0.18900001 172 90 94 0.000000
0.02844786 -0.06787933 0.18900001 176 92 94 0.000000
0.02889228 -0.06787933 0.18900001 177 93 95 0.000000
0.02949191 -0.06823849 0.19000001 178 93 93 0.000000
0.02993867 -0.06823849 0.19000001 178 93 93 0.000000
0.03054536 -0.06859764 0.19100001 179 94 94 0.000000
0.03099448 -0.06859764 0.19100001 181 93 94 0.000000
0.03160822 -0.06895678 0.19200000 183 95 96 0.000000
0.03205969 -0.06895678 0.19200000 187 97 99 0.000000
0.03268049 -0.06931593 0.19300000 187 97 99 0.000000
0.03330598 -0.06967508 0.19400001 188 98 100 0.000000
0.03376215 -0.06967508 0.19400001 188 98 100 0.000000
0.03439471 -0.07003424 0.19500001 189 97 97 0.000000
0.03485323 -0.07003424 0.19500001 190 98 98 0.000000
0.03549284 -0.07039338 0.19600001 191 99 99 0.000000
0.03595371 -0.07039338 0.19600001 191 99 99 0.000000
0.03641459 -0.07039338 0.19600001 193 98 99 0.000000
0.03706360 -0.07075254 0.19700001 195 100 101 0.000000
0.03752682 -0.07075254 0.19700001 192 96 100 0.000000
0.03799005 -0.07075254 0.19700001 193 97 101 0.000000
0.03864847 -0.07111169 0.19800001 193 97 101 0.000000
0.03911404 -0.07111169 0.19800001 195 99 103 0.000000
0.03957962 -0.07111169 0.19800001 193 98 99 0.000000
0.04004520 -0.07111169 0.19800001 192 97 98 0.000000
0.04071537 -0.07147083 0.19900002 193 97 98 0.000000
0.04118330 -0.07147083 0.19900002 192 96 97 0.000000
0.04165123 -0.07147083 0.19900002 195 96 96 0.000000
0.04211915 -0.07147083 0.19900002 195 96 96 0.000000
0.04280109 -0.07182998 0.20000000 196 100 99 0.000000
0.04327136 -0.07182998 0.20000000 198 102 101 0.000000
0.04374164 -0.07182998 0.20000000 198 103 104 0.000000
0.04443298 -0.07218913 0.20100001 198 103 104 0.000000
0.04490561 -0.07218913 0.20100001 191 101 103 0.000000
0.04537824 -0.07218913 0.20100001 188 98 100 0.000000
0.04607899 -0.07254829 0.20200001 181 100 99 0.000000
0.04655397 -0.07254829 0.20200001 183 102 101 0.000000
0.04702895 -0.07254829 0.20200001 175 110 110 0.000000
0.04773910 -0.07290743 0.20300001 174 109 109 0.000000
0.04821643 -0.07290743 0.20300001 165 109 111 0.000000
-0.01175126 -0.07135970 0.20000000 84 49 46 0.000000
-0.01128098 -0.07135970 0.20000000 93 58 55 0.000000
-0.01081070 -0.07135970 0.20000000 108 62 58 0.000000
-0.01028872 -0.07100291 0.19900002 114 68 64 0.000000
-0.00982079 -0.07100291 0.19900002 116 68 64 0.000000
-0.00935287 -0.07100291 0.19900002 121 73 69 0.000000
-0.00888494 -0.07100291 0.19900002 124 71 67 0.000000
-0.00841701 -0.07100291 0.19900002 124 71 67 0.000000
-0.00794908 -0.07100291 0.19900002 126 71 68 0.000000
-0.00748116 -0.07100291 0.19900002 127 72 69 0.000000
-0.00701323 -0.07100291 0.19900002 126 71 68 0.000000
-0.00654530 -0.07100291 0.19900002 126 71 68 0.000000
-0.00607737 -0.07100291 0.19900002 128 73 70 0.000000
-0.00560945 -0.07100291 0.19900002 128 73 70 0.000000
-0.00514152 -0.07100291 0.19900002 128 70 68 0.000000
-0.00467359 -0.07100291 0.19900002 128 70 68 0.000000
-0.00420566 -0.07100291 0.19900002 129 71 69 0.000000
-0.00373774 -0.07100291 0.19900002 129 71 69 0.000000
-0.00325338 -0.07064611 0.19800001 127 69 67 0.000000
-0.00278780 -0.07064611 0.19800001 128 70 68 0.000000
-0.00231050 -0.07028931 0.19700001 128 70 68 0.000000
-0.00184727 -0.07028931 0.19700001 128 70 68 0.000000
-0.00137702 -0.06993251 0.19600001 126 71 68 0.000000
-0.00091147 -0.06957571 0.19500001 127 72 69 0.000000
-0.00045063 -0.06921891 0.19400001 127 72 69 0.000000
0.00000554 -0.06921891 0.19400001 126 71 68 0.000000
0.00045933 -0.06886211 0.19300000 127 72 69 0.000000
0.00090842 -0.06850531 0.19200000 127 72 69 0.000000
0.00135989 -0.06850531 0.19200000 126 71 68 0.000000
0.00180192 -0.06814852 0.19100001 125 70 67 0.000000
0.00225104 -0.06814852 0.19100001 125 70 67 0.000000
0.00270015 -0.06814852 0.19100001 126 71 70 0.000000
0.00313278 -0.06779172 0.19000001 128 73 72 0.000000
0.00357955 -0.06779172 0.19000001 127 74 72 0.000000
0.00400512 -0.06743492 0.18900001 127 74 72 0.000000
0.00444953 -0.06743492 0.18900001 128 75 73 0.000000
0.00489395 -0.06743492 0.18900001 128 75 73 0.000000
0.00533836 -0.06743492 0.18900001 129 73 75 0.000000
0.00578277 -0.06743492 0.18900001 130 74 76 0.000000
0.00622719 -0.06743492 0.18900001 133 77 79 0.000000
0.00667160 -0.06743492 0.18900001 134 78 80 0.000000
0.00711601 -0.06743492 0.18900001 134 79 78 0.000000
0.00756043 -0.06743492 0.18900001 135 80 79 0.000000
0.00800484 -0.06743492 0.18900001 136 81 80 0.000000
0.00844925 -0.06743492 0.18900001 137 82 81 0.000000
0.00889367 -0.06743492 0.18900001 137 79 79 0.000000
0.00933808 -0.06743492 0.18900001 139 81 81 0.000000
0.00978249 -0.06743492 0.18900001 144 84 84 0.000000
0.01022691 -0.06743492 0.18900001 145 85 85 0.000000
0.01067132 -0.06743492 0.18900001 145 83 84 0.000000
0.01111574 -0.06743492 0.18900001 146 84 85 0.000000
0.01149898 -0.06707812 0.18800001 147 85 86 0.000000
0.01194105 -0.06707812 0.18800001 148 86 87 0.000000
0.01238311 -0.06707812 0.18800001 151 86 88 0.000000
0.01282517 -0.06707812 0.18800001 154 89 91 0.000000
0.01326723 -0.06707812 0.18800001 154 89 89 0.000000
0.01370929 -0.06707812 0.18800001 154 89 89 0.000000
0.01407608 -0.06672132 0.18700001 154 89 89 0.000000
0.01451579 -0.06672132 0.18700001 157 92 92 0.000000
0.01495550 -0.06672132 0.18700001 157 90 91 0.000000
0.01547754 -0.06707812 0.18800001 158 91 92 0.000000
0.01591961 -0.06707812 0.18800001 160 90 92 0.000000
0.01636167 -0.06707812 0.18800001 163 93 95 0.000000
0.01680373 -0.06707812 0.18800001 163 93 95 0.000000
0.01724579 -0.06707812 0.18800001 164 94 96 0.000000
0.01768785 -0.06707812 0.18800001 165 95 97 0.000000
0.01812991 -0.06707812 0.18800001 163 93 95 0.000000
0.01857198 -0.06707812 0.18800001 167 94 97 0.000000
0.01901404 -0.06707812 0.18800001 166 93 96 0.000000
0.01935261 -0.06672132 0.18700001 167 94 97 0.000000
0.01979232 -0.06672132 0.18700001 167 94 97 0.000000
0.02023203 -0.06672132 0.18700001 167 94 97 0.000000
0.02067174 -0.06672132 0.18700001 168 95 98 0.000000
0.02111145 -0.06672132 0.18700001 169 96 99 0.000000
0.02143592 -0.06636452 0.18600000 168 95 98 0.000000
0.02187328 -0.06636452 0.18600000 169 96 99 0.000000
0.02231064 -0.06636452 0.18600000 172 99 102 0.000000
0.02274800 -0.06636452 0.18600000 170 97 100 0.000000
0.02318536 -0.06636452 0.18600000 172 99 102 0.000000
0.02362271 -0.06636452 0.18600000 173 100 103 0.000000
0.02406007 -0.06636452 0.18600000 172 99 102 0.000000
0.02449743 -0.06636452 0.18600000 172 99 104 0.000000
0.02506885 -0.06672132 0.18700001 172 99 104 0.000000
0.02550856 -0.06672132 0.18700001 169 96 101 0.000000
0.02594827 -0.06672132 0.18700001 167 94 99 0.000000
0.02638798 -0.06672132 0.18700001 168 91 97 0.000000
0.02697116 -0.06707812 0.18800001 169 92 98 0.000000
0.02741322 -0.06707812 0.18800001 170 91 96 0.000000
0.02785528 -0.06707812 0.18800001 169 90 95 0.000000
0.02844786 -0.06743492 0.18900001 171 90 91 0.000000
0.02889228 -0.06743492 0.18900001 173 92 93 0.000000
0.02933669 -0.06743492 0.18900001 175 91 93 0.000000
0.02993867 -0.06779172 0.19000001 175 90 92 0.000000
0.03054536 -0.06814852 0.19100001 178 93 95 0.000000
0.03099448 -0.06814852 0.19100001 181 93 96 0.000000
0.03160822 -0.06850531 0.19200000 181 93 96 0.000000
0.03205969 -0.06850531 0.19200000 183 95 96 0.000000
0.03268049 -0.06886211 0.19300000 185 97 98 0.000000
0.03330598 -0.06921891 0.19400001 185 97 98 0.000000
0.03376215 -0.06921891 0.19400001 185 97 98 0.000000
0.03439471 -0.06957571 0.19500001 188 99 98 0.000000
0.03485323 -0.06957571 0.19500001 187 98 97 0.000000
0.03531175 -0.06957571 0.19500001 189 100 99 0.000000
0.03595371 -0.06993251 0.19600001 188 99 98 0.000000
0.03641459 -0.06993251 0.19600001 190 98 98 0.000000
0.03687546 -0.06993251 0.19600001 193 101 101 0.000000
0.03733633 -0.06993251 0.19600001 191 98 101 0.000000
0.03799005 -0.07028931 0.19700001 191 98 101 0.000000
0.03845327 -0.07028931 0.19700001 194 101 104 0.000000
0.03891650 -0.07028931 0.19700001 194 101 104 0.000000
0.03957962 -0.07064611 0.19800001 193 100 103 0.000000
0.04004520 -0.07064611 0.19800001 191 98 101 0.000000
0.04051077 -0.07064611 0.19800001 192 97 98 0.000000
0.04118330 -0.07100291 0.19900002 192 97 98 0.000000
0.04165123 -0.07100291 0.19900002 194 98 97 0.000000
0.04211915 -0.07100291 0.19900002 197 101 100 0.000000
0.04280109 -0.07135970 0.20000000 198 102 101 0.000000
0.04327136 -0.07135970 0.20000000 198 102 101 0.000000
0.04374164 -0.07135970 0.20000000 199 103 102 0.000000
0.04443298 -0.07171650 0.20100001 200 104 103 0.000000
0.04490561 -0.07171650 0.20100001 192 102 104 0.000000
0.04537824 -0.07171650 0.20100001 188 98 100 0.000000
0.04607899 -0.07207330 0.20200001 182 101 102 0.000000
0.04655397 -0.07207330 0.20200001 185 104 105 0.000000
0.04702895 -0.07207330 0.20200001 173 111 110 0.000000
0.04773910 -0.07243010 0.20300001 173 111 110 0.000000
0.04821643 -0.07243010 0.20300001 167 111 113 0.000000
-0.01181001 -0.07124387 0.20100001 82 45 42 0.000000
-0.01128098 -0.07088942 0.20000000 96 59 56 0.000000
-0.01081070 -0.07088942 0.20000000 109 60 59 0.000000
-0.01028872 -0.07053497 0.19900002 115 66 65 0.000000
-0.00982079 -0.07053497 0.19900002 116 66 63 0.000000
-0.00935287 -0.07053497 0.19900002 118 68 65 0.000000
-0.00888494 -0.07053497 0.19900002 117 64 62 0.000000
-0.00837471 -0.07018053 0.19800001 121 68 66 0.000000
-0.00794908 -0.07053497 0.19900002 122 69 65 0.000000
-0.00748116 -0.07053497 0.19900002 122 69 65 0.000000
-0.00701323 -0.07053497 0.19900002 122 67 64 0.000000
-0.00654530 -0.07053497 0.19900002 123 68 65 0.000000
-0.00607737 -0.07053497 0.19900002 125 70 67 0.000000
-0.00560945 -0.07053497 0.19900002 125 70 67 0.000000
-0.00514152 -0.07053497 0.19900002 126 71 66 0.000000
-0.00467359 -0.07053497 0.19900002 126 71 66 0.000000
-0.00422680 -0.07088942 0.20000000 126 71 66 0.000000
-0.00373774 -0.07053497 0.19900002 126 71 66 0.000000
-0.00326981 -0.07053497 0.19900002 126 71 66 0.000000
-0.00278780 -0.07018053 0.19800001 126 71 66 0.000000
-0.00231050 -0.06982608 0.19700001 126 71 68 0.000000
-0.00183790 -0.06947163 0.19600001 126 71 68 0.000000
-0.00137000 -0.06911719 0.19500001 125 70 67 0.000000
-0.00090680 -0.06876274 0.19400001 126 71 68 0.000000
-0.00044831 -0.06840829 0.19300000 123 68 65 0.000000
0.00000551 -0.06840829 0.19300000 123 68 65 0.000000
0.00045695 -0.06805384 0.19200000 125 70 67 0.000000
0.00090369 -0.06769940 0.19100001 126 71 68 0.000000
0.00135280 -0.06769940 0.19100001 126 71 68 0.000000
0.00180192 -0.06769940 0.19100001 123 68 65 0.000000
0.00223925 -0.06734496 0.19000001 123 68 65 0.000000
0.00268602 -0.06734496 0.19000001 125 70 69 0.000000
0.00311629 -0.06699050 0.18900001 126 71 70 0.000000
0.00356071 -0.06699050 0.18900001 127 73 74 0.000000
0.00400512 -0.06699050 0.18900001 126 72 73 0.000000
0.00444953 -0.06699050 0.18900001 127 73 74 0.000000
0.00486805 -0.06663606 0.18800001 128 74 75 0.000000
0.00531011 -0.06663606 0.18800001 129 73 75 0.000000
0.00575218 -0.06663606 0.18800001 132 76 78 0.000000
0.00619424 -0.06663606 0.18800001 133 78 77 0.000000
0.00663630 -0.06663606 0.18800001 132 77 76 0.000000
0.00707836 -0.06663606 0.18800001 132 77 74 0.000000
0.00752043 -0.06663606 0.18800001 134 79 76 0.000000
0.00796249 -0.06663606 0.18800001 137 79 77 0.000000
0.00840455 -0.06663606 0.18800001 137 79 77 0.000000
0.00884661 -0.06663606 0.18800001 137 79 77 0.000000
0.00928867 -0.06663606 0.18800001 139 81 79 0.000000
0.00973073 -0.06663606 0.18800001 144 84 84 0.000000
0.01017280 -0.06663606 0.18800001 144 84 84 0.000000
0.01061486 -0.06663606 0.18800001 146 84 85 0.000000
0.01099811 -0.06628161 0.18700001 147 85 86 0.000000
0.01143782 -0.06628161 0.18700001 147 85 86 0.000000
0.01187753 -0.06628161 0.18700001 146 84 85 0.000000
0.01231724 -0.06628161 0.18700001 149 87 88 0.000000
0.01275695 -0.06628161 0.18700001 152 90 91 0.000000
0.01319666 -0.06628161 0.18700001 151 89 90 0.000000
0.01356345 -0.06592716 0.18600000 153 91 92 0.000000
0.01400081 -0.06592716 0.18600000 152 90 91 0.000000
0.01443817 -0.06592716 0.18600000 154 92 93 0.000000
0.01487553 -0.06592716 0.18600000 156 91 91 0.000000
0.01539521 -0.06628161 0.18700001 158 93 93 0.000000
0.01583493 -0.06628161 0.18700001 158 91 92 0.000000
0.01627464 -0.06628161 0.18700001 159 92 93 0.000000
0.01671435 -0.06628161 0.18700001 161 91 93 0.000000
0.01715406 -0.06628161 0.18700001 161 91 93 0.000000
0.01759377 -0.06628161 0.18700001 167 94 97 0.000000
0.01803348 -0.06628161 0.18700001 169 96 99 0.000000
0.01847319 -0.06628161 0.18700001 167 94 97 0.000000
0.01891290 -0.06628161 0.18700001 165 92 95 0.000000
0.01935261 -0.06628161 0.18700001 166 93 96 0.000000
0.01979232 -0.06628161 0.18700001 167 94 97 0.000000
0.02023203 -0.06628161 0.18700001 168 95 98 0.000000
0.02056120 -0.06592716 0.18600000 169 96 99 0.000000
0.02099856 -0.06592716 0.18600000 169 96 99 0.000000
0.02143592 -0.06592716 0.18600000 170 97 100 0.000000
0.02187328 -0.06592716 0.18600000 168 95 98 0.000000
0.02231064 -0.06592716 0.18600000 169 96 99 0.000000
0.02274800 -0.06592716 0.18600000 169 96 99 0.000000
0.02318536 -0.06592716 0.18600000 170 97 100 0.000000
0.02362271 -0.06592716 0.18600000 172 99 102 0.000000
0.02406007 -0.06592716 0.18600000 170 97 100 0.000000
0.02449743 -0.06592716 0.18600000 171 97 100 0.000000
0.02493479 -0.06592716 0.18600000 173 99 102 0.000000
0.02550856 -0.06628161 0.18700001 170 96 101 0.000000
0.02594827 -0.06628161 0.18700001 171 97 102 0.000000
0.02638798 -0.06628161 0.18700001 168 94 99 0.000000
0.02682769 -0.06628161 0.18700001 167 93 98 0.000000
0.02741322 -0.06663606 0.18800001 170 93 99 0.000000
0.02785528 -0.06663606 0.18800001 168 91 97 0.000000
0.02829734 -0.06663606 0.18800001 167 88 93 0.000000
0.02889228 -0.06699050 0.18900001 172 90 94 0.000000
0.02933669 -0.06699050 0.18900001 172 90 94 0.000000
0.02993867 -0.06734496 0.19000001 174 90 92 0.000000
0.03038544 -0.06734496 0.19000001 176 92 94 0.000000
0.03099448 -0.06769940 0.19100001 178 93 95 0.000000
0.03160822 -0.06805384 0.19200000 178 93 95 0.000000
0.03205969 -0.06805384 0.19200000 181 96 98 0.000000
0.03268049 -0.06840829 0.19300000 182 97 99 0.000000
0.03330598 -0.06876274 0.19400001 184 96 99 0.000000
0.03376215 -0.06876274 0.19400001 183 95 98 0.000000
0.03439471 -0.06911719 0.19500001 185 97 98 0.000000
0.03485323 -0.06911719 0.19500001 184 96 97 0.000000
0.03531175 -0.06911719 0.19500001 187 98 97 0.000000
0.03577027 -0.06911719 0.19500001 186 97 96 0.000000
0.03641459 -0.06947163 0.19600001 187 98 97 0.000000
0.03687546 -0.06947163 0.19600001 187 98 97 0.000000
0.03733633 -0.06947163 0.19600001 188 98 100 0.000000
0.03779721 -0.06947163 0.19600001 188 98 100 0.000000
0.03845327 -0.06982608 0.19700001 191 98 101 0.000000
0.03891650 -0.06982608 0.19700001 194 101 104 0.000000
0.03957962 -0.07018053 0.19800001 194 101 104 0.000000
0.04004520 -0.07018053 0.19800001 191 98 101 0.000000
0.04051077 -0.07018053 0.19800001 190 98 98 0.000000
0.04118330 -0.07053497 0.19900002 191 99 99 0.000000
0.04165123 -0.07053497 0.19900002 195 100 99 0.000000
0.04211915 -0.07053497 0.19900002 193 98 97 0.000000
0.04258708 -0.07053497 0.19900002 197 101 100 0.000000
0.04327136 -0.07088942 0.20000000 198 102 101 0.000000
0.04374164 -0.07088942 0.20000000 198 103 102 0.000000
0.04421192 -0.07088942 0.20000000 198 103 102 0.000000
0.04490561 -0.07124387 0.20100001 194 102 102 0.000000
0.04537824 -0.07124387 0.20100001 191 99 99 0.000000
0.04607899 -0.07159831 0.20200001 181 103 103 0.000000
0.04655397 -0.07159831 0.20200001 185 107 107 0.000000
0.04702895 -0.07159831 0.20200001 175 113 112 0.000000
0.04773910 -0.07195276 0.20300001 175 113 112 0.000000
0.04821643 -0.07195276 0.20300001 168 112 114 0.000000
-0.01181001 -0.07077124 0.20100001 78 39 37 0.000000
-0.01128098 -0.07041915 0.20000000 93 54 52 0.000000
-0.01081070 -0.07041915 0.20000000 104 56 52 0.000000
-0.01034042 -0.07041915 0.20000000 112 64 60 0.000000
-0.00982079 -0.07006706 0.19900002 112 62 59 0.000000
-0.00935287 -0.07006706 0.19900002 116 66 63 0.000000
-0.00884029 -0.06971496 0.19800001 118 65 63 0.000000
-0.00837471 -0.06971496 0.19800001 120 67 65 0.000000
-0.00790914 -0.06971496 0.19800001 121 68 66 0.000000
-0.00744356 -0.06971496 0.19800001 122 69 67 0.000000
-0.00701323 -0.07006706 0.19900002 122 69 65 0.000000
-0.00654530 -0.07006706 0.19900002 124 71 67 0.000000
-0.00607737 -0.07006706 0.19900002 122 69 65 0.000000
-0.00560945 -0.07006706 0.19900002 122 69 65 0.000000
-0.00514152 -0.07006706 0.19900002 124 71 65 0.000000
-0.00469708 -0.07041915 0.20000000 125 72 66 0.000000
-0.00422680 -0.07041915 0.20000000 125 72 66 0.000000
-0.00373774 -0.07006706 0.19900002 126 73 67 0.000000
-0.00326981 -0.07006706 0.19900002 125 72 66 0.000000
-0.00278780 -0.06971496 0.19800001 124 71 65 0.000000
-0.00231050 -0.06936286 0.19700001 125 72 68 0.000000
-0.00183790 -0.06901076 0.19600001 124 71 67 0.000000
-0.00137000 -0.06865867 0.19500001 124 71 67 0.000000
-0.00090213 -0.06795447 0.19300000 124 71 67 0.000000
-0.00044598 -0.06760238 0.19200000 124 71 67 0.000000
0.00000545 -0.06725029 0.19100001 122 69 65 0.000000
0.00045457 -0.06725029 0.19100001 124 71 67 0.000000
0.00089896 -0.06689819 0.19000001 126 73 69 0.000000
0.00134572 -0.06689819 0.19000001 124 71 65 0.000000
0.00179249 -0.06689819 0.19000001 124 71 69 0.000000
0.00222747 -0.06654610 0.18900001 125 72 70 0.000000
0.00267188 -0.06654610 0.18900001 122 68 69 0.000000
0.00311629 -0.06654610 0.18900001 125 71 72 0.000000
0.00354187 -0.06619400 0.18800001 126 72 73 0.000000
0.00398393 -0.06619400 0.18800001 127 73 74 0.000000
0.00442599 -0.06619400 0.18800001 126 72 73 0.000000
0.00486805 -0.06619400 0.18800001 129 75 76 0.000000
0.00528187 -0.06584191 0.18700001 130 74 76 0.000000
0.00572158 -0.06584191 0.18700001 132 76 78 0.000000
0.00616129 -0.06584191 0.18700001 130 75 74 0.000000
0.00660100 -0.06584191 0.18700001 133 78 77 0.000000
0.00704071 -0.06584191 0.18700001 133 78 75 0.000000
0.00748042 -0.06584191 0.18700001 134 79 76 0.000000
0.00792013 -0.06584191 0.18700001 141 83 81 0.000000
0.00835984 -0.06584191 0.18700001 137 79 77 0.000000
0.00879955 -0.06584191 0.18700001 137 79 77 0.000000
0.00923927 -0.06584191 0.18700001 139 81 79 0.000000
0.00967898 -0.06584191 0.18700001 143 83 81 0.000000
0.01011869 -0.06584191 0.18700001 141 81 79 0.000000
0.01055840 -0.06584191 0.18700001 146 84 83 0.000000
0.01093929 -0.06548981 0.18600000 148 86 85 0.000000
0.01137665 -0.06548981 0.18600000 148 86 85 0.000000
0.01181401 -0.06548981 0.18600000 146 84 83 0.000000
0.01225137 -0.06548981 0.18600000 148 86 87 0.000000
0.01268873 -0.06548981 0.18600000 151 89 90 0.000000
0.01312609 -0.06548981 0.18600000 152 90 91 0.000000
0.01356345 -0.06548981 0.18600000 153 91 92 0.000000
0.01392554 -0.06513771 0.18500000 153 91 92 0.000000
0.01436055 -0.06513771 0.18500000 153 91 92 0.000000
0.01487553 -0.06548981 0.18600000 157 92 92 0.000000
0.01531289 -0.06548981 0.18600000 158 93 93 0.000000
0.01575025 -0.06548981 0.18600000 158 91 92 0.000000
0.01618761 -0.06548981 0.18600000 158 91 92 0.000000
0.01662496 -0.06548981 0.18600000 158 91 92 0.000000
0.01706233 -0.06548981 0.18600000 159 92 93 0.000000
0.01759377 -0.06584191 0.18700001 163 93 95 0.000000
0.01803348 -0.06584191 0.18700001 161 91 93 0.000000
0.01847319 -0.06584191 0.18700001 165 92 95 0.000000
0.01891290 -0.06584191 0.18700001 166 93 96 0.000000
0.01935261 -0.06584191 0.18700001 167 94 97 0.000000
0.01968648 -0.06548981 0.18600000 167 94 97 0.000000
0.02012384 -0.06548981 0.18600000 168 95 98 0.000000
0.02056120 -0.06548981 0.18600000 169 96 99 0.000000
0.02099856 -0.06548981 0.18600000 169 96 99 0.000000
0.02143592 -0.06548981 0.18600000 169 96 99 0.000000
0.02187328 -0.06548981 0.18600000 168 95 98 0.000000
0.02219069 -0.06513771 0.18500000 170 97 100 0.000000
0.02262569 -0.06513771 0.18500000 170 97 100 0.000000
0.02306070 -0.06513771 0.18500000 172 99 102 0.000000
0.02349571 -0.06513771 0.18500000 173 99 102 0.000000
0.02393072 -0.06513771 0.18500000 171 97 100 0.000000
0.02449743 -0.06548981 0.18600000 173 99 102 0.000000
0.02493479 -0.06548981 0.18600000 171 97 100 0.000000
0.02537215 -0.06548981 0.18600000 170 96 101 0.000000
0.02580951 -0.06548981 0.18600000 171 97 102 0.000000
0.02638798 -0.06584191 0.18700001 169 95 100 0.000000
0.02682769 -0.06584191 0.18700001 168 94 99 0.000000
0.02726740 -0.06584191 0.18700001 168 94 99 0.000000
0.02785528 -0.06619400 0.18800001 167 93 98 0.000000
0.02829734 -0.06619400 0.18800001 168 91 95 0.000000
0.02873941 -0.06619400 0.18800001 167 88 93 0.000000
0.02933669 -0.06654610 0.18900001 170 91 96 0.000000
0.02978110 -0.06654610 0.18900001 171 89 93 0.000000
0.03038544 -0.06689819 0.19000001 172 90 94 0.000000
0.03083220 -0.06689819 0.19000001 174 89 94 0.000000
0.03144360 -0.06725029 0.19100001 175 90 95 0.000000
0.03205969 -0.06760238 0.19200000 177 92 94 0.000000
0.03268049 -0.06795447 0.19300000 178 93 95 0.000000
0.03313430 -0.06795447 0.19300000 179 94 96 0.000000
0.03376215 -0.06830657 0.19400001 181 96 98 0.000000
0.03421832 -0.06830657 0.19400001 181 96 96 0.000000
0.03485323 -0.06865867 0.19500001 181 96 96 0.000000
0.03531175 -0.06865867 0.19500001 182 97 97 0.000000
0.03577027 -0.06865867 0.19500001 183 98 98 0.000000
0.03622879 -0.06865867 0.19500001 185 97 98 0.000000
0.03668732 -0.06865867 0.19500001 185 97 98 0.000000
0.03733633 -0.06901076 0.19600001 189 99 101 0.000000
0.03779721 -0.06901076 0.19600001 188 98 100 0.000000
0.03825808 -0.06901076 0.19600001 189 99 101 0.000000
0.03891650 -0.06936286 0.19700001 191 101 103 0.000000
0.03937972 -0.06936286 0.19700001 193 101 101 0.000000
0.04004520 -0.06971496 0.19800001 193 101 101 0.000000
0.04051077 -0.06971496 0.19800001 193 101 101 0.000000
0.04097635 -0.06971496 0.19800001 193 101 101 0.000000
0.04165123 -0.07006706 0.19900002 195 100 101 0.000000
0.04211915 -0.07006706 0.19900002 192 97 98 0.000000
0.04258708 -0.07006706 0.19900002 195 100 99 0.000000
0.04327136 -0.07041915 0.20000000 196 101 100 0.000000
0.04374164 -0.07041915 0.20000000 196 101 100 0.000000
0.04421192 -0.07041915 0.20000000 198 103 102 0.000000
0.04490561 -0.07077124 0.20100001 190 103 101 0.000000
0.04537824 -0.07077124 0.20100001 186 99 97 0.000000
0.04607899 -0.07112334 0.20200001 181 102 105 0.000000
0.04655397 -0.07112334 0.20200001 187 108 111 0.000000
0.04702895 -0.07112334 0.20200001 176 113 117 0.000000
0.04750393 -0.07112334 0.20200001 175 112 116 0.000000
0.04821643 -0.07147543 0.20300001 171 112 117 0.000000
-0.01133738 -0.07029861 0.20100001 89 52 47 0.000000
-0.01081070 -0.06994887 0.20000000 101 53 49 0.000000
-0.01034042 -0.06994887 0.20000000 109 61 57 0.000000
-0.00982079 -0.06959912 0.19900002 109 59 54 0.000000
-0.00935287 -0.06959912 0.19900002 112 62 57 0.000000
-0.00884029 -0.06924938 0.19800001 115 62 58 0.000000
-0.00837471 -0.06924938 0.19800001 115 62 58 0.000000
-0.00790914 -0.06924938 0.19800001 119 66 62 0.000000
-0.00744356 -0.06924938 0.19800001 119 66 62 0.000000
-0.00697799 -0.06924938 0.19800001 119 66 62 0.000000
-0.00651241 -0.06924938 0.19800001 121 68 64 0.000000
-0.00607737 -0.06959912 0.19900002 120 67 63 0.000000
-0.00560945 -0.06959912 0.19900002 120 67 63 0.000000
-0.00514152 -0.06959912 0.19900002 121 68 64 0.000000
-0.00467359 -0.06959912 0.19900002 122 69 65 0.000000
-0.00422680 -0.06994887 0.20000000 121 68 64 0.000000
-0.00373774 -0.06959912 0.19900002 122 69 65 0.000000
-0.00325338 -0.06924938 0.19800001 124 71 67 0.000000
-0.00278780 -0.06924938 0.19800001 122 69 65 0.000000
-0.00229877 -0.06854989 0.19600001 122 69 65 0.000000
-0.00182852 -0.06820015 0.19500001 122 69 65 0.000000
-0.00135595 -0.06750066 0.19300000 122 69 67 0.000000
-0.00089745 -0.06715091 0.19200000 124 71 69 0.000000
-0.00044134 -0.06645142 0.19000001 122 69 67 0.000000
0.00044981 -0.06610168 0.18900001 124 71 69 0.000000
0.00089422 -0.06610168 0.18900001 125 72 70 0.000000
0.00133864 -0.06610168 0.18900001 125 72 70 0.000000
0.00177362 -0.06575193 0.18800001 124 70 71 0.000000
0.00221568 -0.06575193 0.18800001 125 71 72 0.000000
0.00265774 -0.06575193 0.18800001 124 70 71 0.000000
0.00309980 -0.06575193 0.18800001 125 71 72 0.000000
0.00354187 -0.06575193 0.18800001 126 72 73 0.000000
0.00396274 -0.06540219 0.18700001 127 73 74 0.000000
0.00440245 -0.06540219 0.18700001 127 73 74 0.000000
0.00484216 -0.06540219 0.18700001 128 74 75 0.000000
0.00528187 -0.06540219 0.18700001 130 74 76 0.000000
0.00572158 -0.06540219 0.18700001 130 74 76 0.000000
0.00616129 -0.06540219 0.18700001 130 75 74 0.000000
0.00660100 -0.06540219 0.18700001 132 77 76 0.000000
0.00704071 -0.06540219 0.18700001 135 80 77 0.000000
0.00744042 -0.06505244 0.18600000 136 81 78 0.000000
0.00787778 -0.06505244 0.18600000 141 83 81 0.000000
0.00831514 -0.06505244 0.18600000 138 80 78 0.000000
0.00875250 -0.06505244 0.18600000 139 81 79 0.000000
0.00918986 -0.06505244 0.18600000 141 83 81 0.000000
0.00962722 -0.06505244 0.18600000 142 84 84 0.000000
0.01006458 -0.06505244 0.18600000 142 84 84 0.000000
0.01050194 -0.06505244 0.18600000 146 86 86 0.000000
0.01093929 -0.06505244 0.18600000 146 86 86 0.000000
0.01137665 -0.06505244 0.18600000 147 85 86 0.000000
0.01181401 -0.06505244 0.18600000 147 85 86 0.000000
0.01218551 -0.06470270 0.18500000 148 86 87 0.000000
0.01262051 -0.06470270 0.18500000 151 89 90 0.000000
0.01305552 -0.06470270 0.18500000 151 89 90 0.000000
