-0.02972480 -0.01011836 0.21800001 0 83 136 0.000000
-0.02921220 -0.01011836 0.21800001 0 81 134 0.000000
-0.02869959 -0.01011836 0.21800001 0 73 127 0.000000
-0.02831629 -0.01016477 0.21900001 3 79 127 0.000000
-0.02780133 -0.01016477 0.21900001 9 85 133 0.000000
-0.02716178 -0.01011836 0.21800001 10 90 137 0.000000
-0.02664918 -0.01011836 0.21800001 4 84 131 0.000000
-0.02613658 -0.01011836 0.21800001 3 87 137 0.000000
-0.02562397 -0.01011836 0.21800001 4 88 138 0.000000
-0.02511137 -0.01011836 0.21800001 3 92 145 0.000000
-0.02448593 -0.01007194 0.21700001 4 93 146 0.000000
-0.02397567 -0.01007194 0.21700001 1 95 151 0.000000
-0.02346542 -0.01007194 0.21700001 1 95 151 0.000000
-0.02295517 -0.01007194 0.21700001 0 96 155 0.000000
-0.02244492 -0.01007194 0.21700001 0 98 157 0.000000
-0.02193466 -0.01007194 0.21700001 0 98 161 0.000000
-0.02142441 -0.01007194 0.21700001 0 97 160 0.000000
-0.02101053 -0.01011836 0.21800001 0 98 163 0.000000
-0.02049793 -0.01011836 0.21800001 0 97 162 0.000000
-0.01998533 -0.01011836 0.21800001 0 97 164 0.000000
-0.01947272 -0.01011836 0.21800001 0 97 164 0.000000
-0.01896012 -0.01011836 0.21800001 0 97 164 0.000000
-0.01844751 -0.01011836 0.21800001 0 98 165 0.000000
-0.01793491 -0.01011836 0.21800001 0 96 163 0.000000
-0.01742231 -0.01011836 0.21800001 0 97 164 0.000000
-0.01690970 -0.01011836 0.21800001 0 96 163 0.000000
-0.01639710 -0.01011836 0.21800001 0 96 163 0.000000
-0.01588450 -0.01011836 0.21800001 14 91 146 0.000000
0.02551883 -0.01007194 0.21700001 113 33 43 0.000000
0.02605236 -0.00970063 0.20900001 122 40 62 0.000000
0.02654380 -0.00970063 0.20900001 167 85 107 0.000000
0.02690589 -0.00965421 0.20800000 163 86 108 0.000000
0.02739498 -0.00965421 0.20800000 162 85 107 0.000000
0.02788407 -0.00965421 0.20800000 161 85 107 0.000000
0.02850957 -0.00970063 0.20900001 161 85 107 0.000000
0.02900101 -0.00970063 0.20900001 162 86 108 0.000000
0.02963356 -0.00974704 0.21000001 162 86 108 0.000000
0.03027082 -0.00979346 0.21100001 160 84 106 0.000000
0.03091278 -0.00983987 0.21200001 161 85 107 0.000000
0.03155944 -0.00988629 0.21300001 160 83 105 0.000000
0.03206029 -0.00988629 0.21300001 161 84 106 0.000000
0.03271401 -0.00993270 0.21400002 162 85 107 0.000000
0.03337242 -0.00997911 0.21500000 163 86 108 0.000000
0.03403554 -0.01002553 0.21600001 163 86 108 0.000000
0.03454345 -0.01002553 0.21600001 163 86 108 0.000000
0.03521362 -0.01007194 0.21700001 161 85 107 0.000000
0.03572388 -0.01007194 0.21700001 161 85 107 0.000000
0.03742632 -0.01011836 0.21800001 157 76 103 0.000000
0.03811295 -0.01016477 0.21900001 161 80 107 0.000000
0.03880429 -0.01021119 0.22000001 158 77 104 0.000000
-0.03505329 -0.00925325 0.21000001 22 12 12 0.000000
-0.03423036 -0.00916512 0.20800000 60 32 41 0.000000
-0.03390349 -0.00920919 0.20900001 110 82 91 0.000000
-0.03341204 -0.00920919 0.20900001 138 91 107 0.000000
-0.03307812 -0.00925325 0.21000001 129 82 98 0.000000
-0.03258432 -0.00925325 0.21000001 131 77 97 0.000000
-0.03224334 -0.00929731 0.21100001 130 76 96 0.000000
-0.03189766 -0.00934138 0.21200001 120 71 101 0.000000
-0.03154728 -0.00938544 0.21300001 121 72 102 0.000000
-0.03133794 -0.00947357 0.21500000 74 70 112 0.000000
-0.03097580 -0.00951763 0.21600001 60 56 98 0.000000
-0.03060895 -0.00956169 0.21700001 14 73 123 0.000000
-0.03023740 -0.00960575 0.21800001 17 76 126 0.000000
-0.02972480 -0.00960575 0.21800001 1 84 137 0.000000
-0.02921220 -0.00960575 0.21800001 0 66 118 0.000000
-0.02883124 -0.00964982 0.21900001 0 52 104 0.000000
-0.02831629 -0.00964982 0.21900001 0 50 98 0.000000
-0.02780133 -0.00964982 0.21900001 0 56 104 0.000000
-0.02716178 -0.00960575 0.21800001 1 58 104 0.000000
-0.02664918 -0.00960575 0.21800001 10 67 113 0.000000
-0.02613658 -0.00960575 0.21800001 8 76 125 0.000000
-0.02550643 -0.00956169 0.21700001 12 80 129 0.000000
-0.02499618 -0.00956169 0.21700001 10 85 138 0.000000
-0.02448593 -0.00956169 0.21700001 8 83 136 0.000000
-0.02397567 -0.00956169 0.21700001 16 94 151 0.000000
-0.02346542 -0.00956169 0.21700001 21 99 156 0.000000
-0.02295517 -0.00956169 0.21700001 3 92 152 0.000000
-0.02244492 -0.00956169 0.21700001 7 96 156 0.000000
-0.02193466 -0.00956169 0.21700001 0 100 158 0.000000
-0.02142441 -0.00956169 0.21700001 0 99 157 0.000000
-0.02091416 -0.00956169 0.21700001 0 100 161 0.000000
-0.02049793 -0.00960575 0.21800001 0 101 162 0.000000
-0.01998533 -0.00960575 0.21800001 0 99 163 0.000000
-0.01947272 -0.00960575 0.21800001 0 98 162 0.000000
-0.01896012 -0.00960575 0.21800001 0 98 164 0.000000
-0.01844751 -0.00960575 0.21800001 0 98 164 0.000000
-0.01793491 -0.00960575 0.21800001 0 97 164 0.000000
-0.01742231 -0.00960575 0.21800001 0 97 164 0.000000
-0.01690970 -0.00960575 0.21800001 0 97 162 0.000000
-0.01639710 -0.00960575 0.21800001 0 97 162 0.000000
0.02556092 -0.00920919 0.20900001 116 36 48 0.000000
0.02605236 -0.00920919 0.20900001 138 58 79 0.000000
0.02641680 -0.00916512 0.20800000 168 88 109 0.000000
0.02690589 -0.00916512 0.20800000 165 85 108 0.000000
0.02739498 -0.00916512 0.20800000 164 84 107 0.000000
0.02788407 -0.00916512 0.20800000 162 85 107 0.000000
0.02850957 -0.00920919 0.20900001 162 85 107 0.000000
0.02900101 -0.00920919 0.20900001 163 86 108 0.000000
0.02963356 -0.00925325 0.21000001 163 86 108 0.000000
0.03027082 -0.00929731 0.21100001 163 86 108 0.000000
0.03091278 -0.00934138 0.21200001 162 85 107 0.000000
0.03155944 -0.00938544 0.21300001 161 84 106 0.000000
0.03221081 -0.00942950 0.21400002 160 83 105 0.000000
0.03271401 -0.00942950 0.21400002 160 83 105 0.000000
0.03337242 -0.00947357 0.21500000 161 84 106 0.000000
0.03403554 -0.00951763 0.21600001 163 86 108 0.000000
0.03470337 -0.00956169 0.21700001 164 87 109 0.000000
0.03521362 -0.00956169 0.21700001 163 86 108 0.000000
0.03759800 -0.00964982 0.21900001 160 78 102 0.000000
0.03828698 -0.00969388 0.22000001 162 80 104 0.000000
0.03880429 -0.00969388 0.22000001 161 81 104 0.000000
-0.03488637 -0.00871775 0.20900001 26 14 14 0.000000
-0.03439493 -0.00871775 0.20900001 71 41 55 0.000000
-0.03374127 -0.00867603 0.20800000 127 97 111 0.000000
-0.03341204 -0.00871775 0.20900001 136 86 105 0.000000
-0.03292060 -0.00871775 0.20900001 133 83 102 0.000000
-0.03258432 -0.00875946 0.21000001 135 78 101 0.000000
-0.03224334 -0.00880117 0.21100001 132 75 98 0.000000
-0.03189766 -0.00884288 0.21200001 122 70 101 0.000000
-0.03154728 -0.00888459 0.21300001 121 69 100 0.000000
-0.03119219 -0.00892630 0.21400002 91 84 124 0.000000
-0.03097580 -0.00900973 0.21600001 66 59 99 0.000000
-0.03060895 -0.00905144 0.21700001 14 73 123 0.000000
-0.03023740 -0.00909315 0.21800001 18 77 127 0.000000
-0.02972480 -0.00909315 0.21800001 2 86 136 0.000000
-0.02934620 -0.00913486 0.21900001 0 57 106 0.000000
-0.02883124 -0.00913486 0.21900001 0 47 96 0.000000
-0.02831629 -0.00913486 0.21900001 11 41 85 0.000000
-0.02780133 -0.00913486 0.21900001 10 40 84 0.000000
-0.02728638 -0.00913486 0.21900001 8 42 82 0.000000
-0.02664918 -0.00909315 0.21800001 10 44 84 0.000000
-0.02613658 -0.00909315 0.21800001 0 46 93 0.000000
-0.02550643 -0.00905144 0.21700001 1 47 94 0.000000
-0.02499618 -0.00905144 0.21700001 0 50 102 0.000000
-0.02448593 -0.00905144 0.21700001 6 58 110 0.000000
-0.02397567 -0.00905144 0.21700001 19 74 134 0.000000
-0.02284938 -0.00900973 0.21600001 17 93 155 0.000000
-0.02244492 -0.00905144 0.21700001 16 92 154 0.000000
-0.02193466 -0.00905144 0.21700001 4 103 164 0.000000
-0.02142441 -0.00905144 0.21700001 0 99 160 0.000000
-0.02091416 -0.00905144 0.21700001 0 101 160 0.000000
-0.02040390 -0.00905144 0.21700001 0 101 160 0.000000
-0.01989365 -0.00905144 0.21700001 0 102 160 0.000000
-0.01947272 -0.00909315 0.21800001 0 101 159 0.000000
-0.01896012 -0.00909315 0.21800001 0 100 160 0.000000
-0.01844751 -0.00909315 0.21800001 0 100 160 0.000000
-0.01793491 -0.00909315 0.21800001 0 97 161 0.000000
-0.01742231 -0.00909315 0.21800001 0 98 162 0.000000
-0.01690970 -0.00909315 0.21800001 0 98 160 0.000000
-0.01639710 -0.00909315 0.21800001 0 98 160 0.000000
0.02592771 -0.00867603 0.20800000 157 77 100 0.000000
0.02641680 -0.00867603 0.20800000 166 86 109 0.000000
0.02690589 -0.00867603 0.20800000 163 83 106 0.000000
0.02739498 -0.00867603 0.20800000 164 84 107 0.000000
0.02788407 -0.00867603 0.20800000 163 83 106 0.000000
0.02850957 -0.00871775 0.20900001 164 84 107 0.000000
0.02900101 -0.00871775 0.20900001 163 86 108 0.000000
0.02963356 -0.00875946 0.21000001 164 87 109 0.000000
0.03027082 -0.00880117 0.21100001 162 85 107 0.000000
0.03091278 -0.00884288 0.21200001 161 84 106 0.000000
0.03155944 -0.00888459 0.21300001 162 82 105 0.000000
0.03221081 -0.00892630 0.21400002 162 82 105 0.000000
0.03286687 -0.00896802 0.21500000 164 84 107 0.000000
0.03352764 -0.00900973 0.21600001 165 85 108 0.000000
0.03419312 -0.00905144 0.21700001 163 86 108 0.000000
0.03470337 -0.00905144 0.21700001 163 86 108 0.000000
0.03776968 -0.00917657 0.22000001 160 78 102 0.000000
0.03846101 -0.00921829 0.22100002 162 80 104 0.000000
0.03898067 -0.00921829 0.22100002 161 81 104 0.000000
-0.03488637 -0.00822630 0.20900001 33 20 24 0.000000
-0.03423036 -0.00818694 0.20800000 79 45 63 0.000000
-0.03374127 -0.00818694 0.20800000 131 97 115 0.000000
-0.03341204 -0.00822630 0.20900001 133 86 104 0.000000
-0.03292060 -0.00822630 0.20900001 132 85 103 0.000000
-0.03258432 -0.00826566 0.21000001 134 77 100 0.000000
-0.03224334 -0.00830502 0.21100001 134 77 100 0.000000
-0.03189766 -0.00834438 0.21200001 126 73 101 0.000000
-0.03154728 -0.00838375 0.21300001 123 70 98 0.000000
-0.03119219 -0.00842311 0.21400002 91 79 119 0.000000
-0.03097580 -0.00850183 0.21600001 70 58 98 0.000000
-0.03060895 -0.00854119 0.21700001 15 72 120 0.000000
-0.03023740 -0.00858055 0.21800001 19 76 124 0.000000
-0.02986116 -0.00861991 0.21900001 5 84 134 0.000000
-0.02934620 -0.00861991 0.21900001 0 40 85 0.000000
-0.02883124 -0.00861991 0.21900001 0 42 87 0.000000
-0.02831629 -0.00861991 0.21900001 31 33 70 0.000000
-0.02780133 -0.00861991 0.21900001 29 31 68 0.000000
-0.02728638 -0.00861991 0.21900001 29 35 66 0.000000
-0.02664918 -0.00858055 0.21800001 26 32 63 0.000000
-0.02601668 -0.00854119 0.21700001 22 40 78 0.000000
-0.02550643 -0.00854119 0.21700001 21 39 77 0.000000
-0.02488099 -0.00850183 0.21600001 22 49 91 0.000000
-0.02437309 -0.00850183 0.21600001 85 112 154 0.000000
-0.02183358 -0.00850183 0.21600001 12 89 151 0.000000
-0.02132568 -0.00850183 0.21600001 16 93 155 0.000000
-0.02081778 -0.00850183 0.21600001 3 100 157 0.000000
-0.02040390 -0.00854119 0.21700001 3 100 157 0.000000
-0.01989365 -0.00854119 0.21700001 0 99 158 0.000000
-0.01938340 -0.00854119 0.21700001 0 99 158 0.000000
-0.01887315 -0.00854119 0.21700001 0 99 158 0.000000
-0.01844751 -0.00858055 0.21800001 0 99 158 0.000000
-0.01793491 -0.00858055 0.21800001 0 99 160 0.000000
-0.01742231 -0.00858055 0.21800001 0 100 161 0.000000
-0.01690970 -0.00858055 0.21800001 0 99 159 0.000000
-0.01639710 -0.00858055 0.21800001 0 98 158 0.000000
0.02580306 -0.00814758 0.20700002 171 91 112 0.000000
0.02628980 -0.00814758 0.20700002 166 86 107 0.000000
0.02677654 -0.00814758 0.20700002 164 84 105 0.000000
0.02726327 -0.00814758 0.20700002 163 83 104 0.000000
0.02788407 -0.00818694 0.20800000 163 83 104 0.000000
0.02837316 -0.00818694 0.20800000 165 85 106 0.000000
0.02900101 -0.00822630 0.20900001 165 85 108 0.000000
0.02963356 -0.00826566 0.21000001 165 85 108 0.000000
0.03027082 -0.00830502 0.21100001 163 83 106 0.000000
0.03091278 -0.00834438 0.21200001 162 82 105 0.000000
0.03170761 -0.00842311 0.21400002 161 81 104 0.000000
0.03236132 -0.00846247 0.21500000 163 83 106 0.000000
0.03301974 -0.00850183 0.21600001 163 83 106 0.000000
0.03368286 -0.00854119 0.21700001 163 83 106 0.000000
0.03419312 -0.00854119 0.21700001 162 85 107 0.000000
0.03794136 -0.00869863 0.22100002 160 78 102 0.000000
0.03846101 -0.00869863 0.22100002 163 81 105 0.000000
0.03915705 -0.00873799 0.22200002 163 81 103 0.000000
-0.03471945 -0.00769785 0.20800000 41 25 30 0.000000
-0.03423036 -0.00769785 0.20800000 82 49 62 0.000000
-0.03374127 -0.00769785 0.20800000 131 98 111 0.000000
-0.03341204 -0.00773486 0.20900001 132 85 103 0.000000
-0.03292060 -0.00773486 0.20900001 132 85 103 0.000000
-0.03258432 -0.00777187 0.21000001 134 77 100 0.000000
-0.03224334 -0.00780888 0.21100001 135 78 101 0.000000
-0.03189766 -0.00784589 0.21200001 131 76 103 0.000000
-0.03154728 -0.00788290 0.21300001 126 71 98 0.000000
-0.03119219 -0.00791991 0.21400002 95 79 116 0.000000
-0.03097580 -0.00799393 0.21600001 76 60 97 0.000000
-0.03060895 -0.00803093 0.21700001 22 73 118 0.000000
-0.03023740 -0.00806794 0.21800001 22 73 118 0.000000
-0.02986116 -0.00810495 0.21900001 10 81 127 0.000000
-0.02934620 -0.00810495 0.21900001 3 34 73 0.000000
-0.02883124 -0.00810495 0.21900001 5 36 75 0.000000
-0.02831629 -0.00810495 0.21900001 37 27 55 0.000000
-0.02780133 -0.00810495 0.21900001 37 27 55 0.000000
-0.02716178 -0.00806794 0.21800001 29 22 46 0.000000
-0.02664918 -0.00806794 0.21800001 40 33 57 0.000000
-0.02601668 -0.00803093 0.21700001 50 51 80 0.000000
-0.02538889 -0.00799393 0.21600001 55 56 85 0.000000
-0.02488099 -0.00799393 0.21600001 79 92 121 0.000000
-0.02081778 -0.00799393 0.21600001 7 77 132 0.000000
-0.02030987 -0.00799393 0.21600001 9 79 134 0.000000
-0.01980198 -0.00799393 0.21600001 9 90 144 0.000000
-0.01929407 -0.00799393 0.21600001 14 95 149 0.000000
-0.01887315 -0.00803093 0.21700001 0 100 156 0.000000
-0.01836289 -0.00803093 0.21700001 0 98 154 0.000000
-0.01785264 -0.00803093 0.21700001 0 100 159 0.000000
-0.01734239 -0.00803093 0.21700001 0 101 160 0.000000
-0.01690970 -0.00806794 0.21800001 0 100 156 0.000000
-0.01639710 -0.00806794 0.21800001 0 98 154 0.000000
0.02580306 -0.00766085 0.20700002 172 92 113 0.000000
0.02628980 -0.00766085 0.20700002 164 84 105 0.000000
0.02677654 -0.00766085 0.20700002 165 85 106 0.000000
0.02726327 -0.00766085 0.20700002 162 82 103 0.000000
0.02775001 -0.00766085 0.20700002 164 84 105 0.000000
0.02837316 -0.00769785 0.20800000 166 86 107 0.000000
0.02900101 -0.00773486 0.20900001 168 88 111 0.000000
0.02963356 -0.00777187 0.21000001 165 85 108 0.000000
0.03027082 -0.00780888 0.21100001 161 81 104 0.000000
0.03105859 -0.00788290 0.21300001 162 82 105 0.000000
0.03170761 -0.00791991 0.21400002 161 81 104 0.000000
0.03236132 -0.00795692 0.21500000 163 83 106 0.000000
0.03301974 -0.00799393 0.21600001 161 81 104 0.000000
0.03368286 -0.00803093 0.21700001 162 82 105 0.000000
0.03435069 -0.00806794 0.21800001 161 84 106 0.000000
0.03811304 -0.00821598 0.22200002 161 76 101 0.000000
0.03863505 -0.00821598 0.22200002 164 79 104 0.000000
-0.03471945 -0.00720876 0.20800000 46 29 31 0.000000
-0.03423036 -0.00720876 0.20800000 84 49 61 0.000000
-0.03374127 -0.00720876 0.20800000 131 96 108 0.000000
-0.03325218 -0.00720876 0.20800000 135 88 106 0.000000
-0.03292060 -0.00724342 0.20900001 133 86 104 0.000000
-0.03242916 -0.00724342 0.20900001 136 79 100 0.000000
-0.03224334 -0.00731274 0.21100001 138 81 102 0.000000
-0.03174720 -0.00731274 0.21100001 133 78 103 0.000000
-0.03154728 -0.00738205 0.21300001 129 74 99 0.000000
-0.03119219 -0.00741671 0.21400002 108 81 115 0.000000
-0.03083239 -0.00745137 0.21500000 86 59 93 0.000000
-0.03060895 -0.00752068 0.21700001 27 65 106 0.000000
-0.03023740 -0.00755534 0.21800001 30 68 109 0.000000
-0.02986116 -0.00759000 0.21900001 17 75 116 0.000000
-0.02934620 -0.00759000 0.21900001 11 27 62 0.000000
-0.02883124 -0.00759000 0.21900001 12 28 63 0.000000
-0.02831629 -0.00759000 0.21900001 38 22 45 0.000000
-0.02780133 -0.00759000 0.21900001 35 19 42 0.000000
-0.02716178 -0.00755534 0.21800001 38 26 48 0.000000
-0.02664918 -0.00755534 0.21800001 74 62 84 0.000000
-0.02601668 -0.00752068 0.21700001 89 85 108 0.000000
-0.02538889 -0.00748602 0.21600001 89 85 108 0.000000
-0.01971030 -0.00745137 0.21500000 6 62 115 0.000000
-0.01929407 -0.00748602 0.21600001 5 61 114 0.000000
-0.01878617 -0.00748602 0.21600001 0 74 127 0.000000
-0.01827827 -0.00748602 0.21600001 4 93 146 0.000000
-0.01785264 -0.00752068 0.21700001 0 100 158 0.000000
-0.01734239 -0.00752068 0.21700001 0 100 158 0.000000
-0.01683214 -0.00752068 0.21700001 1 98 153 0.000000
-0.01639710 -0.00755534 0.21800001 0 96 151 0.000000
0.02567841 -0.00713945 0.20600002 168 88 109 0.000000
0.02616279 -0.00713945 0.20600002 168 88 109 0.000000
0.02677654 -0.00717411 0.20700002 165 85 106 0.000000
0.02726327 -0.00717411 0.20700002 164 84 105 0.000000
0.02775001 -0.00717411 0.20700002 164 84 105 0.000000
0.02837316 -0.00720876 0.20800000 164 84 105 0.000000
0.02900101 -0.00724342 0.20900001 164 84 107 0.000000
0.02977468 -0.00731274 0.21100001 162 82 105 0.000000
0.03041429 -0.00734739 0.21200001 161 81 104 0.000000
0.03105859 -0.00738205 0.21300001 162 82 105 0.000000
0.03185577 -0.00745137 0.21500000 162 82 105 0.000000
0.03251184 -0.00748602 0.21600001 162 82 105 0.000000
0.03317261 -0.00752068 0.21700001 164 84 107 0.000000
0.03383809 -0.00755534 0.21800001 164 84 107 0.000000
0.03811304 -0.00769397 0.22200002 164 79 102 0.000000
0.03863505 -0.00769397 0.22200002 164 79 102 0.000000
-0.03554708 -0.00678429 0.21000001 39 19 22 0.000000
-0.03471945 -0.00671967 0.20800000 50 30 33 0.000000
-0.03423036 -0.00671967 0.20800000 82 47 59 0.000000
-0.03374127 -0.00671967 0.20800000 130 95 107 0.000000
-0.03325218 -0.00671967 0.20800000 134 87 103 0.000000
-0.03276309 -0.00671967 0.20800000 133 86 102 0.000000
-0.03242916 -0.00675198 0.20900001 137 78 100 0.000000
-0.03209053 -0.00678429 0.21000001 141 82 104 0.000000
-0.03174720 -0.00681659 0.21100001 137 78 102 0.000000
-0.03154728 -0.00688120 0.21300001 135 76 100 0.000000
-0.03119219 -0.00691351 0.21400002 118 77 109 0.000000
-0.03083239 -0.00694582 0.21500000 87 46 78 0.000000
-0.03060895 -0.00701043 0.21700001 38 51 89 0.000000
-0.03023740 -0.00704274 0.21800001 40 53 91 0.000000
-0.02986116 -0.00707504 0.21900001 32 66 104 0.000000
-0.02934620 -0.00707504 0.21900001 23 24 53 0.000000
-0.02883124 -0.00707504 0.21900001 22 23 52 0.000000
-0.02831629 -0.00707504 0.21900001 39 16 37 0.000000
-0.02780133 -0.00707504 0.21900001 41 18 39 0.000000
-0.02716178 -0.00704274 0.21800001 74 59 77 0.000000
-0.02652694 -0.00701043 0.21700001 98 83 101 0.000000
-0.02589679 -0.00697812 0.21600001 102 94 110 0.000000
-0.01920475 -0.00694582 0.21500000 23 58 100 0.000000
-0.01869920 -0.00694582 0.21500000 0 77 127 0.000000
-0.01819365 -0.00694582 0.21500000 16 95 145 0.000000
-0.01777037 -0.00697812 0.21600001 0 100 155 0.000000
-0.01726247 -0.00697812 0.21600001 0 101 156 0.000000
-0.01683214 -0.00701043 0.21700001 3 98 151 0.000000
-0.01632188 -0.00701043 0.21700001 0 95 148 0.000000
0.02567841 -0.00665506 0.20600002 166 89 111 0.000000
0.02616279 -0.00665506 0.20600002 164 87 109 0.000000
0.02664718 -0.00665506 0.20600002 163 86 106 0.000000
0.02726327 -0.00668737 0.20700002 162 85 105 0.000000
0.02775001 -0.00668737 0.20700002 164 84 105 0.000000
0.02837316 -0.00671967 0.20800000 163 83 104 0.000000
0.02913977 -0.00678429 0.21000001 161 81 104 0.000000
0.02977468 -0.00681659 0.21100001 163 83 106 0.000000
0.03055775 -0.00688120 0.21300001 162 82 105 0.000000
0.03120441 -0.00691351 0.21400002 162 82 105 0.000000
0.03200394 -0.00697812 0.21600001 165 85 108 0.000000
0.03266236 -0.00701043 0.21700001 164 84 107 0.000000
0.03332548 -0.00704274 0.21800001 164 84 107 0.000000
0.03811304 -0.00717196 0.22200002 164 79 102 0.000000
0.03880908 -0.00720427 0.22300000 165 80 103 0.000000
-0.03488637 -0.00626054 0.20900001 52 29 37 0.000000
-0.03439493 -0.00626054 0.20900001 81 46 58 0.000000
-0.03374127 -0.00623058 0.20800000 130 95 107 0.000000
-0.03325218 -0.00623058 0.20800000 135 85 102 0.000000
-0.03276309 -0.00623058 0.20800000 134 84 101 0.000000
-0.03242916 -0.00626054 0.20900001 137 78 100 0.000000
-0.03209053 -0.00629049 0.21000001 140 81 103 0.000000
-0.03174720 -0.00632045 0.21100001 137 78 100 0.000000
-0.03139917 -0.00635040 0.21200001 136 77 99 0.000000
-0.03119219 -0.00641031 0.21400002 126 75 103 0.000000
-0.03083239 -0.00644027 0.21500000 77 26 54 0.000000
-0.03046790 -0.00647022 0.21600001 52 38 65 0.000000
-0.03023740 -0.00653013 0.21800001 58 44 71 0.000000
-0.02986116 -0.00656009 0.21900001 50 53 83 0.000000
-0.02934620 -0.00656009 0.21900001 39 24 44 0.000000
-0.02883124 -0.00656009 0.21900001 38 23 43 0.000000
-0.02831629 -0.00656009 0.21900001 42 16 33 0.000000
-0.02767439 -0.00653013 0.21800001 57 31 48 0.000000
-0.02716178 -0.00653013 0.21800001 91 72 87 0.000000
-0.02652694 -0.00650018 0.21700001 99 80 95 0.000000
-0.01810903 -0.00641031 0.21400002 29 91 135 0.000000
-0.01768810 -0.00644027 0.21500000 0 98 152 0.000000
-0.01718255 -0.00644027 0.21500000 0 100 154 0.000000
-0.01667700 -0.00644027 0.21500000 5 95 148 0.000000
-0.01624667 -0.00647022 0.21600001 4 94 147 0.000000
0.02567841 -0.00617067 0.20600002 164 87 109 0.000000
0.02616279 -0.00617067 0.20600002 163 86 108 0.000000
0.02664718 -0.00617067 0.20600002 163 86 106 0.000000
0.02726327 -0.00620063 0.20700002 162 85 105 0.000000
0.02775001 -0.00620063 0.20700002 162 85 105 0.000000
0.02850957 -0.00626054 0.20900001 161 84 104 0.000000
0.02913977 -0.00629049 0.21000001 159 82 102 0.000000
0.02977468 -0.00632045 0.21100001 162 85 105 0.000000
0.03055775 -0.00638036 0.21300001 162 85 107 0.000000
0.03135022 -0.00644027 0.21500000 161 84 106 0.000000
0.03200394 -0.00647022 0.21600001 165 85 108 0.000000
0.03281288 -0.00653013 0.21800001 165 85 108 0.000000
0.03811304 -0.00664995 0.22200002 164 82 104 0.000000
0.03880908 -0.00667990 0.22300000 165 83 105 0.000000
-0.03488637 -0.00576910 0.20900001 53 31 35 0.000000
-0.03439493 -0.00576910 0.20900001 76 38 51 0.000000
-0.03374127 -0.00574149 0.20800000 129 91 104 0.000000
-0.03325218 -0.00574149 0.20800000 138 84 102 0.000000
-0.03276309 -0.00574149 0.20800000 137 83 101 0.000000
-0.03242916 -0.00576910 0.20900001 139 80 100 0.000000
-0.03209053 -0.00579670 0.21000001 139 80 100 0.000000
-0.03174720 -0.00582430 0.21100001 141 79 100 0.000000
-0.03139917 -0.00585191 0.21200001 141 79 100 0.000000
-0.03104643 -0.00587951 0.21300001 129 71 97 0.000000
-0.03083239 -0.00593472 0.21500000 75 17 43 0.000000
-0.03046790 -0.00596232 0.21600001 66 27 47 0.000000
-0.03009870 -0.00598992 0.21700001 69 30 50 0.000000
-0.02972480 -0.00601753 0.21800001 68 44 61 0.000000
-0.02934620 -0.00604513 0.21900001 44 16 29 0.000000
-0.02883124 -0.00604513 0.21900001 50 22 35 0.000000
-0.02818699 -0.00601753 0.21800001 46 15 32 0.000000
-0.02767439 -0.00601753 0.21800001 68 37 54 0.000000
-0.02703719 -0.00598992 0.21700001 91 69 85 0.000000
-0.01702271 -0.00587951 0.21300001 12 95 148 0.000000
-0.01652187 -0.00587951 0.21300001 14 92 144 0.000000
-0.01609624 -0.00590711 0.21400002 19 97 149 0.000000
0.02519402 -0.00568629 0.20600002 170 93 115 0.000000
0.02567841 -0.00568629 0.20600002 165 89 111 0.000000
0.02616279 -0.00568629 0.20600002 163 87 109 0.000000
0.02664718 -0.00568629 0.20600002 162 85 105 0.000000
0.02726327 -0.00571389 0.20700002 162 85 105 0.000000
0.02775001 -0.00571389 0.20700002 164 87 107 0.000000
0.02850957 -0.00576910 0.20900001 161 84 104 0.000000
0.02927853 -0.00582430 0.21100001 161 84 106 0.000000
0.03149604 -0.00596232 0.21600001 161 84 106 0.000000
0.03215211 -0.00598992 0.21700001 163 86 108 0.000000
0.03828472 -0.00615554 0.22300000 163 81 103 0.000000
0.03880908 -0.00615554 0.22300000 166 84 106 0.000000
-0.03505329 -0.00530291 0.21000001 58 34 36 0.000000
-0.03439493 -0.00527766 0.20900001 71 30 40 0.000000
-0.03374127 -0.00525240 0.20800000 118 77 87 0.000000
-0.03325218 -0.00525240 0.20800000 142 85 104 0.000000
-0.03276309 -0.00525240 0.20800000 138 81 100 0.000000
-0.03227400 -0.00525240 0.20800000 139 80 100 0.000000
-0.03193772 -0.00527766 0.20900001 139 80 100 0.000000
-0.03159674 -0.00530291 0.21000001 139 77 98 0.000000
-0.03125106 -0.00532816 0.21100001 141 79 100 0.000000
-0.03104643 -0.00537866 0.21300001 133 74 96 0.000000
-0.03068899 -0.00540392 0.21400002 75 16 38 0.000000
-0.03046790 -0.00545442 0.21600001 72 22 41 0.000000
-0.03009870 -0.00547967 0.21700001 71 21 40 0.000000
-0.02972480 -0.00550492 0.21800001 65 25 38 0.000000
-0.02921220 -0.00550492 0.21800001 55 17 30 0.000000
-0.02869959 -0.00550492 0.21800001 58 20 33 0.000000
-0.02818699 -0.00550492 0.21800001 56 21 37 0.000000
-0.02754744 -0.00547967 0.21700001 77 42 58 0.000000
-0.01594580 -0.00535341 0.21200001 35 88 135 0.000000
0.02470963 -0.00520190 0.20600002 174 98 120 0.000000
0.02519402 -0.00520190 0.20600002 166 90 112 0.000000
0.02567841 -0.00520190 0.20600002 163 87 109 0.000000
0.02616279 -0.00520190 0.20600002 163 87 109 0.000000
0.02677654 -0.00522715 0.20700002 162 86 108 0.000000
0.02726327 -0.00522715 0.20700002 165 89 111 0.000000
0.02788407 -0.00525240 0.20800000 166 90 112 0.000000
0.02850957 -0.00527766 0.20900001 165 89 111 0.000000
0.02927853 -0.00532816 0.21100001 164 87 109 0.000000
0.03164185 -0.00547967 0.21700001 162 85 107 0.000000
0.03244844 -0.00553018 0.21900001 162 85 107 0.000000
0.03776035 -0.00563118 0.22300000 164 82 104 0.000000
0.03828472 -0.00563118 0.22300000 161 84 104 0.000000
-0.03522021 -0.00483202 0.21100001 63 37 37 0.000000
-0.03455950 -0.00480911 0.21000001 69 28 36 0.000000
-0.03374127 -0.00476331 0.20800000 108 67 75 0.000000
-0.03325218 -0.00476331 0.20800000 141 84 103 0.000000
-0.03260557 -0.00474041 0.20700002 136 79 98 0.000000
-0.03227400 -0.00476331 0.20800000 139 80 100 0.000000
-0.03193772 -0.00478621 0.20900001 139 80 100 0.000000
-0.03159674 -0.00480911 0.21000001 141 79 100 0.000000
-0.03125106 -0.00483202 0.21100001 139 77 98 0.000000
-0.03090067 -0.00485492 0.21200001 140 81 101 0.000000
-0.03054558 -0.00487782 0.21300001 91 32 52 0.000000
-0.03032684 -0.00492362 0.21500000 69 15 33 0.000000
-0.02996000 -0.00494652 0.21600001 73 19 37 0.000000
-0.02958845 -0.00496942 0.21700001 69 20 33 0.000000
-0.02921220 -0.00499232 0.21800001 74 30 41 0.000000
-0.02856794 -0.00496942 0.21700001 75 31 42 0.000000
-0.02805769 -0.00496942 0.21700001 71 31 46 0.000000
0.02470963 -0.00471751 0.20600002 173 96 116 0.000000
0.02519402 -0.00471751 0.20600002 166 89 109 0.000000
0.02567841 -0.00471751 0.20600002 165 89 111 0.000000
0.02616279 -0.00471751 0.20600002 162 86 108 0.000000
0.02664718 -0.00471751 0.20600002 162 86 106 0.000000
0.02726327 -0.00474041 0.20700002 163 87 107 0.000000
0.02788407 -0.00476331 0.20800000 163 87 107 0.000000
0.02864598 -0.00480911 0.21000001 162 86 106 0.000000
0.02941729 -0.00485492 0.21200001 163 86 108 0.000000
0.03178767 -0.00499232 0.21800001 162 85 107 0.000000
0.03776035 -0.00510682 0.22300000 161 81 102 0.000000
-0.03472406 -0.00433587 0.21100001 67 29 33 0.000000
-0.03390349 -0.00429477 0.20900001 86 48 52 0.000000
-0.03325218 -0.00427422 0.20800000 136 85 98 0.000000
-0.03260557 -0.00425367 0.20700002 132 81 94 0.000000
-0.03227400 -0.00427422 0.20800000 135 79 94 0.000000
-0.03178491 -0.00427422 0.20800000 136 80 95 0.000000
-0.03144628 -0.00429477 0.20900001 139 80 100 0.000000
-0.03110295 -0.00431532 0.21000001 137 78 98 0.000000
-0.03075491 -0.00433587 0.21100001 142 83 103 0.000000
-0.03040218 -0.00435642 0.21200001 113 54 74 0.000000
-0.03004473 -0.00437697 0.21300001 72 19 33 0.000000
-0.02982129 -0.00441807 0.21500000 74 21 35 0.000000
-0.02945210 -0.00443862 0.21600001 77 24 38 0.000000
-0.02894419 -0.00443862 0.21600001 77 28 39 0.000000
-0.02856794 -0.00445917 0.21700001 78 29 40 0.000000
0.02470963 -0.00423313 0.20600002 169 92 112 0.000000
0.02519402 -0.00423313 0.20600002 166 89 109 0.000000
0.02567841 -0.00423313 0.20600002 165 89 109 0.000000
0.02616279 -0.00423313 0.20600002 163 87 107 0.000000
0.02664718 -0.00423313 0.20600002 166 89 109 0.000000
0.02726327 -0.00425367 0.20700002 164 87 107 0.000000
0.02788407 -0.00427422 0.20800000 164 87 107 0.000000
0.02864598 -0.00431532 0.21000001 166 89 109 0.000000
0.02941729 -0.00435642 0.21200001 164 87 109 0.000000
0.03113160 -0.00445917 0.21700001 163 86 108 0.000000
0.03193348 -0.00450026 0.21900001 164 87 109 0.000000
-0.03472406 -0.00383973 0.21100001 73 33 38 0.000000
-0.03390349 -0.00380333 0.20900001 80 40 45 0.000000
-0.03325218 -0.00378513 0.20800000 122 73 84 0.000000
-0.03260557 -0.00376694 0.20700002 127 78 89 0.000000
-0.03211884 -0.00376694 0.20700002 132 76 91 0.000000
-0.03163210 -0.00376694 0.20700002 135 79 94 0.000000
-0.03129582 -0.00378513 0.20800000 136 80 95 0.000000
-0.03095484 -0.00380333 0.20900001 135 79 94 0.000000
-0.03046340 -0.00380333 0.20900001 139 81 97 0.000000
-0.03025877 -0.00383973 0.21100001 141 83 99 0.000000
-0.02990368 -0.00385792 0.21200001 83 27 40 0.000000
-0.02954389 -0.00387612 0.21300001 78 22 35 0.000000
-0.02917939 -0.00389432 0.21400002 82 26 39 0.000000
-0.02881019 -0.00391252 0.21500000 84 28 41 0.000000
0.02470963 -0.00374874 0.20600002 167 90 110 0.000000
0.02519402 -0.00374874 0.20600002 164 87 107 0.000000
0.02567841 -0.00374874 0.20600002 162 86 106 0.000000
0.02616279 -0.00374874 0.20600002 163 87 107 0.000000
0.02664718 -0.00374874 0.20600002 166 89 109 0.000000
0.02726327 -0.00376694 0.20700002 164 87 107 0.000000
0.02788407 -0.00378513 0.20800000 164 87 107 0.000000
0.02878239 -0.00383973 0.21100001 166 89 109 0.000000
0.02955605 -0.00387612 0.21300001 163 86 106 0.000000
0.03127506 -0.00396711 0.21800001 164 87 109 0.000000
-0.03488863 -0.00335943 0.21200001 74 36 40 0.000000
-0.03390349 -0.00331189 0.20900001 79 41 45 0.000000
-0.03325218 -0.00329604 0.20800000 92 46 56 0.000000
-0.03260557 -0.00328020 0.20700002 124 78 88 0.000000
-0.03211884 -0.00328020 0.20700002 127 74 88 0.000000
-0.03163210 -0.00328020 0.20700002 129 76 90 0.000000
-0.03114536 -0.00328020 0.20700002 135 79 94 0.000000
-0.03065862 -0.00328020 0.20700002 135 79 94 0.000000
-0.03031764 -0.00329604 0.20800000 137 79 95 0.000000
-0.02997196 -0.00331189 0.20900001 141 83 99 0.000000
-0.02962157 -0.00332774 0.21000001 131 75 88 0.000000
-0.02926648 -0.00334358 0.21100001 86 30 43 0.000000
-0.02904304 -0.00337528 0.21300001 83 27 40 0.000000
-0.02854219 -0.00337528 0.21300001 83 27 40 0.000000
0.02519402 -0.00326435 0.20600002 164 87 107 0.000000
0.02567841 -0.00326435 0.20600002 164 87 107 0.000000
0.02616279 -0.00326435 0.20600002 166 89 109 0.000000
0.02677654 -0.00328020 0.20700002 166 89 109 0.000000
0.02726327 -0.00328020 0.20700002 166 89 109 0.000000
0.02801813 -0.00331189 0.20900001 166 89 109 0.000000
0.02878239 -0.00334358 0.21100001 164 87 107 0.000000
0.02955605 -0.00337528 0.21300001 164 87 107 0.000000
0.03127506 -0.00345451 0.21800001 164 87 109 0.000000
-0.03505320 -0.00287443 0.21300001 75 37 41 0.000000
-0.03309231 -0.00279346 0.20700002 88 42 52 0.000000
-0.03260557 -0.00279346 0.20700002 107 61 71 0.000000
-0.03196367 -0.00277996 0.20600002 125 74 85 0.000000
-0.03147928 -0.00277996 0.20600002 125 74 85 0.000000
-0.03099490 -0.00277996 0.20600002 132 76 91 0.000000
-0.03051051 -0.00277996 0.20600002 133 77 92 0.000000
-0.03017188 -0.00279346 0.20700002 135 77 93 0.000000
-0.02982855 -0.00280695 0.20800000 133 75 91 0.000000
-0.02948051 -0.00282045 0.20900001 141 83 99 0.000000
-0.02912778 -0.00283394 0.21000001 127 69 85 0.000000
-0.02877034 -0.00284744 0.21100001 78 22 35 0.000000
-0.02840819 -0.00286093 0.21200001 83 27 40 0.000000
-0.02790970 -0.00286093 0.21200001 82 26 39 0.000000
-0.02754050 -0.00287443 0.21300001 83 25 39 0.000000
0.02307340 -0.00294190 0.21800001 151 70 87 0.000000
0.02326143 -0.00290142 0.21500000 151 70 87 0.000000
0.02458968 -0.00276647 0.20500001 169 92 112 0.000000
0.02519402 -0.00277996 0.20600002 164 87 107 0.000000
0.02567841 -0.00277996 0.20600002 166 89 109 0.000000
0.02616279 -0.00277996 0.20600002 167 90 110 0.000000
0.02677654 -0.00279346 0.20700002 164 87 107 0.000000
0.02726327 -0.00279346 0.20700002 166 89 109 0.000000
0.02815219 -0.00283394 0.21000001 166 89 109 0.000000
0.02891880 -0.00286093 0.21200001 164 87 107 0.000000
0.03141853 -0.00295540 0.21900001 166 89 111 0.000000
-0.03505320 -0.00237358 0.21300001 81 43 45 0.000000
-0.03325218 -0.00231786 0.20800000 89 44 51 0.000000
-0.03260557 -0.00230672 0.20700002 103 58 65 0.000000
-0.03196367 -0.00229558 0.20600002 128 72 85 0.000000
-0.03132647 -0.00228443 0.20500001 126 70 83 0.000000
-0.03084444 -0.00228443 0.20500001 130 72 86 0.000000
-0.03036240 -0.00228443 0.20500001 133 75 89 0.000000
-0.02988037 -0.00228443 0.20500001 135 74 91 0.000000
-0.02954174 -0.00229558 0.20600002 134 73 90 0.000000
-0.02919840 -0.00230672 0.20700002 134 73 88 0.000000
-0.02885037 -0.00231786 0.20800000 143 82 97 0.000000
-0.02849763 -0.00232901 0.20900001 90 32 46 0.000000
-0.02814019 -0.00234015 0.21000001 82 24 38 0.000000
-0.02777805 -0.00235129 0.21100001 80 22 36 0.000000
-0.02741120 -0.00236244 0.21200001 84 23 38 0.000000
-0.02691271 -0.00236244 0.21200001 86 25 40 0.000000
0.02286172 -0.00240701 0.21600001 153 69 87 0.000000
0.02410765 -0.00228443 0.20500001 171 90 109 0.000000
0.02616279 -0.00229558 0.20600002 167 90 110 0.000000
0.02677654 -0.00230672 0.20700002 167 90 110 0.000000
0.02726327 -0.00230672 0.20700002 166 89 109 0.000000
0.02815219 -0.00234015 0.21000001 164 87 107 0.000000
0.02905521 -0.00237358 0.21300001 164 87 107 0.000000
0.03156199 -0.00245159 0.22000001 166 89 111 0.000000
-0.03521777 -0.00188153 0.21400002 82 44 46 0.000000
-0.03325218 -0.00182877 0.20800000 92 47 54 0.000000
-0.03260557 -0.00181998 0.20700002 99 54 61 0.000000
-0.03196367 -0.00181119 0.20600002 114 56 70 0.000000
-0.03132647 -0.00180240 0.20500001 126 68 82 0.000000
-0.03084444 -0.00180240 0.20500001 128 70 84 0.000000
-0.03021429 -0.00179361 0.20400001 128 70 84 0.000000
-0.02973461 -0.00179361 0.20400001 132 71 86 0.000000
-0.02939833 -0.00180240 0.20500001 134 73 88 0.000000
-0.02891629 -0.00180240 0.20500001 136 75 90 0.000000
-0.02857296 -0.00181119 0.20600002 135 74 89 0.000000
-0.02822493 -0.00181998 0.20700002 141 80 95 0.000000
-0.02787219 -0.00182877 0.20800000 96 38 52 0.000000
-0.02751475 -0.00183757 0.20900001 79 21 35 0.000000
-0.02715260 -0.00184636 0.21000001 85 27 41 0.000000
-0.02678576 -0.00185515 0.21100001 92 34 48 0.000000
-0.02628961 -0.00185515 0.21100001 89 36 48 0.000000
0.02193074 -0.00195186 0.22200002 137 70 84 0.000000
0.02275588 -0.00189032 0.21500000 152 68 86 0.000000
0.02293685 -0.00186394 0.21200001 154 70 88 0.000000
0.02664718 -0.00181119 0.20600002 166 89 109 0.000000
0.02726327 -0.00181998 0.20700002 166 89 109 0.000000
0.02828624 -0.00185515 0.21100001 164 87 107 0.000000
0.02905521 -0.00187273 0.21300001 166 89 109 0.000000
0.03156199 -0.00193428 0.22000001 165 89 111 0.000000
-0.03521777 -0.00137833 0.21400002 85 45 46 0.000000
-0.03406570 -0.00135257 0.21000001 89 49 50 0.000000
-0.03260557 -0.00133324 0.20700002 104 54 62 0.000000
-0.03196367 -0.00132680 0.20600002 113 52 67 0.000000
-0.03132647 -0.00132036 0.20500001 121 60 75 0.000000
-0.03069398 -0.00131392 0.20400001 125 64 79 0.000000
-0.03021429 -0.00131392 0.20400001 128 67 82 0.000000
-0.02973461 -0.00131392 0.20400001 130 69 84 0.000000
-0.02925492 -0.00131392 0.20400001 132 71 86 0.000000
-0.02877524 -0.00131392 0.20400001 134 71 86 0.000000
-0.02843426 -0.00132036 0.20500001 138 75 90 0.000000
-0.02795222 -0.00132036 0.20500001 141 80 95 0.000000
-0.02760419 -0.00132680 0.20600002 135 77 91 0.000000
-0.02725145 -0.00133324 0.20700002 122 64 78 0.000000
-0.02689401 -0.00133968 0.20800000 113 55 69 0.000000
-0.02653186 -0.00134612 0.20900001 112 54 68 0.000000
-0.02616502 -0.00135257 0.21000001 116 63 75 0.000000
-0.02579347 -0.00135901 0.21100001 117 64 76 0.000000
-0.02529733 -0.00135901 0.21100001 113 69 78 0.000000
0.00900051 -0.00144918 0.22500001 79 22 29 0.000000
0.02183195 -0.00142341 0.22100002 140 68 82 0.000000
0.02254420 -0.00137189 0.21300001 154 67 84 0.000000
0.02272047 -0.00135257 0.21000001 155 68 85 0.000000
0.02739498 -0.00133968 0.20800000 166 90 112 0.000000
0.02842030 -0.00136545 0.21200001 165 89 111 0.000000
-0.03521777 -0.00087513 0.21400002 85 45 46 0.000000
-0.03422792 -0.00086286 0.21100001 89 49 50 0.000000
-0.03260557 -0.00084650 0.20700002 107 55 64 0.000000
-0.03211884 -0.00084650 0.20700002 114 57 68 0.000000
-0.03132647 -0.00083833 0.20500001 120 63 74 0.000000
-0.03069398 -0.00083424 0.20400001 124 64 76 0.000000
-0.03021429 -0.00083424 0.20400001 124 64 76 0.000000
-0.02958885 -0.00083015 0.20300001 126 64 74 0.000000
-0.02911152 -0.00083015 0.20300001 131 69 79 0.000000
-0.02863418 -0.00083015 0.20300001 132 70 80 0.000000
-0.02829555 -0.00083424 0.20400001 137 75 85 0.000000
-0.02781587 -0.00083424 0.20400001 139 77 89 0.000000
-0.02747019 -0.00083833 0.20500001 137 75 87 0.000000
-0.02711980 -0.00084242 0.20600002 139 77 89 0.000000
-0.02676471 -0.00084650 0.20700002 138 77 92 0.000000
-0.02640492 -0.00085059 0.20800000 121 60 75 0.000000
-0.02604042 -0.00085468 0.20900001 119 61 75 0.000000
-0.02567123 -0.00085877 0.21000001 120 62 76 0.000000
-0.02529733 -0.00086286 0.21100001 116 65 76 0.000000
-0.02480118 -0.00086286 0.21100001 117 66 77 0.000000
-0.02430504 -0.00086286 0.21100001 112 67 74 0.000000
0.02272047 -0.00085877 0.21000001 154 66 83 0.000000
0.03104469 -0.00089967 0.22000001 165 89 111 0.000000
-0.03538234 -0.00037367 0.21500000 86 41 46 0.000000
-0.03422792 -0.00036672 0.21100001 93 48 53 0.000000
-0.03341204 -0.00036324 0.20900001 102 50 57 0.000000
-0.03211884 -0.00035977 0.20700002 111 54 63 0.000000
-0.03147928 -0.00035803 0.20600002 108 51 60 0.000000
-0.03084444 -0.00035629 0.20500001 118 58 68 0.000000
-0.03021429 -0.00035455 0.20400001 122 62 72 0.000000
-0.02973461 -0.00035455 0.20400001 122 60 70 0.000000
-0.02911152 -0.00035281 0.20300001 127 65 75 0.000000
-0.02863418 -0.00035281 0.20300001 128 64 75 0.000000
-0.02815685 -0.00035281 0.20300001 134 70 81 0.000000
-0.02767952 -0.00035281 0.20300001 140 73 85 0.000000
-0.02733618 -0.00035455 0.20400001 140 76 89 0.000000
-0.02698815 -0.00035629 0.20500001 139 75 88 0.000000
-0.02663541 -0.00035803 0.20600002 138 76 88 0.000000
-0.02627797 -0.00035977 0.20700002 138 76 88 0.000000
-0.02591583 -0.00036150 0.20800000 128 70 84 0.000000
-0.02554898 -0.00036324 0.20900001 125 67 81 0.000000
-0.02517743 -0.00036498 0.21000001 117 64 78 0.000000
-0.02468364 -0.00036498 0.21000001 119 66 80 0.000000
-0.02418985 -0.00036498 0.21000001 118 67 78 0.000000
-0.02369606 -0.00036498 0.21000001 115 64 75 0.000000
0.02163438 -0.00038062 0.21900001 153 72 87 0.000000
0.02261227 -0.00036324 0.20900001 154 66 83 0.000000
-0.03538234 0.00013188 0.21500000 90 45 50 0.000000
-0.03439014 0.00013004 0.21200001 93 48 53 0.000000
-0.03357191 0.00012881 0.21000001 107 52 58 0.000000
-0.03227400 0.00012759 0.20800000 110 55 61 0.000000
-0.03163210 0.00012697 0.20700002 107 52 58 0.000000
-0.03099490 0.00012636 0.20600002 113 53 63 0.000000
-0.03036240 0.00012575 0.20500001 122 62 72 0.000000
-0.02973461 0.00012513 0.20400001 123 61 71 0.000000
-0.02911152 0.00012452 0.20300001 123 61 71 0.000000
-0.02863418 0.00012452 0.20300001 128 64 73 0.000000
-0.02815685 0.00012452 0.20300001 130 66 75 0.000000
-0.02767952 0.00012452 0.20300001 137 68 79 0.000000
-0.02720218 0.00012452 0.20300001 141 72 85 0.000000
-0.02685650 0.00012513 0.20400001 141 72 85 0.000000
-0.02650611 0.00012575 0.20500001 140 76 89 0.000000
-0.02615103 0.00012636 0.20600002 141 77 90 0.000000
-0.02579123 0.00012697 0.20700002 140 77 92 0.000000
-0.02542674 0.00012759 0.20800000 136 73 88 0.000000
-0.02505754 0.00012820 0.20900001 125 67 83 0.000000
-0.02456610 0.00012820 0.20900001 125 67 83 0.000000
-0.02407466 0.00012820 0.20900001 134 78 93 0.000000
-0.02358322 0.00012820 0.20900001 121 65 80 0.000000
-0.02309178 0.00012820 0.20900001 98 52 64 0.000000
-0.02260033 0.00012820 0.20900001 111 65 77 0.000000
0.02153559 0.00013372 0.21800001 157 73 89 0.000000
0.02243835 0.00013004 0.21200001 142 51 69 0.000000
0.02261227 0.00012820 0.20900001 144 53 71 0.000000
0.02266154 0.00012575 0.20500001 162 77 102 0.000000
-0.03538234 0.00063743 0.21500000 93 48 53 0.000000
-0.03439014 0.00062854 0.21200001 96 51 56 0.000000
-0.03373178 0.00062557 0.21100001 107 52 58 0.000000
-0.03307812 0.00062261 0.21000001 109 54 60 0.000000
-0.03178491 0.00061668 0.20800000 107 52 58 0.000000
-0.03114536 0.00061371 0.20700002 111 54 61 0.000000
-0.03036240 0.00060778 0.20500001 111 54 61 0.000000
-0.02988037 0.00060778 0.20500001 123 61 69 0.000000
-0.02925492 0.00060482 0.20400001 123 61 69 0.000000
-0.02863418 0.00060185 0.20300001 126 62 71 0.000000
-0.02815685 0.00060185 0.20300001 125 61 70 0.000000
-0.02767952 0.00060185 0.20300001 135 66 79 0.000000
-0.02720218 0.00060185 0.20300001 137 68 81 0.000000
-0.02672485 0.00060185 0.20300001 138 69 82 0.000000
-0.02637682 0.00060482 0.20400001 143 73 91 0.000000
-0.02602408 0.00060778 0.20500001 145 75 93 0.000000
-0.02566664 0.00061075 0.20600002 141 76 92 0.000000
-0.02530450 0.00061371 0.20700002 140 75 91 0.000000
-0.02493765 0.00061668 0.20800000 139 76 93 0.000000
-0.02456610 0.00061964 0.20900001 138 75 92 0.000000
-0.02407466 0.00061964 0.20900001 134 76 92 0.000000
-0.02358322 0.00061964 0.20900001 126 68 84 0.000000
-0.02309178 0.00061964 0.20900001 106 55 68 0.000000
-0.02260033 0.00061964 0.20900001 117 66 79 0.000000
-0.02210889 0.00061964 0.20900001 120 80 93 0.000000
-0.02151402 0.00061668 0.20800000 122 82 95 0.000000
0.02121586 0.00065225 0.22000001 159 72 91 0.000000
0.02143680 0.00064336 0.21700001 157 70 89 0.000000
0.02239589 0.00061371 0.20700002 131 40 60 0.000000
0.02255099 0.00060482 0.20400001 169 84 109 0.000000
-0.03538234 0.00114298 0.21500000 92 47 52 0.000000
-0.03455236 0.00113235 0.21300001 97 52 57 0.000000
-0.03389164 0.00112703 0.21200001 107 52 58 0.000000
-0.03323563 0.00112171 0.21100001 110 55 61 0.000000
-0.03258432 0.00111640 0.21000001 111 54 61 0.000000
-0.03193772 0.00111108 0.20900001 107 50 57 0.000000
-0.03114536 0.00110045 0.20700002 112 52 60 0.000000
-0.03051051 0.00109513 0.20600002 112 52 60 0.000000
-0.02988037 0.00108982 0.20500001 117 55 63 0.000000
-0.02925492 0.00108450 0.20400001 120 58 66 0.000000
-0.02863418 0.00107919 0.20300001 122 60 70 0.000000
-0.02815685 0.00107919 0.20300001 129 60 73 0.000000
-0.02767952 0.00107919 0.20300001 131 62 75 0.000000
-0.02720218 0.00107919 0.20300001 136 64 78 0.000000
-0.02672485 0.00107919 0.20300001 139 67 81 0.000000
-0.02624752 0.00107919 0.20300001 147 74 93 0.000000
-0.02589713 0.00108450 0.20400001 145 72 91 0.000000
-0.02554204 0.00108982 0.20500001 144 74 92 0.000000
-0.02518225 0.00109513 0.20600002 145 75 93 0.000000
-0.02481776 0.00110045 0.20700002 144 76 95 0.000000
-0.02444856 0.00110577 0.20800000 142 74 93 0.000000
-0.02395947 0.00110577 0.20800000 143 80 97 0.000000
-0.02347038 0.00110577 0.20800000 145 82 99 0.000000
-0.02298129 0.00110577 0.20800000 125 69 84 0.000000
-0.02249220 0.00110577 0.20800000 128 72 87 0.000000
-0.02200311 0.00110577 0.20800000 126 79 95 0.000000
-0.02151402 0.00110577 0.20800000 126 79 95 0.000000
-0.02092385 0.00110045 0.20700002 138 98 113 0.000000
0.02111942 0.00116424 0.21900001 158 70 89 0.000000
0.02133802 0.00114830 0.21600001 157 69 88 0.000000
0.02239589 0.00110045 0.20700002 130 39 59 0.000000
0.03001007 0.00116956 0.22000001 167 91 111 0.000000
-0.03538234 0.00164853 0.21500000 92 47 52 0.000000
-0.03455236 0.00163319 0.21300001 97 52 57 0.000000
-0.03389164 0.00162553 0.21200001 105 53 58 0.000000
-0.03339315 0.00162553 0.21200001 108 56 61 0.000000
-0.03273949 0.00161786 0.21100001 110 55 61 0.000000
-0.03193772 0.00160252 0.20900001 106 51 57 0.000000
-0.03129582 0.00159486 0.20800000 110 50 58 0.000000
-0.03065862 0.00158719 0.20700002 110 50 58 0.000000
-0.03002612 0.00157952 0.20600002 111 49 59 0.000000
-0.02939833 0.00157185 0.20500001 119 57 67 0.000000
-0.02877524 0.00156419 0.20400001 123 59 70 0.000000
-0.02815685 0.00155652 0.20300001 124 55 68 0.000000
-0.02767952 0.00155652 0.20300001 128 59 72 0.000000
-0.02720218 0.00155652 0.20300001 130 58 72 0.000000
-0.02672485 0.00155652 0.20300001 133 61 75 0.000000
-0.02624752 0.00155652 0.20300001 142 70 86 0.000000
-0.02589713 0.00156419 0.20400001 143 71 87 0.000000
-0.02541745 0.00156419 0.20400001 149 77 93 0.000000
-0.02518225 0.00157952 0.20600002 147 75 91 0.000000
-0.02469786 0.00157952 0.20600002 144 74 92 0.000000
-0.02433102 0.00158719 0.20700002 145 75 93 0.000000
-0.02384428 0.00158719 0.20700002 147 79 96 0.000000
-0.02335754 0.00158719 0.20700002 146 78 95 0.000000
-0.02298129 0.00159486 0.20800000 144 79 97 0.000000
-0.02249220 0.00159486 0.20800000 142 77 95 0.000000
-0.02200311 0.00159486 0.20800000 137 79 95 0.000000
-0.02141059 0.00158719 0.20700002 141 83 99 0.000000
-0.02092385 0.00158719 0.20700002 141 91 108 0.000000
-0.02043711 0.00158719 0.20700002 147 97 114 0.000000
-0.01995037 0.00158719 0.20700002 139 92 108 0.000000
0.02092655 0.00166386 0.21700001 160 72 91 0.000000
0.02123923 0.00164853 0.21500000 160 72 91 0.000000
0.02617702 0.00161019 0.21000001 170 93 115 0.000000
0.02692482 0.00162553 0.21200001 168 91 113 0.000000
0.02844863 0.00165620 0.21600001 167 91 113 0.000000
0.02922465 0.00167153 0.21800001 167 91 111 0.000000
0.02987366 0.00167920 0.21900001 166 90 110 0.000000
-0.03605481 0.00216410 0.21600001 94 56 58 0.000000
-0.03538234 0.00215408 0.21500000 98 50 54 0.000000
-0.03471458 0.00214406 0.21400002 101 53 57 0.000000
-0.03405151 0.00213404 0.21300001 110 55 61 0.000000
-0.03355066 0.00213404 0.21300001 109 54 60 0.000000
-0.03273949 0.00211400 0.21100001 109 54 60 0.000000
-0.03209053 0.00210398 0.21000001 106 51 57 0.000000
-0.03144628 0.00209396 0.20900001 111 54 61 0.000000
-0.03080673 0.00208395 0.20800000 108 51 58 0.000000
-0.03002612 0.00206391 0.20600002 110 48 58 0.000000
-0.02939833 0.00205389 0.20500001 117 55 65 0.000000
-0.02877524 0.00204387 0.20400001 123 59 72 0.000000
-0.02815685 0.00203385 0.20300001 123 54 67 0.000000
-0.02767952 0.00203385 0.20300001 126 57 70 0.000000
-0.02720218 0.00203385 0.20300001 129 57 69 0.000000
-0.02672485 0.00203385 0.20300001 131 59 71 0.000000
-0.02624752 0.00203385 0.20300001 137 62 77 0.000000
-0.02577019 0.00203385 0.20300001 141 66 81 0.000000
-0.02541745 0.00204387 0.20400001 143 71 85 0.000000
-0.02506001 0.00205389 0.20500001 149 77 91 0.000000
-0.02469786 0.00206391 0.20600002 147 75 91 0.000000
-0.02421348 0.00206391 0.20600002 147 75 91 0.000000
-0.02384428 0.00207393 0.20700002 150 77 96 0.000000
-0.02335754 0.00207393 0.20700002 149 76 95 0.000000
-0.02287080 0.00207393 0.20700002 147 77 95 0.000000
-0.02238406 0.00207393 0.20700002 148 78 96 0.000000
-0.02189733 0.00207393 0.20700002 145 80 96 0.000000
-0.02141059 0.00207393 0.20700002 146 81 97 0.000000
-0.02092385 0.00207393 0.20700002 143 82 99 0.000000
-0.02043711 0.00207393 0.20700002 144 83 100 0.000000
-0.01995037 0.00207393 0.20700002 143 85 101 0.000000
-0.01946363 0.00207393 0.20700002 147 89 105 0.000000
-0.01897690 0.00207393 0.20700002 150 96 114 0.000000
0.02083012 0.00216410 0.21600001 163 70 91 0.000000
0.02114044 0.00214406 0.21400002 163 70 91 0.000000
0.02228770 0.00206391 0.20600002 149 61 80 0.000000
0.02255099 0.00204387 0.20400001 177 100 122 0.000000
0.02543862 0.00208395 0.20800000 168 92 114 0.000000
0.02605236 0.00209396 0.20900001 168 92 114 0.000000
0.02679781 0.00211400 0.21100001 169 93 115 0.000000
0.02755267 0.00213404 0.21300001 169 93 115 0.000000
0.02831692 0.00215408 0.21500000 166 90 112 0.000000
0.02895653 0.00216410 0.21600001 166 90 112 0.000000
0.02973725 0.00218414 0.21800001 167 91 113 0.000000
0.03066614 0.00221419 0.22100002 166 90 110 0.000000
-0.03605481 0.00267200 0.21600001 95 55 56 0.000000
-0.03538234 0.00265963 0.21500000 100 52 56 0.000000
-0.03471458 0.00264726 0.21400002 102 54 58 0.000000
-0.03421137 0.00264726 0.21400002 110 55 63 0.000000
-0.03355066 0.00263489 0.21300001 109 54 62 0.000000
-0.03289465 0.00262252 0.21200001 107 50 57 0.000000
-0.03224334 0.00261015 0.21100001 107 50 57 0.000000
