-0.02552148 0.00141083 0.18400002 200 88 111 0.000000
-0.02508883 0.00141083 0.18400002 204 90 113 0.000000
-0.02479017 0.00141850 0.18500000 202 88 111 0.000000
-0.02435516 0.00141850 0.18500000 202 88 111 0.000000
-0.02392015 0.00141850 0.18500000 201 87 110 0.000000
-0.02348514 0.00141850 0.18500000 203 89 112 0.000000
-0.02305014 0.00141850 0.18500000 201 89 112 0.000000
-0.02261513 0.00141850 0.18500000 200 88 111 0.000000
-0.02218012 0.00141850 0.18500000 200 88 111 0.000000
-0.02186265 0.00142617 0.18600000 201 89 112 0.000000
-0.02142529 0.00142617 0.18600000 199 89 111 0.000000
-0.02098794 0.00142617 0.18600000 200 90 112 0.000000
-0.02066106 0.00143384 0.18700001 197 90 111 0.000000
-0.02022135 0.00143384 0.18700001 197 90 111 0.000000
-0.01988743 0.00144150 0.18800001 197 90 111 0.000000
-0.01965223 0.00145684 0.19000001 197 90 111 0.000000
-0.01824128 0.00148751 0.19400001 193 91 110 0.000000
-0.01787678 0.00149518 0.19500001 190 90 111 0.000000
-0.01750759 0.00150285 0.19600001 192 92 113 0.000000
-0.08035617 0.00178338 0.17800000 6 13 19 0.000000
-0.07993761 0.00178338 0.17800000 7 14 20 0.000000
-0.07951906 0.00178338 0.17800000 72 44 53 0.000000
-0.07910051 0.00178338 0.17800000 84 56 65 0.000000
-0.07868197 0.00178338 0.17800000 89 51 53 0.000000
-0.07826342 0.00178338 0.17800000 86 48 50 0.000000
-0.07740754 0.00177336 0.17700000 90 43 44 0.000000
-0.07699134 0.00177336 0.17700000 92 45 46 0.000000
-0.07657515 0.00177336 0.17700000 94 45 44 0.000000
-0.07615895 0.00177336 0.17700000 93 44 43 0.000000
-0.07574276 0.00177336 0.17700000 103 49 50 0.000000
-0.07532655 0.00177336 0.17700000 100 46 47 0.000000
-0.07448714 0.00176334 0.17600001 102 48 49 0.000000
-0.07407330 0.00176334 0.17600001 104 50 51 0.000000
-0.07365945 0.00176334 0.17600001 107 48 51 0.000000
-0.07324561 0.00176334 0.17600001 107 48 51 0.000000
-0.07283176 0.00176334 0.17600001 106 48 48 0.000000
-0.07200645 0.00175332 0.17500001 106 48 48 0.000000
-0.07159495 0.00175332 0.17500001 106 48 48 0.000000
-0.07118346 0.00175332 0.17500001 106 48 48 0.000000
-0.07036047 0.00175332 0.17500001 108 50 50 0.000000
-0.06954927 0.00174330 0.17400001 108 49 52 0.000000
-0.06914013 0.00174330 0.17400001 107 48 51 0.000000
-0.06711560 0.00173328 0.17300001 113 48 50 0.000000
-0.05943868 0.00160304 0.16000001 116 48 56 0.000000
-0.05906245 0.00160304 0.16000001 115 47 55 0.000000
-0.05868623 0.00160304 0.16000001 118 47 56 0.000000
-0.05831001 0.00160304 0.16000001 117 46 55 0.000000
-0.05829587 0.00161305 0.16100001 118 44 54 0.000000
-0.05791730 0.00161305 0.16100001 122 48 58 0.000000
-0.05753872 0.00161305 0.16100001 124 49 57 0.000000
-0.05716015 0.00161305 0.16100001 124 49 57 0.000000
-0.05678157 0.00161305 0.16100001 123 48 56 0.000000
-0.05640300 0.00161305 0.16100001 124 49 57 0.000000
-0.05602442 0.00161305 0.16100001 125 50 58 0.000000
-0.05564585 0.00161305 0.16100001 124 49 57 0.000000
-0.05526728 0.00161305 0.16100001 123 48 58 0.000000
-0.05488870 0.00161305 0.16100001 124 49 59 0.000000
-0.05451012 0.00161305 0.16100001 128 50 61 0.000000
-0.05413155 0.00161305 0.16100001 128 50 61 0.000000
-0.05375298 0.00161305 0.16100001 142 66 79 0.000000
-0.05337440 0.00161305 0.16100001 141 65 78 0.000000
-0.05299583 0.00161305 0.16100001 140 66 76 0.000000
-0.05261726 0.00161305 0.16100001 141 67 77 0.000000
-0.05223868 0.00161305 0.16100001 141 67 77 0.000000
-0.05186010 0.00161305 0.16100001 141 67 77 0.000000
-0.05148153 0.00161305 0.16100001 143 68 78 0.000000
-0.05078555 0.00160304 0.16000001 143 68 78 0.000000
-0.05040932 0.00160304 0.16000001 141 66 74 0.000000
-0.05003310 0.00160304 0.16000001 145 70 78 0.000000
-0.04965688 0.00160304 0.16000001 143 68 76 0.000000
-0.04897265 0.00159302 0.15900001 147 72 80 0.000000
-0.04859878 0.00159302 0.15900001 146 71 79 0.000000
-0.04822491 0.00159302 0.15900001 146 71 79 0.000000
-0.04755008 0.00158300 0.15800001 150 72 81 0.000000
-0.04717857 0.00158300 0.15800001 149 71 80 0.000000
-0.04680704 0.00158300 0.15800001 154 71 82 0.000000
-0.04614162 0.00157298 0.15700001 155 72 83 0.000000
-0.04577246 0.00157298 0.15700001 160 74 86 0.000000
-0.04540329 0.00157298 0.15700001 160 74 86 0.000000
-0.04474728 0.00156296 0.15600000 161 75 89 0.000000
-0.04438046 0.00156296 0.15600000 162 76 90 0.000000
-0.04401364 0.00156296 0.15600000 163 77 91 0.000000
-0.04364682 0.00156296 0.15600000 162 76 90 0.000000
-0.04328001 0.00156296 0.15600000 163 77 89 0.000000
-0.04291319 0.00156296 0.15600000 166 80 92 0.000000
-0.04254637 0.00156296 0.15600000 166 81 90 0.000000
-0.04217955 0.00156296 0.15600000 166 81 90 0.000000
-0.04181274 0.00156296 0.15600000 166 80 92 0.000000
-0.04171160 0.00157298 0.15700001 168 82 94 0.000000
-0.04134243 0.00157298 0.15700001 170 84 98 0.000000
-0.04097326 0.00157298 0.15700001 169 83 97 0.000000
-0.04060409 0.00157298 0.15700001 170 84 98 0.000000
-0.04023492 0.00157298 0.15700001 170 84 98 0.000000
-0.04011967 0.00158300 0.15800001 170 84 98 0.000000
-0.03974816 0.00158300 0.15800001 174 88 102 0.000000
-0.03937664 0.00158300 0.15800001 180 94 108 0.000000
-0.03900512 0.00158300 0.15800001 178 92 106 0.000000
-0.03863360 0.00158300 0.15800001 171 84 98 0.000000
-0.03850424 0.00159302 0.15900001 156 69 83 0.000000
-0.03813037 0.00159302 0.15900001 153 60 79 0.000000
-0.03775650 0.00159302 0.15900001 154 61 80 0.000000
-0.03738263 0.00159302 0.15900001 158 63 80 0.000000
-0.03724151 0.00160304 0.16000001 160 65 82 0.000000
-0.03686529 0.00160304 0.16000001 161 64 77 0.000000
-0.03648907 0.00160304 0.16000001 161 64 77 0.000000
-0.03611284 0.00160304 0.16000001 165 68 79 0.000000
-0.03573662 0.00160304 0.16000001 167 70 81 0.000000
-0.03558140 0.00161305 0.16100001 167 70 83 0.000000
-0.03520283 0.00161305 0.16100001 169 72 85 0.000000
-0.03482426 0.00161305 0.16100001 174 76 92 0.000000
-0.03444568 0.00161305 0.16100001 172 74 90 0.000000
-0.03427870 0.00162307 0.16200000 178 79 95 0.000000
-0.03389777 0.00162307 0.16200000 180 81 97 0.000000
-0.03351685 0.00162307 0.16200000 181 79 96 0.000000
-0.03313592 0.00162307 0.16200000 182 80 97 0.000000
-0.03275499 0.00162307 0.16200000 184 82 99 0.000000
-0.03237407 0.00162307 0.16200000 184 82 99 0.000000
-0.03199314 0.00162307 0.16200000 186 84 101 0.000000
-0.03161222 0.00162307 0.16200000 185 83 100 0.000000
-0.03123129 0.00162307 0.16200000 185 83 102 0.000000
-0.03085037 0.00162307 0.16200000 185 83 102 0.000000
-0.03046944 0.00162307 0.16200000 185 83 102 0.000000
-0.03008852 0.00162307 0.16200000 187 85 104 0.000000
-0.02970759 0.00162307 0.16200000 186 84 103 0.000000
-0.02932666 0.00162307 0.16200000 188 86 105 0.000000
-0.02894574 0.00162307 0.16200000 189 85 105 0.000000
-0.02856481 0.00162307 0.16200000 187 83 103 0.000000
-0.02818388 0.00162307 0.16200000 187 83 103 0.000000
-0.02780296 0.00162307 0.16200000 189 85 105 0.000000
-0.02667369 0.00183347 0.18300001 200 88 109 0.000000
-0.02624339 0.00183347 0.18300001 201 89 110 0.000000
-0.02581308 0.00183347 0.18300001 201 89 110 0.000000
-0.02538278 0.00183347 0.18300001 199 87 108 0.000000
-0.02508883 0.00184349 0.18400002 203 89 112 0.000000
-0.02465617 0.00184349 0.18400002 204 90 113 0.000000
-0.02435516 0.00185351 0.18500000 202 88 111 0.000000
-0.02392015 0.00185351 0.18500000 202 88 111 0.000000
-0.02348514 0.00185351 0.18500000 203 89 112 0.000000
-0.02305014 0.00185351 0.18500000 201 87 110 0.000000
-0.02261513 0.00185351 0.18500000 202 88 111 0.000000
-0.02218012 0.00185351 0.18500000 201 89 112 0.000000
-0.02186265 0.00186353 0.18600000 201 89 112 0.000000
-0.02142529 0.00186353 0.18600000 201 89 112 0.000000
-0.02098794 0.00186353 0.18600000 200 88 111 0.000000
-0.02055058 0.00186353 0.18600000 197 90 111 0.000000
-0.02022135 0.00187355 0.18700001 197 90 111 0.000000
-0.01988743 0.00188357 0.18800001 197 90 111 0.000000
-0.01954880 0.00189359 0.18900001 196 89 110 0.000000
-0.01920546 0.00190360 0.19000001 195 91 111 0.000000
-0.01850469 0.00192364 0.19200000 197 93 113 0.000000
-0.01814725 0.00193366 0.19300000 196 92 112 0.000000
-0.01778511 0.00194368 0.19400001 186 93 112 0.000000
-0.08077471 0.00220193 0.17800000 0 18 41 0.000000
-0.08035617 0.00220193 0.17800000 3 15 21 0.000000
-0.07993761 0.00220193 0.17800000 1 13 19 0.000000
-0.07951906 0.00220193 0.17800000 53 35 43 0.000000
-0.07910051 0.00220193 0.17800000 79 61 69 0.000000
-0.07868197 0.00220193 0.17800000 91 53 57 0.000000
-0.07826342 0.00220193 0.17800000 85 47 51 0.000000
-0.07784487 0.00220193 0.17800000 90 43 44 0.000000
-0.07742633 0.00220193 0.17800000 91 44 45 0.000000
-0.07700778 0.00220193 0.17800000 93 44 43 0.000000
-0.07658923 0.00220193 0.17800000 94 45 44 0.000000
-0.07574276 0.00218955 0.17700000 103 49 50 0.000000
-0.07532655 0.00218955 0.17700000 98 44 45 0.000000
-0.07491036 0.00218955 0.17700000 99 45 46 0.000000
-0.07449417 0.00218955 0.17700000 99 45 46 0.000000
-0.07365945 0.00217718 0.17600001 104 43 46 0.000000
-0.07324561 0.00217718 0.17600001 102 41 44 0.000000
-0.07283176 0.00217718 0.17600001 105 45 45 0.000000
-0.07241791 0.00217718 0.17600001 108 48 48 0.000000
-0.07159495 0.00216481 0.17500001 108 48 48 0.000000
-0.07118346 0.00216481 0.17500001 109 49 49 0.000000
-0.07077197 0.00216481 0.17500001 109 49 49 0.000000
-0.07036047 0.00216481 0.17500001 112 52 52 0.000000
-0.06954927 0.00215244 0.17400001 112 51 54 0.000000
-0.06873099 0.00215244 0.17400001 109 48 51 0.000000
-0.06832184 0.00215244 0.17400001 109 48 51 0.000000
-0.06791271 0.00215244 0.17400001 112 47 49 0.000000
-0.06711560 0.00214007 0.17300001 113 48 50 0.000000
-0.05905302 0.00199163 0.16100001 120 49 56 0.000000
-0.05903888 0.00200400 0.16200000 118 47 54 0.000000
-0.05865795 0.00200400 0.16200000 118 47 54 0.000000
-0.05827703 0.00200400 0.16200000 117 46 53 0.000000
-0.05789610 0.00200400 0.16200000 120 46 54 0.000000
-0.05751517 0.00200400 0.16200000 120 46 54 0.000000
-0.05713425 0.00200400 0.16200000 123 48 56 0.000000
-0.05675332 0.00200400 0.16200000 124 49 57 0.000000
-0.05637240 0.00200400 0.16200000 125 51 56 0.000000
-0.05599147 0.00200400 0.16200000 126 52 57 0.000000
-0.05561055 0.00200400 0.16200000 123 49 54 0.000000
-0.05522962 0.00200400 0.16200000 126 52 57 0.000000
-0.05484869 0.00200400 0.16200000 129 51 60 0.000000
-0.05446777 0.00200400 0.16200000 126 48 57 0.000000
-0.05408684 0.00200400 0.16200000 125 47 56 0.000000
-0.05370592 0.00200400 0.16200000 125 47 56 0.000000
-0.05332499 0.00200400 0.16200000 127 49 58 0.000000
-0.05294406 0.00200400 0.16200000 136 58 67 0.000000
-0.05256314 0.00200400 0.16200000 142 67 75 0.000000
-0.05186010 0.00199163 0.16100001 143 68 76 0.000000
-0.05148153 0.00199163 0.16100001 143 68 76 0.000000
-0.05110295 0.00199163 0.16100001 143 68 76 0.000000
-0.05072438 0.00199163 0.16100001 143 68 76 0.000000
-0.05003310 0.00197926 0.16000001 146 71 79 0.000000
-0.04965688 0.00197926 0.16000001 145 71 76 0.000000
-0.04928065 0.00197926 0.16000001 147 73 78 0.000000
-0.04890443 0.00197926 0.16000001 146 71 79 0.000000
-0.04852821 0.00197926 0.16000001 147 72 80 0.000000
-0.04785103 0.00196689 0.15900001 150 72 83 0.000000
-0.04747716 0.00196689 0.15900001 151 73 84 0.000000
-0.04680704 0.00195452 0.15800001 152 72 84 0.000000
-0.04643552 0.00195452 0.15800001 153 73 85 0.000000
-0.04606400 0.00195452 0.15800001 157 74 87 0.000000
-0.04540329 0.00194215 0.15700001 154 71 84 0.000000
-0.04503412 0.00194215 0.15700001 157 71 85 0.000000
-0.04438046 0.00192978 0.15600000 162 76 90 0.000000
-0.04401364 0.00192978 0.15600000 160 77 90 0.000000
-0.04364682 0.00192978 0.15600000 162 79 92 0.000000
-0.04328001 0.00192978 0.15600000 164 81 94 0.000000
-0.04291319 0.00192978 0.15600000 164 81 94 0.000000
-0.04281911 0.00194215 0.15700001 164 81 92 0.000000
-0.04244994 0.00194215 0.15700001 165 82 93 0.000000
-0.04208077 0.00194215 0.15700001 165 82 93 0.000000
-0.04171160 0.00194215 0.15700001 166 83 94 0.000000
-0.04134243 0.00194215 0.15700001 167 84 95 0.000000
-0.04123424 0.00195452 0.15800001 167 84 95 0.000000
-0.04086272 0.00195452 0.15800001 168 85 96 0.000000
-0.04049120 0.00195452 0.15800001 171 88 99 0.000000
-0.04011967 0.00195452 0.15800001 173 90 103 0.000000
-0.03974816 0.00195452 0.15800001 168 85 98 0.000000
-0.03962586 0.00196689 0.15900001 154 68 82 0.000000
-0.03925199 0.00196689 0.15900001 149 63 77 0.000000
-0.03887811 0.00196689 0.15900001 152 62 77 0.000000
-0.03850424 0.00196689 0.15900001 152 62 77 0.000000
-0.03813037 0.00196689 0.15900001 153 61 77 0.000000
-0.03799396 0.00197926 0.16000001 156 64 80 0.000000
-0.03761774 0.00197926 0.16000001 160 65 82 0.000000
-0.03724151 0.00197926 0.16000001 159 64 81 0.000000
-0.03686529 0.00197926 0.16000001 161 64 77 0.000000
-0.03648907 0.00197926 0.16000001 162 65 78 0.000000
-0.03611284 0.00197926 0.16000001 165 68 79 0.000000
-0.03595998 0.00199163 0.16100001 168 71 82 0.000000
-0.03558140 0.00199163 0.16100001 169 72 85 0.000000
-0.03520283 0.00199163 0.16100001 171 74 87 0.000000
-0.03482426 0.00199163 0.16100001 172 75 88 0.000000
-0.03465962 0.00200400 0.16200000 172 75 88 0.000000
-0.03427870 0.00200400 0.16200000 178 79 95 0.000000
-0.03389777 0.00200400 0.16200000 180 81 97 0.000000
-0.03351685 0.00200400 0.16200000 180 81 97 0.000000
-0.03313592 0.00200400 0.16200000 182 83 99 0.000000
-0.03275499 0.00200400 0.16200000 185 83 100 0.000000
-0.03237407 0.00200400 0.16200000 185 83 100 0.000000
-0.03199314 0.00200400 0.16200000 186 84 101 0.000000
-0.03161222 0.00200400 0.16200000 184 82 99 0.000000
-0.03123129 0.00200400 0.16200000 182 80 99 0.000000
-0.03085037 0.00200400 0.16200000 186 84 103 0.000000
-0.03046944 0.00200400 0.16200000 186 84 103 0.000000
-0.03008852 0.00200400 0.16200000 187 85 104 0.000000
-0.02970759 0.00200400 0.16200000 186 84 101 0.000000
-0.02932666 0.00200400 0.16200000 187 85 102 0.000000
-0.02894574 0.00200400 0.16200000 188 84 102 0.000000
-0.02797458 0.00201637 0.16300000 190 83 102 0.000000
-0.02695589 0.00225141 0.18200001 199 87 110 0.000000
-0.02624339 0.00226378 0.18300001 200 88 111 0.000000
-0.02581308 0.00226378 0.18300001 200 88 111 0.000000
-0.02538278 0.00226378 0.18300001 200 88 111 0.000000
-0.02508883 0.00227615 0.18400002 201 89 112 0.000000
-0.02465617 0.00227615 0.18400002 204 90 113 0.000000
-0.02422351 0.00227615 0.18400002 203 89 112 0.000000
-0.02392015 0.00228852 0.18500000 203 89 112 0.000000
-0.02348514 0.00228852 0.18500000 202 88 111 0.000000
-0.02305014 0.00228852 0.18500000 202 88 111 0.000000
-0.02261513 0.00228852 0.18500000 203 89 112 0.000000
-0.02230001 0.00230089 0.18600000 202 90 113 0.000000
-0.02186265 0.00230089 0.18600000 202 90 113 0.000000
-0.02142529 0.00230089 0.18600000 200 90 112 0.000000
-0.02098794 0.00230089 0.18600000 199 89 111 0.000000
-0.02055058 0.00230089 0.18600000 198 91 112 0.000000
-0.02022135 0.00231326 0.18700001 197 90 111 0.000000
-0.01978164 0.00231326 0.18700001 197 90 111 0.000000
-0.01944536 0.00232563 0.18800001 197 90 111 0.000000
-0.01910438 0.00233800 0.18900001 195 91 111 0.000000
-0.01875870 0.00235037 0.19000001 196 92 112 0.000000
-0.01805322 0.00237511 0.19200000 195 93 112 0.000000
-0.08295204 0.00264992 0.18000001 1 42 77 0.000000
-0.08164940 0.00263519 0.17900001 3 30 54 0.000000
-0.08122850 0.00263519 0.17900001 0 19 43 0.000000
-0.08080760 0.00263519 0.17900001 0 15 23 0.000000
-0.07993761 0.00262047 0.17800000 0 13 21 0.000000
-0.07951906 0.00262047 0.17800000 34 18 27 0.000000
-0.07910051 0.00262047 0.17800000 80 64 73 0.000000
-0.07868197 0.00262047 0.17800000 89 53 57 0.000000
-0.07826342 0.00262047 0.17800000 87 51 55 0.000000
-0.07784487 0.00262047 0.17800000 91 47 47 0.000000
-0.07742633 0.00262047 0.17800000 90 46 46 0.000000
-0.07700778 0.00262047 0.17800000 93 44 43 0.000000
-0.07658923 0.00262047 0.17800000 95 46 45 0.000000
-0.07617068 0.00262047 0.17800000 100 46 47 0.000000
-0.07532655 0.00260575 0.17700000 100 46 47 0.000000
-0.07491036 0.00260575 0.17700000 101 45 47 0.000000
-0.07449417 0.00260575 0.17700000 101 45 47 0.000000
-0.07407796 0.00260575 0.17700000 103 45 45 0.000000
-0.07324561 0.00259103 0.17600001 102 44 44 0.000000
-0.07283176 0.00259103 0.17600001 108 48 48 0.000000
-0.07241791 0.00259103 0.17600001 110 50 50 0.000000
-0.07159495 0.00257631 0.17500001 109 49 49 0.000000
-0.07118346 0.00257631 0.17500001 109 49 49 0.000000
-0.07077197 0.00257631 0.17500001 108 48 48 0.000000
-0.07036047 0.00257631 0.17500001 110 50 50 0.000000
-0.06994898 0.00257631 0.17500001 107 47 47 0.000000
-0.06873099 0.00256159 0.17400001 108 48 48 0.000000
-0.06832184 0.00256159 0.17400001 109 49 49 0.000000
-0.06791271 0.00256159 0.17400001 112 50 51 0.000000
-0.06750356 0.00256159 0.17400001 109 47 48 0.000000
-0.06670881 0.00254686 0.17300001 111 46 48 0.000000
-0.06015338 0.00241437 0.16400000 120 49 56 0.000000
-0.05976776 0.00241437 0.16400000 117 46 53 0.000000
-0.05938213 0.00241437 0.16400000 118 47 56 0.000000
-0.05863677 0.00239965 0.16300000 120 49 58 0.000000
-0.05825349 0.00239965 0.16300000 118 47 56 0.000000
-0.05787021 0.00239965 0.16300000 118 47 56 0.000000
-0.05748693 0.00239965 0.16300000 119 45 55 0.000000
-0.05710365 0.00239965 0.16300000 122 48 58 0.000000
-0.05672038 0.00239965 0.16300000 124 49 57 0.000000
-0.05633710 0.00239965 0.16300000 125 50 58 0.000000
-0.05595382 0.00239965 0.16300000 123 48 56 0.000000
-0.05557054 0.00239965 0.16300000 124 49 57 0.000000
-0.05518727 0.00239965 0.16300000 128 50 59 0.000000
-0.05480399 0.00239965 0.16300000 129 51 60 0.000000
-0.05442071 0.00239965 0.16300000 129 51 60 0.000000
-0.05403743 0.00239965 0.16300000 128 50 59 0.000000
-0.05332499 0.00238492 0.16200000 127 49 58 0.000000
-0.05294406 0.00238492 0.16200000 128 50 59 0.000000
-0.05256314 0.00238492 0.16200000 131 53 62 0.000000
-0.05218221 0.00238492 0.16200000 131 53 62 0.000000
-0.05180129 0.00238492 0.16200000 134 59 67 0.000000
-0.05142036 0.00238492 0.16200000 138 63 71 0.000000
-0.05103943 0.00238492 0.16200000 143 68 76 0.000000
-0.05034581 0.00237020 0.16100001 148 73 81 0.000000
-0.04996723 0.00237020 0.16100001 146 72 77 0.000000
-0.04958866 0.00237020 0.16100001 145 71 76 0.000000
-0.04921009 0.00237020 0.16100001 147 73 78 0.000000
-0.04852821 0.00235548 0.16000001 149 75 80 0.000000
-0.04815198 0.00235548 0.16000001 149 74 82 0.000000
-0.04777576 0.00235548 0.16000001 148 73 81 0.000000
-0.04739954 0.00235548 0.16000001 150 75 85 0.000000
-0.04672942 0.00234076 0.15900001 152 77 87 0.000000
-0.04606400 0.00232604 0.15800001 154 76 87 0.000000
-0.04569248 0.00232604 0.15800001 153 73 83 0.000000
-0.04532096 0.00232604 0.15800001 158 75 88 0.000000
-0.04466495 0.00231132 0.15700001 160 77 90 0.000000
-0.04429578 0.00231132 0.15700001 161 78 91 0.000000
-0.04392661 0.00231132 0.15700001 162 79 92 0.000000
-0.04355744 0.00231132 0.15700001 160 80 92 0.000000
-0.04318828 0.00231132 0.15700001 160 80 92 0.000000
-0.04281911 0.00231132 0.15700001 164 84 96 0.000000
-0.04244994 0.00231132 0.15700001 165 85 97 0.000000
-0.04208077 0.00231132 0.15700001 166 86 96 0.000000
-0.04197728 0.00232604 0.15800001 165 85 95 0.000000
-0.04160576 0.00232604 0.15800001 165 85 95 0.000000
-0.04123424 0.00232604 0.15800001 169 89 99 0.000000
-0.04086272 0.00232604 0.15800001 168 85 96 0.000000
-0.04049120 0.00232604 0.15800001 157 74 85 0.000000
-0.04037360 0.00234076 0.15900001 155 69 83 0.000000
-0.03999973 0.00234076 0.15900001 146 60 74 0.000000
-0.03962586 0.00234076 0.15900001 150 60 73 0.000000
-0.03925199 0.00234076 0.15900001 151 61 74 0.000000
-0.03887811 0.00234076 0.15900001 152 62 75 0.000000
-0.03874641 0.00235548 0.16000001 153 63 76 0.000000
-0.03837018 0.00235548 0.16000001 155 60 75 0.000000
-0.03799396 0.00235548 0.16000001 155 60 75 0.000000
-0.03761774 0.00235548 0.16000001 158 63 78 0.000000
-0.03724151 0.00235548 0.16000001 159 64 79 0.000000
-0.03686529 0.00235548 0.16000001 160 63 76 0.000000
-0.03648907 0.00235548 0.16000001 163 66 79 0.000000
-0.03633855 0.00237020 0.16100001 165 67 78 0.000000
-0.03595998 0.00237020 0.16100001 168 70 81 0.000000
-0.03558140 0.00237020 0.16100001 171 73 86 0.000000
-0.03520283 0.00237020 0.16100001 175 77 90 0.000000
-0.03504055 0.00238492 0.16200000 176 77 93 0.000000
-0.03465962 0.00238492 0.16200000 176 77 93 0.000000
-0.03427870 0.00238492 0.16200000 177 78 94 0.000000
-0.03389777 0.00238492 0.16200000 179 80 96 0.000000
-0.03351685 0.00238492 0.16200000 182 83 99 0.000000
-0.03313592 0.00238492 0.16200000 183 84 100 0.000000
-0.03275499 0.00238492 0.16200000 183 84 100 0.000000
-0.03237407 0.00238492 0.16200000 182 83 99 0.000000
-0.03199314 0.00238492 0.16200000 186 84 101 0.000000
-0.03161222 0.00238492 0.16200000 182 80 97 0.000000
-0.03142408 0.00239965 0.16300000 182 80 97 0.000000
-0.03104080 0.00239965 0.16300000 186 84 101 0.000000
-0.03065752 0.00239965 0.16300000 187 85 102 0.000000
-0.03027425 0.00239965 0.16300000 187 85 102 0.000000
-0.02989097 0.00239965 0.16300000 188 84 102 0.000000
-0.02950769 0.00239965 0.16300000 187 83 101 0.000000
-0.02912442 0.00239965 0.16300000 188 84 102 0.000000
-0.02797458 0.00239965 0.16300000 190 83 102 0.000000
-0.02695589 0.00267936 0.18200001 198 86 107 0.000000
-0.02652793 0.00267936 0.18200001 198 88 110 0.000000
-0.02567203 0.00267936 0.18200001 198 88 110 0.000000
-0.02538278 0.00269408 0.18300001 200 88 111 0.000000
-0.02495247 0.00269408 0.18300001 204 92 115 0.000000
-0.02465617 0.00270880 0.18400002 204 92 115 0.000000
-0.02422351 0.00270880 0.18400002 199 87 110 0.000000
-0.02379085 0.00270880 0.18400002 199 87 110 0.000000
-0.02348514 0.00272353 0.18500000 198 86 109 0.000000
-0.02305014 0.00272353 0.18500000 200 88 111 0.000000
-0.02261513 0.00272353 0.18500000 201 89 112 0.000000
-0.02218012 0.00272353 0.18500000 201 89 112 0.000000
-0.02186265 0.00273825 0.18600000 201 89 112 0.000000
-0.02142529 0.00273825 0.18600000 202 90 113 0.000000
-0.02098794 0.00273825 0.18600000 201 89 112 0.000000
-0.02055058 0.00273825 0.18600000 197 90 111 0.000000
-0.02022135 0.00275297 0.18700001 197 90 111 0.000000
-0.01978164 0.00275297 0.18700001 197 90 111 0.000000
-0.01944536 0.00276769 0.18800001 196 89 110 0.000000
-0.01910438 0.00278241 0.18900001 195 91 111 0.000000
-0.01875870 0.00279713 0.19000001 197 93 113 0.000000
-0.01840831 0.00281186 0.19100001 195 97 115 0.000000
-0.08379855 0.00307317 0.18000001 0 43 77 0.000000
-0.08337530 0.00307317 0.18000001 0 42 76 0.000000
-0.08295204 0.00307317 0.18000001 2 43 78 0.000000
-0.08207030 0.00305609 0.17900001 0 40 75 0.000000
-0.08164940 0.00305609 0.17900001 2 28 55 0.000000
-0.08122850 0.00305609 0.17900001 0 17 44 0.000000
-0.08080760 0.00305609 0.17900001 0 13 21 0.000000
-0.08038671 0.00305609 0.17900001 0 9 17 0.000000
-0.07996580 0.00305609 0.17900001 19 7 20 0.000000
-0.07910051 0.00303902 0.17800000 73 61 74 0.000000
-0.07868197 0.00303902 0.17800000 87 51 55 0.000000
-0.07826342 0.00303902 0.17800000 85 49 53 0.000000
-0.07784487 0.00303902 0.17800000 92 45 46 0.000000
-0.07742633 0.00303902 0.17800000 93 46 47 0.000000
-0.07700778 0.00303902 0.17800000 94 43 43 0.000000
-0.07658923 0.00303902 0.17800000 96 45 45 0.000000
-0.07617068 0.00303902 0.17800000 99 45 46 0.000000
-0.07575213 0.00303902 0.17800000 100 46 47 0.000000
-0.07491036 0.00302195 0.17700000 103 47 49 0.000000
-0.07449417 0.00302195 0.17700000 101 45 47 0.000000
-0.07407796 0.00302195 0.17700000 105 47 45 0.000000
-0.07324561 0.00300488 0.17600001 102 44 42 0.000000
-0.07283176 0.00300488 0.17600001 102 44 42 0.000000
-0.07241791 0.00300488 0.17600001 105 47 45 0.000000
-0.07200407 0.00300488 0.17600001 105 45 43 0.000000
-0.07118346 0.00298780 0.17500001 107 47 45 0.000000
-0.07077197 0.00298780 0.17500001 107 47 45 0.000000
-0.07036047 0.00298780 0.17500001 110 50 48 0.000000
-0.06994898 0.00298780 0.17500001 109 49 47 0.000000
-0.06914013 0.00297073 0.17400001 110 50 48 0.000000
-0.06873099 0.00297073 0.17400001 107 47 45 0.000000
-0.06832184 0.00297073 0.17400001 110 50 48 0.000000
-0.06791271 0.00297073 0.17400001 112 50 49 0.000000
-0.06750356 0.00297073 0.17400001 111 49 48 0.000000
-0.06709442 0.00297073 0.17400001 110 48 49 0.000000
-0.06013219 0.00281707 0.16500001 114 43 50 0.000000
-0.05974421 0.00281707 0.16500001 115 44 53 0.000000
-0.05935623 0.00281707 0.16500001 120 49 58 0.000000
-0.05896825 0.00281707 0.16500001 118 47 56 0.000000
-0.05822524 0.00280000 0.16400000 118 47 56 0.000000
-0.05783961 0.00280000 0.16400000 122 48 56 0.000000
-0.05745398 0.00280000 0.16400000 124 50 58 0.000000
-0.05706836 0.00280000 0.16400000 120 46 54 0.000000
-0.05668272 0.00280000 0.16400000 122 48 56 0.000000
-0.05629710 0.00280000 0.16400000 124 50 55 0.000000
-0.05591147 0.00280000 0.16400000 125 51 56 0.000000
-0.05552584 0.00280000 0.16400000 124 50 55 0.000000
-0.05480399 0.00278292 0.16300000 127 53 58 0.000000
-0.05442071 0.00278292 0.16300000 128 53 61 0.000000
-0.05403743 0.00278292 0.16300000 127 52 60 0.000000
-0.05365416 0.00278292 0.16300000 129 51 60 0.000000
-0.05327088 0.00278292 0.16300000 129 51 60 0.000000
-0.05288760 0.00278292 0.16300000 131 51 61 0.000000
-0.05250432 0.00278292 0.16300000 130 50 60 0.000000
-0.05212105 0.00278292 0.16300000 130 50 60 0.000000
-0.05142036 0.00276585 0.16200000 128 48 58 0.000000
-0.05103943 0.00276585 0.16200000 131 53 62 0.000000
-0.05065851 0.00276585 0.16200000 141 63 72 0.000000
-0.05027758 0.00276585 0.16200000 144 67 73 0.000000
-0.04989666 0.00276585 0.16200000 148 71 77 0.000000
-0.04951574 0.00276585 0.16200000 152 75 81 0.000000
-0.04913481 0.00276585 0.16200000 157 80 86 0.000000
-0.04845293 0.00274878 0.16100001 152 77 85 0.000000
-0.04807436 0.00274878 0.16100001 154 79 87 0.000000
-0.04769579 0.00274878 0.16100001 153 78 88 0.000000
-0.04702331 0.00273170 0.16000001 153 78 88 0.000000
-0.04664709 0.00273170 0.16000001 156 81 91 0.000000
-0.04627087 0.00273170 0.16000001 156 81 91 0.000000
-0.04560780 0.00271463 0.15900001 159 81 92 0.000000
-0.04494944 0.00269756 0.15800001 159 81 92 0.000000
-0.04457792 0.00269756 0.15800001 158 80 91 0.000000
-0.04420640 0.00269756 0.15800001 162 84 95 0.000000
-0.04355744 0.00268049 0.15700001 158 80 89 0.000000
-0.04318828 0.00268049 0.15700001 156 78 87 0.000000
-0.04281911 0.00268049 0.15700001 155 75 85 0.000000
-0.04272032 0.00269756 0.15800001 144 64 74 0.000000
-0.04234880 0.00269756 0.15800001 141 58 69 0.000000
-0.04197728 0.00269756 0.15800001 138 55 66 0.000000
-0.04160576 0.00269756 0.15800001 149 63 75 0.000000
-0.04149521 0.00271463 0.15900001 146 60 72 0.000000
-0.04112135 0.00271463 0.15900001 149 62 74 0.000000
-0.04074747 0.00271463 0.15900001 147 60 72 0.000000
-0.04037360 0.00271463 0.15900001 145 55 68 0.000000
-0.03999973 0.00271463 0.15900001 150 60 73 0.000000
-0.03987508 0.00273170 0.16000001 150 58 72 0.000000
-0.03949885 0.00273170 0.16000001 152 60 74 0.000000
-0.03912263 0.00273170 0.16000001 154 59 74 0.000000
-0.03874641 0.00273170 0.16000001 152 57 72 0.000000
-0.03837018 0.00273170 0.16000001 154 56 72 0.000000
-0.03799396 0.00273170 0.16000001 156 58 74 0.000000
-0.03785285 0.00274878 0.16100001 156 62 74 0.000000
-0.03747427 0.00274878 0.16100001 159 65 77 0.000000
-0.03709570 0.00274878 0.16100001 160 66 78 0.000000
-0.03671713 0.00274878 0.16100001 163 69 81 0.000000
-0.03633855 0.00274878 0.16100001 167 70 81 0.000000
-0.03595998 0.00274878 0.16100001 168 71 82 0.000000
-0.03558140 0.00274878 0.16100001 171 74 85 0.000000
-0.03520283 0.00274878 0.16100001 174 77 88 0.000000
-0.03504055 0.00276585 0.16200000 177 79 92 0.000000
-0.03465962 0.00276585 0.16200000 177 79 92 0.000000
-0.03427870 0.00276585 0.16200000 178 79 95 0.000000
-0.03389777 0.00276585 0.16200000 182 83 99 0.000000
-0.03351685 0.00276585 0.16200000 179 80 96 0.000000
-0.03313592 0.00276585 0.16200000 182 83 99 0.000000
-0.03275499 0.00276585 0.16200000 180 81 97 0.000000
-0.03257391 0.00278292 0.16300000 182 83 99 0.000000
-0.03219063 0.00278292 0.16300000 184 85 101 0.000000
-0.03180736 0.00278292 0.16300000 182 83 99 0.000000
-0.03142408 0.00278292 0.16300000 185 83 100 0.000000
-0.03104080 0.00278292 0.16300000 186 84 101 0.000000
-0.03065752 0.00278292 0.16300000 187 85 102 0.000000
-0.03027425 0.00278292 0.16300000 187 85 102 0.000000
-0.02989097 0.00278292 0.16300000 187 83 101 0.000000
-0.02912442 0.00278292 0.16300000 191 84 103 0.000000
-0.02680778 0.00309024 0.18100001 197 87 107 0.000000
-0.02638218 0.00309024 0.18100001 198 88 110 0.000000
-0.02609998 0.00310731 0.18200001 200 90 112 0.000000
-0.02495247 0.00312439 0.18300001 204 92 115 0.000000
-0.02452217 0.00312439 0.18300001 204 92 115 0.000000
-0.02422351 0.00314146 0.18400002 201 89 112 0.000000
-0.02379085 0.00314146 0.18400002 202 90 113 0.000000
-0.02335820 0.00314146 0.18400002 200 88 111 0.000000
-0.02305014 0.00315853 0.18500000 199 87 110 0.000000
-0.02261513 0.00315853 0.18500000 200 88 111 0.000000
-0.02218012 0.00315853 0.18500000 201 89 112 0.000000
-0.02186265 0.00317561 0.18600000 200 88 111 0.000000
-0.02142529 0.00317561 0.18600000 199 89 111 0.000000
-0.02098794 0.00317561 0.18600000 200 90 112 0.000000
-0.02055058 0.00317561 0.18600000 198 91 112 0.000000
-0.02011321 0.00317561 0.18600000 197 90 111 0.000000
-0.01978164 0.00319268 0.18700001 196 92 112 0.000000
-0.01944536 0.00320975 0.18800001 196 92 112 0.000000
-0.01900330 0.00320975 0.18800001 195 93 112 0.000000
-0.01865997 0.00322683 0.18900001 194 92 111 0.000000
-0.01831193 0.00324390 0.19000001 184 97 114 0.000000
-0.08379855 0.00349642 0.18000001 0 47 82 0.000000
-0.08337530 0.00349642 0.18000001 0 43 78 0.000000
-0.08295204 0.00349642 0.18000001 0 42 76 0.000000
-0.08207030 0.00347699 0.17900001 0 40 74 0.000000
-0.08164940 0.00347699 0.17900001 1 27 54 0.000000
-0.08122850 0.00347699 0.17900001 0 17 44 0.000000
-0.08080760 0.00347699 0.17900001 0 14 22 0.000000
-0.08038671 0.00347699 0.17900001 0 12 20 0.000000
-0.07996580 0.00347699 0.17900001 13 1 14 0.000000
-0.07954490 0.00347699 0.17900001 54 42 55 0.000000
-0.07912400 0.00347699 0.17900001 92 59 62 0.000000
-0.07826342 0.00345757 0.17800000 84 51 54 0.000000
-0.07784487 0.00345757 0.17800000 91 44 45 0.000000
-0.07742633 0.00345757 0.17800000 93 46 47 0.000000
-0.07700778 0.00345757 0.17800000 95 44 46 0.000000
-0.07658923 0.00345757 0.17800000 96 45 47 0.000000
-0.07617068 0.00345757 0.17800000 98 44 45 0.000000
-0.07575213 0.00345757 0.17800000 102 48 49 0.000000
-0.07533358 0.00345757 0.17800000 103 48 47 0.000000
-0.07449417 0.00343814 0.17700000 100 45 44 0.000000
-0.07407796 0.00343814 0.17700000 105 47 45 0.000000
-0.07366177 0.00343814 0.17700000 106 48 46 0.000000
-0.07324557 0.00343814 0.17700000 107 47 45 0.000000
-0.07241791 0.00341872 0.17600001 107 47 45 0.000000
-0.07200407 0.00341872 0.17600001 107 47 45 0.000000
-0.07159022 0.00341872 0.17600001 107 47 45 0.000000
-0.07077197 0.00339930 0.17500001 108 48 46 0.000000
-0.07036047 0.00339930 0.17500001 109 49 47 0.000000
-0.06994898 0.00339930 0.17500001 108 48 46 0.000000
-0.06914013 0.00337987 0.17400001 109 49 47 0.000000
-0.06873099 0.00337987 0.17400001 108 46 45 0.000000
-0.06832184 0.00337987 0.17400001 111 49 48 0.000000
-0.06791271 0.00337987 0.17400001 113 48 50 0.000000
-0.06711560 0.00336045 0.17300001 113 48 50 0.000000
-0.06670881 0.00336045 0.17300001 111 46 48 0.000000
-0.05935623 0.00320505 0.16500001 122 48 58 0.000000
-0.05896825 0.00320505 0.16500001 120 46 56 0.000000
-0.05858027 0.00320505 0.16500001 119 45 55 0.000000
-0.05819229 0.00320505 0.16500001 120 46 54 0.000000
-0.05780431 0.00320505 0.16500001 124 50 58 0.000000
-0.05741633 0.00320505 0.16500001 120 46 51 0.000000
-0.05668272 0.00318563 0.16400000 123 49 54 0.000000
-0.05629710 0.00318563 0.16400000 125 51 54 0.000000
-0.05591147 0.00318563 0.16400000 125 51 54 0.000000
-0.05552584 0.00318563 0.16400000 124 50 53 0.000000
-0.05514021 0.00318563 0.16400000 127 53 56 0.000000
-0.05475458 0.00318563 0.16400000 129 52 58 0.000000
-0.05436895 0.00318563 0.16400000 127 50 56 0.000000
-0.05398333 0.00318563 0.16400000 129 52 58 0.000000
-0.05327088 0.00316620 0.16300000 128 51 57 0.000000
-0.05288760 0.00316620 0.16300000 128 49 56 0.000000
-0.05250432 0.00316620 0.16300000 129 50 57 0.000000
-0.05212105 0.00316620 0.16300000 130 50 60 0.000000
-0.05173777 0.00316620 0.16300000 131 51 61 0.000000
-0.05135449 0.00316620 0.16300000 132 52 62 0.000000
-0.05097122 0.00316620 0.16300000 132 52 62 0.000000
-0.05058794 0.00316620 0.16300000 130 50 60 0.000000
-0.05020466 0.00316620 0.16300000 130 50 60 0.000000
-0.04951574 0.00314678 0.16200000 134 54 64 0.000000
-0.04913481 0.00314678 0.16200000 137 57 67 0.000000
-0.04875388 0.00314678 0.16200000 138 58 68 0.000000
-0.04837296 0.00314678 0.16200000 142 62 72 0.000000
-0.04799203 0.00314678 0.16200000 145 67 78 0.000000
-0.04761110 0.00314678 0.16200000 147 69 80 0.000000
-0.04693864 0.00312735 0.16100001 144 66 77 0.000000
-0.04656006 0.00312735 0.16100001 149 71 82 0.000000
-0.04589465 0.00310793 0.16000001 150 70 82 0.000000
-0.04551842 0.00310793 0.16000001 149 69 81 0.000000
-0.04486006 0.00308850 0.15900001 148 68 80 0.000000
-0.04448619 0.00308850 0.15900001 146 66 78 0.000000
-0.04383488 0.00306908 0.15800001 141 61 71 0.000000
-0.04346336 0.00306908 0.15800001 136 56 66 0.000000
-0.04309184 0.00306908 0.15800001 139 56 67 0.000000
-0.04272032 0.00306908 0.15800001 139 56 67 0.000000
-0.04234880 0.00306908 0.15800001 142 56 68 0.000000
-0.04224296 0.00308850 0.15900001 142 56 68 0.000000
-0.04186909 0.00308850 0.15900001 143 56 68 0.000000
-0.04149521 0.00308850 0.15900001 143 56 68 0.000000
-0.04112135 0.00308850 0.15900001 148 59 69 0.000000
-0.04100375 0.00310793 0.16000001 148 59 69 0.000000
-0.04062752 0.00310793 0.16000001 146 55 66 0.000000
-0.04025130 0.00310793 0.16000001 146 55 66 0.000000
-0.03987508 0.00310793 0.16000001 151 57 69 0.000000
-0.03949885 0.00310793 0.16000001 154 60 72 0.000000
-0.03936715 0.00312735 0.16100001 153 59 71 0.000000
-0.03898857 0.00312735 0.16100001 153 59 71 0.000000
-0.03861000 0.00312735 0.16100001 153 56 69 0.000000
-0.03823142 0.00312735 0.16100001 156 59 72 0.000000
-0.03785285 0.00312735 0.16100001 161 64 77 0.000000
-0.03747427 0.00312735 0.16100001 161 64 77 0.000000
-0.03709570 0.00312735 0.16100001 162 68 78 0.000000
-0.03671713 0.00312735 0.16100001 165 71 81 0.000000
-0.03633855 0.00312735 0.16100001 167 73 83 0.000000
-0.03595998 0.00312735 0.16100001 169 75 85 0.000000
-0.03558140 0.00312735 0.16100001 173 75 88 0.000000
-0.03542148 0.00314678 0.16200000 175 77 90 0.000000
-0.03504055 0.00314678 0.16200000 177 79 92 0.000000
-0.03465962 0.00314678 0.16200000 178 80 93 0.000000
-0.03427870 0.00314678 0.16200000 179 81 94 0.000000
-0.03389777 0.00314678 0.16200000 182 84 97 0.000000
-0.03351685 0.00314678 0.16200000 182 83 99 0.000000
-0.03313592 0.00314678 0.16200000 182 83 99 0.000000
-0.03219063 0.00316620 0.16300000 184 85 101 0.000000
-0.03142408 0.00316620 0.16300000 186 85 99 0.000000
-0.03104080 0.00316620 0.16300000 186 85 99 0.000000
-0.03065752 0.00316620 0.16300000 187 84 99 0.000000
-0.03045998 0.00318563 0.16400000 187 84 99 0.000000
-0.03007435 0.00318563 0.16400000 187 83 101 0.000000
-0.02968872 0.00318563 0.16400000 188 84 102 0.000000
-0.02930309 0.00318563 0.16400000 190 83 102 0.000000
-0.02891746 0.00318563 0.16400000 191 84 103 0.000000
-0.02853184 0.00318563 0.16400000 191 84 103 0.000000
-0.02831783 0.00320505 0.16500001 191 84 103 0.000000
-0.02680778 0.00351584 0.18100001 200 90 110 0.000000
-0.02638218 0.00351584 0.18100001 201 91 111 0.000000
-0.02595657 0.00351584 0.18100001 200 90 110 0.000000
-0.02553097 0.00351584 0.18100001 197 87 107 0.000000
-0.02524407 0.00353527 0.18200001 199 89 109 0.000000
-0.02481612 0.00353527 0.18200001 198 88 108 0.000000
-0.02452217 0.00355469 0.18300001 199 87 108 0.000000
-0.02409186 0.00355469 0.18300001 200 88 109 0.000000
-0.02379085 0.00357412 0.18400002 201 89 110 0.000000
-0.02335820 0.00357412 0.18400002 200 88 109 0.000000
-0.02305014 0.00359354 0.18500000 200 88 109 0.000000
-0.02261513 0.00359354 0.18500000 200 88 109 0.000000
-0.02218012 0.00359354 0.18500000 199 89 109 0.000000
-0.02174511 0.00359354 0.18500000 200 90 110 0.000000
-0.02142529 0.00361297 0.18600000 201 91 111 0.000000
-0.02098794 0.00361297 0.18600000 199 89 109 0.000000
-0.02055058 0.00361297 0.18600000 198 91 112 0.000000
-0.02011321 0.00361297 0.18600000 198 91 112 0.000000
-0.01978164 0.00363239 0.18700001 195 91 111 0.000000
-0.01944536 0.00365182 0.18800001 196 92 112 0.000000
-0.01900330 0.00365182 0.18800001 193 95 113 0.000000
-0.01856124 0.00365182 0.18800001 192 94 112 0.000000
-0.08422180 0.00391967 0.18000001 0 46 80 0.000000
-0.08379855 0.00391967 0.18000001 0 47 82 0.000000
-0.08337530 0.00391967 0.18000001 0 43 78 0.000000
-0.08295204 0.00391967 0.18000001 0 41 77 0.000000
-0.08207030 0.00389789 0.17900001 0 39 75 0.000000
-0.08164940 0.00389789 0.17900001 0 26 50 0.000000
-0.08122850 0.00389789 0.17900001 0 18 42 0.000000
-0.08080760 0.00389789 0.17900001 0 15 20 0.000000
-0.08038671 0.00389789 0.17900001 0 14 19 0.000000
-0.07996580 0.00389789 0.17900001 7 5 14 0.000000
-0.07954490 0.00389789 0.17900001 34 32 41 0.000000
-0.07912400 0.00389789 0.17900001 90 58 63 0.000000
-0.07826342 0.00387612 0.17800000 83 51 56 0.000000
-0.07784487 0.00387612 0.17800000 90 46 46 0.000000
-0.07742633 0.00387612 0.17800000 90 46 46 0.000000
-0.07700778 0.00387612 0.17800000 96 45 47 0.000000
-0.07658923 0.00387612 0.17800000 96 45 47 0.000000
-0.07617068 0.00387612 0.17800000 94 43 43 0.000000
-0.07575213 0.00387612 0.17800000 94 43 43 0.000000
-0.07533358 0.00387612 0.17800000 99 46 44 0.000000
-0.07449417 0.00385434 0.17700000 97 44 42 0.000000
-0.07407796 0.00385434 0.17700000 99 41 39 0.000000
-0.07366177 0.00385434 0.17700000 100 42 40 0.000000
-0.07324557 0.00385434 0.17700000 104 44 40 0.000000
-0.07282938 0.00385434 0.17700000 108 48 44 0.000000
-0.07200407 0.00383257 0.17600001 105 43 40 0.000000
-0.07159022 0.00383257 0.17600001 109 47 44 0.000000
-0.07117638 0.00383257 0.17600001 109 47 46 0.000000
-0.07036047 0.00381079 0.17500001 108 46 45 0.000000
-0.06994898 0.00381079 0.17500001 108 46 45 0.000000
-0.06914013 0.00378901 0.17400001 109 47 46 0.000000
-0.06873099 0.00378901 0.17400001 108 46 47 0.000000
-0.06832184 0.00378901 0.17400001 110 48 49 0.000000
-0.06791271 0.00378901 0.17400001 112 50 51 0.000000
-0.06711560 0.00376724 0.17300001 110 48 49 0.000000
-0.06670881 0.00376724 0.17300001 109 47 48 0.000000
-0.06630202 0.00376724 0.17300001 111 49 50 0.000000
-0.05935623 0.00359303 0.16500001 117 46 53 0.000000
-0.05896825 0.00359303 0.16500001 119 45 53 0.000000
-0.05858027 0.00359303 0.16500001 119 45 53 0.000000
-0.05819229 0.00359303 0.16500001 119 46 51 0.000000
-0.05780431 0.00359303 0.16500001 120 47 52 0.000000
-0.05741633 0.00359303 0.16500001 119 46 49 0.000000
-0.05702835 0.00359303 0.16500001 122 49 52 0.000000
-0.05664038 0.00359303 0.16500001 122 49 50 0.000000
-0.05625239 0.00359303 0.16500001 124 51 52 0.000000
-0.05586441 0.00359303 0.16500001 125 52 50 0.000000
-0.05547643 0.00359303 0.16500001 126 53 51 0.000000
-0.05475458 0.00357125 0.16400000 129 52 56 0.000000
-0.05436895 0.00357125 0.16400000 127 50 54 0.000000
-0.05398333 0.00357125 0.16400000 129 52 56 0.000000
-0.05359770 0.00357125 0.16400000 127 50 54 0.000000
-0.05321207 0.00357125 0.16400000 129 50 55 0.000000
-0.05282644 0.00357125 0.16400000 129 50 55 0.000000
-0.05244081 0.00357125 0.16400000 130 51 58 0.000000
-0.05173777 0.00354948 0.16300000 130 51 58 0.000000
-0.05135449 0.00354948 0.16300000 130 51 58 0.000000
-0.05097122 0.00354948 0.16300000 130 51 58 0.000000
-0.05058794 0.00354948 0.16300000 131 52 59 0.000000
-0.05020466 0.00354948 0.16300000 134 55 62 0.000000
-0.04982139 0.00354948 0.16300000 135 55 65 0.000000
-0.04943811 0.00354948 0.16300000 135 55 65 0.000000
-0.04905483 0.00354948 0.16300000 136 56 66 0.000000
-0.04867155 0.00354948 0.16300000 136 56 66 0.000000
-0.04828828 0.00354948 0.16300000 137 57 67 0.000000
-0.04790500 0.00354948 0.16300000 137 57 67 0.000000
-0.04580291 0.00350593 0.16100001 136 53 64 0.000000
-0.04411231 0.00346237 0.15900001 137 54 65 0.000000
-0.04299070 0.00346237 0.15900001 141 55 67 0.000000
-0.04261683 0.00346237 0.15900001 146 59 71 0.000000
-0.04250864 0.00348415 0.16000001 143 56 68 0.000000
-0.04213241 0.00348415 0.16000001 144 57 69 0.000000
-0.04175619 0.00348415 0.16000001 143 56 68 0.000000
-0.04137997 0.00348415 0.16000001 145 56 66 0.000000
-0.04100375 0.00348415 0.16000001 145 56 66 0.000000
-0.04062752 0.00348415 0.16000001 147 56 67 0.000000
-0.04025130 0.00348415 0.16000001 149 58 69 0.000000
-0.04012430 0.00350593 0.16100001 149 58 69 0.000000
-0.03974572 0.00350593 0.16100001 152 61 72 0.000000
-0.03936715 0.00350593 0.16100001 151 60 71 0.000000
-0.03898857 0.00350593 0.16100001 151 60 71 0.000000
-0.03861000 0.00350593 0.16100001 155 61 73 0.000000
-0.03823142 0.00350593 0.16100001 160 66 78 0.000000
-0.03785285 0.00350593 0.16100001 160 66 78 0.000000
-0.03747427 0.00350593 0.16100001 163 69 81 0.000000
-0.03709570 0.00350593 0.16100001 163 69 81 0.000000
-0.03671713 0.00350593 0.16100001 165 71 83 0.000000
-0.03633855 0.00350593 0.16100001 171 74 87 0.000000
-0.03595998 0.00350593 0.16100001 170 73 86 0.000000
-0.03580240 0.00352770 0.16200000 172 74 87 0.000000
-0.03542148 0.00352770 0.16200000 173 75 88 0.000000
-0.03504055 0.00352770 0.16200000 175 77 90 0.000000
-0.03465962 0.00352770 0.16200000 177 79 92 0.000000
-0.03427870 0.00352770 0.16200000 180 81 97 0.000000
-0.03389777 0.00352770 0.16200000 182 83 99 0.000000
-0.03351685 0.00352770 0.16200000 179 80 96 0.000000
-0.03334047 0.00354948 0.16300000 180 81 97 0.000000
-0.03295719 0.00354948 0.16300000 182 83 99 0.000000
-0.03219063 0.00354948 0.16300000 182 80 97 0.000000
-0.03180736 0.00354948 0.16300000 185 83 100 0.000000
-0.03142408 0.00354948 0.16300000 187 83 101 0.000000
-0.03123123 0.00357125 0.16400000 187 83 101 0.000000
-0.03084561 0.00357125 0.16400000 186 82 100 0.000000
-0.03045998 0.00357125 0.16400000 186 82 100 0.000000
-0.03007435 0.00357125 0.16400000 188 81 100 0.000000
-0.02968872 0.00357125 0.16400000 190 83 102 0.000000
-0.02948177 0.00359303 0.16500001 190 83 102 0.000000
-0.02909379 0.00359303 0.16500001 190 83 102 0.000000
-0.02665967 0.00391967 0.18000001 199 89 109 0.000000
-0.02623642 0.00391967 0.18000001 199 89 109 0.000000
-0.02595657 0.00394145 0.18100001 198 88 108 0.000000
-0.02553097 0.00394145 0.18100001 198 88 108 0.000000
-0.02510537 0.00394145 0.18100001 199 89 109 0.000000
-0.02481612 0.00396322 0.18200001 199 89 109 0.000000
-0.02452217 0.00398500 0.18300001 199 89 109 0.000000
-0.02409186 0.00398500 0.18300001 200 90 110 0.000000
-0.02379085 0.00400677 0.18400002 198 88 108 0.000000
-0.02335820 0.00400677 0.18400002 199 89 109 0.000000
-0.02292554 0.00400677 0.18400002 200 88 109 0.000000
-0.02261513 0.00402855 0.18500000 200 88 109 0.000000
-0.02218012 0.00402855 0.18500000 199 89 109 0.000000
-0.02174511 0.00402855 0.18500000 200 90 110 0.000000
-0.02142529 0.00405033 0.18600000 199 89 109 0.000000
-0.02098794 0.00405033 0.18600000 198 88 108 0.000000
-0.02055058 0.00405033 0.18600000 198 91 112 0.000000
-0.02011321 0.00405033 0.18600000 198 91 112 0.000000
-0.01978164 0.00407210 0.18700001 196 92 112 0.000000
-0.01934193 0.00407210 0.18700001 197 93 113 0.000000
-0.01900330 0.00409388 0.18800001 189 96 115 0.000000
-0.01856124 0.00409388 0.18800001 187 94 113 0.000000
-0.08379855 0.00434292 0.18000001 0 42 78 0.000000
-0.08337530 0.00434292 0.18000001 0 42 78 0.000000
-0.08295204 0.00434292 0.18000001 0 39 76 0.000000
-0.08252879 0.00434292 0.18000001 0 36 73 0.000000
-0.08210554 0.00434292 0.18000001 0 26 50 0.000000
-0.08122850 0.00431879 0.17900001 0 18 42 0.000000
-0.08080760 0.00431879 0.17900001 0 14 19 0.000000
-0.08038671 0.00431879 0.17900001 0 15 20 0.000000
-0.07996580 0.00431879 0.17900001 7 12 19 0.000000
-0.07954490 0.00431879 0.17900001 8 13 20 0.000000
-0.07912400 0.00431879 0.17900001 81 56 64 0.000000
-0.07870311 0.00431879 0.17900001 82 57 65 0.000000
-0.07784487 0.00429467 0.17800000 90 47 49 0.000000
-0.07742633 0.00429467 0.17800000 91 48 50 0.000000
-0.07700778 0.00429467 0.17800000 96 45 47 0.000000
-0.07658923 0.00429467 0.17800000 95 44 46 0.000000
-0.07617068 0.00429467 0.17800000 98 44 45 0.000000
-0.07575213 0.00429467 0.17800000 100 46 47 0.000000
-0.07533358 0.00429467 0.17800000 101 46 45 0.000000
-0.07449417 0.00427054 0.17700000 99 44 43 0.000000
-0.07407796 0.00427054 0.17700000 99 41 39 0.000000
-0.07366177 0.00427054 0.17700000 103 45 43 0.000000
-0.07324557 0.00427054 0.17700000 105 45 43 0.000000
-0.07282938 0.00427054 0.17700000 107 47 45 0.000000
-0.07200407 0.00424641 0.17600001 109 47 46 0.000000
-0.07159022 0.00424641 0.17600001 109 47 46 0.000000
-0.07077197 0.00422228 0.17500001 109 47 46 0.000000
-0.07036047 0.00422228 0.17500001 105 43 42 0.000000
-0.06994898 0.00422228 0.17500001 105 43 44 0.000000
-0.06914013 0.00419816 0.17400001 105 43 44 0.000000
-0.06873099 0.00419816 0.17400001 109 46 50 0.000000
-0.06832184 0.00419816 0.17400001 109 46 50 0.000000
-0.06791271 0.00419816 0.17400001 109 46 50 0.000000
-0.06711560 0.00417403 0.17300001 110 47 51 0.000000
-0.06670881 0.00417403 0.17300001 109 47 48 0.000000
-0.06630202 0.00417403 0.17300001 112 50 51 0.000000
-0.05935623 0.00398101 0.16500001 116 45 52 0.000000
-0.05896825 0.00398101 0.16500001 118 45 50 0.000000
-0.05858027 0.00398101 0.16500001 119 46 51 0.000000
-0.05819229 0.00398101 0.16500001 119 46 51 0.000000
-0.05780431 0.00398101 0.16500001 119 46 51 0.000000
-0.05741633 0.00398101 0.16500001 122 49 52 0.000000
-0.05702835 0.00398101 0.16500001 122 49 52 0.000000
-0.05664038 0.00398101 0.16500001 120 47 48 0.000000
-0.05625239 0.00398101 0.16500001 123 50 51 0.000000
-0.05586441 0.00398101 0.16500001 125 51 52 0.000000
-0.05547643 0.00398101 0.16500001 125 51 52 0.000000
-0.05508845 0.00398101 0.16500001 126 49 51 0.000000
-0.05470047 0.00398101 0.16500001 126 49 51 0.000000
-0.05431249 0.00398101 0.16500001 129 52 56 0.000000
-0.05359770 0.00395688 0.16400000 128 51 55 0.000000
-0.05321207 0.00395688 0.16400000 128 51 55 0.000000
-0.05282644 0.00395688 0.16400000 129 52 56 0.000000
-0.05244081 0.00395688 0.16400000 129 52 56 0.000000
-0.05205518 0.00395688 0.16400000 129 52 56 0.000000
-0.05166955 0.00395688 0.16400000 129 52 58 0.000000
-0.05128393 0.00395688 0.16400000 131 54 60 0.000000
-0.05089829 0.00395688 0.16400000 130 53 59 0.000000
-0.05051266 0.00395688 0.16400000 130 53 59 0.000000
-0.05012704 0.00395688 0.16400000 132 53 60 0.000000
-0.04974141 0.00395688 0.16400000 132 53 60 0.000000
-0.04935578 0.00395688 0.16400000 135 56 63 0.000000
-0.04897016 0.00395688 0.16400000 135 56 63 0.000000
-0.04858452 0.00395688 0.16400000 137 55 63 0.000000
-0.04819889 0.00395688 0.16400000 133 51 59 0.000000
-0.04752172 0.00393276 0.16300000 136 51 60 0.000000
-0.04713845 0.00393276 0.16300000 139 54 63 0.000000
-0.04675517 0.00393276 0.16300000 136 54 62 0.000000
-0.04363731 0.00386037 0.16000001 141 55 67 0.000000
-0.04326108 0.00386037 0.16000001 143 57 69 0.000000
-0.04288486 0.00386037 0.16000001 142 55 67 0.000000
-0.04250864 0.00386037 0.16000001 142 55 67 0.000000
-0.04239574 0.00388450 0.16100001 144 57 69 0.000000
-0.04201717 0.00388450 0.16100001 142 55 67 0.000000
-0.04163859 0.00388450 0.16100001 144 54 67 0.000000
-0.04126002 0.00388450 0.16100001 146 56 69 0.000000
-0.04088144 0.00388450 0.16100001 146 57 67 0.000000
-0.04050287 0.00388450 0.16100001 148 59 69 0.000000
-0.04012430 0.00388450 0.16100001 151 60 71 0.000000
-0.03999259 0.00390863 0.16200000 151 60 71 0.000000
-0.03961166 0.00390863 0.16200000 152 61 72 0.000000
-0.03923073 0.00390863 0.16200000 157 66 77 0.000000
-0.03884981 0.00390863 0.16200000 159 65 77 0.000000
-0.03846888 0.00390863 0.16200000 161 67 79 0.000000
-0.03808796 0.00390863 0.16200000 161 67 79 0.000000
