0.00894282 -0.03095795 0.18100001 182 98 100 0.000000
0.00942018 -0.03112899 0.18200001 179 97 101 0.000000
0.00990224 -0.03130002 0.18300001 180 98 102 0.000000
0.01038901 -0.03147106 0.18400002 179 97 101 0.000000
0.01088048 -0.03164210 0.18500000 179 97 101 0.000000
0.01143782 -0.03198418 0.18700001 177 98 101 0.000000
0.01200456 -0.03232625 0.18900001 177 98 101 0.000000
0.01251484 -0.03249729 0.19000001 176 97 102 0.000000
0.01347894 -0.03266833 0.19100001 172 101 108 0.000000
0.01400098 -0.03283937 0.19200000 172 101 108 0.000000
-0.05542232 -0.02800204 0.16600001 69 48 43 0.000000
-0.05470047 -0.02783335 0.16500001 81 60 55 0.000000
-0.05431249 -0.02783335 0.16500001 91 60 58 0.000000
-0.05392451 -0.02783335 0.16500001 91 60 58 0.000000
-0.05353653 -0.02783335 0.16500001 93 59 51 0.000000
-0.05244081 -0.02766466 0.16400000 92 51 43 0.000000
-0.05205518 -0.02766466 0.16400000 92 51 43 0.000000
-0.05135449 -0.02749598 0.16300000 88 45 36 0.000000
-0.05097122 -0.02749598 0.16300000 83 40 31 0.000000
-0.05058794 -0.02749598 0.16300000 76 33 24 0.000000
-0.05020466 -0.02749598 0.16300000 72 29 20 0.000000
-0.04982139 -0.02749598 0.16300000 70 30 17 0.000000
-0.04913481 -0.02732729 0.16200000 71 31 18 0.000000
-0.04875388 -0.02732729 0.16200000 71 33 22 0.000000
-0.04807436 -0.02715860 0.16100001 72 34 23 0.000000
-0.04769579 -0.02715860 0.16100001 72 38 28 0.000000
-0.00274401 -0.02817073 0.16700001 166 82 82 0.000000
-0.00235133 -0.02817073 0.16700001 169 85 85 0.000000
-0.00195864 -0.02817073 0.16700001 170 86 86 0.000000
-0.00156596 -0.02817073 0.16700001 173 89 89 0.000000
-0.00117328 -0.02817073 0.16700001 174 89 89 0.000000
-0.00078060 -0.02817073 0.16700001 163 78 80 0.000000
-0.00039024 -0.02833941 0.16800001 189 104 106 0.000000
0.00000480 -0.02833941 0.16800001 190 105 110 0.000000
0.00039983 -0.02833941 0.16800001 188 103 108 0.000000
0.00079960 -0.02850810 0.16900001 189 104 109 0.000000
0.00119698 -0.02850810 0.16900001 188 103 108 0.000000
0.00160380 -0.02867679 0.17000000 186 100 105 0.000000
0.00200354 -0.02867679 0.17000000 189 103 108 0.000000
0.00240328 -0.02867679 0.17000000 191 102 108 0.000000
0.00281950 -0.02884547 0.17100000 188 99 105 0.000000
0.00322159 -0.02884547 0.17100000 189 98 105 0.000000
0.00362368 -0.02884547 0.17100000 192 101 108 0.000000
0.00404931 -0.02901416 0.17200001 192 101 108 0.000000
0.00445375 -0.02901416 0.17200001 192 101 108 0.000000
0.00488644 -0.02918285 0.17300001 191 103 106 0.000000
0.00532382 -0.02935153 0.17400001 192 104 107 0.000000
0.00576591 -0.02952022 0.17500001 188 103 105 0.000000
0.00621271 -0.02968891 0.17600001 188 103 105 0.000000
0.00758130 -0.03019497 0.17900001 181 97 99 0.000000
0.00804691 -0.03036366 0.18000001 181 97 99 0.000000
0.00851722 -0.03053234 0.18100001 181 97 99 0.000000
0.00899223 -0.03070103 0.18200001 182 98 100 0.000000
0.00947194 -0.03086972 0.18300001 180 98 102 0.000000
0.00995636 -0.03103841 0.18400002 180 98 102 0.000000
0.01044547 -0.03120709 0.18500000 178 99 102 0.000000
0.01093929 -0.03137578 0.18600000 177 98 101 0.000000
0.01143782 -0.03154447 0.18700001 178 99 102 0.000000
0.01200456 -0.03188184 0.18900001 177 98 101 0.000000
0.01251484 -0.03205053 0.19000001 177 98 103 0.000000
0.01296161 -0.03205053 0.19000001 178 99 104 0.000000
0.01347894 -0.03221921 0.19100001 171 101 105 0.000000
0.01400098 -0.03238790 0.19200000 170 100 104 0.000000
-0.05542232 -0.02761171 0.16600001 77 54 49 0.000000
-0.05503199 -0.02761171 0.16600001 86 63 58 0.000000
-0.05464166 -0.02761171 0.16600001 93 62 60 0.000000
-0.05392451 -0.02744537 0.16500001 90 59 57 0.000000
-0.05353653 -0.02744537 0.16500001 92 56 48 0.000000
-0.05314855 -0.02744537 0.16500001 91 55 47 0.000000
-0.05276057 -0.02744537 0.16500001 92 51 41 0.000000
-0.05205518 -0.02727904 0.16400000 90 49 39 0.000000
-0.05166955 -0.02727904 0.16400000 86 40 32 0.000000
-0.05128393 -0.02727904 0.16400000 80 34 26 0.000000
-0.05089829 -0.02727904 0.16400000 70 28 16 0.000000
-0.05020466 -0.02711270 0.16300000 67 25 13 0.000000
-0.04982139 -0.02711270 0.16300000 65 28 14 0.000000
-0.04943811 -0.02711270 0.16300000 67 30 16 0.000000
-0.04875388 -0.02694636 0.16200000 71 34 20 0.000000
-0.04837296 -0.02694636 0.16200000 72 35 21 0.000000
-0.04769579 -0.02678003 0.16100001 70 39 30 0.000000
-0.00274401 -0.02777804 0.16700001 168 88 84 0.000000
-0.00235133 -0.02777804 0.16700001 169 89 85 0.000000
-0.00195864 -0.02777804 0.16700001 169 86 83 0.000000
-0.00156596 -0.02777804 0.16700001 173 90 87 0.000000
-0.00117328 -0.02777804 0.16700001 175 90 90 0.000000
-0.00078527 -0.02794438 0.16800001 167 82 84 0.000000
-0.00039024 -0.02794438 0.16800001 185 100 102 0.000000
0.00000480 -0.02794438 0.16800001 188 106 110 0.000000
0.00040221 -0.02811072 0.16900001 187 105 109 0.000000
0.00079960 -0.02811072 0.16900001 187 105 111 0.000000
0.00119698 -0.02811072 0.16900001 185 103 109 0.000000
0.00160380 -0.02827705 0.17000000 186 100 105 0.000000
0.00200354 -0.02827705 0.17000000 189 103 108 0.000000
0.00240328 -0.02827705 0.17000000 188 99 105 0.000000
0.00281950 -0.02844338 0.17100000 188 99 105 0.000000
0.00322159 -0.02844338 0.17100000 187 98 104 0.000000
0.00362368 -0.02844338 0.17100000 188 99 105 0.000000
0.00404931 -0.02860972 0.17200001 191 102 108 0.000000
0.00445375 -0.02860972 0.17200001 191 102 108 0.000000
0.00488644 -0.02877606 0.17300001 191 102 108 0.000000
0.00532382 -0.02894239 0.17400001 191 102 108 0.000000
0.00576591 -0.02910873 0.17500001 186 100 105 0.000000
0.00762366 -0.02994041 0.18000001 182 98 100 0.000000
0.00809161 -0.03010674 0.18100001 180 96 98 0.000000
0.00856427 -0.03027308 0.18200001 179 97 101 0.000000
0.00904163 -0.03043941 0.18300001 180 98 102 0.000000
0.00947194 -0.03043941 0.18300001 181 99 103 0.000000
0.00995636 -0.03060575 0.18400002 178 96 100 0.000000
0.01044547 -0.03077208 0.18500000 176 97 100 0.000000
0.01093929 -0.03093842 0.18600000 177 98 101 0.000000
0.01143782 -0.03110475 0.18700001 177 98 103 0.000000
0.01200456 -0.03143743 0.18900001 177 98 103 0.000000
0.01251484 -0.03160376 0.19000001 176 99 103 0.000000
0.01296161 -0.03160376 0.19000001 176 99 103 0.000000
0.01347894 -0.03177010 0.19100001 174 100 108 0.000000
0.01400098 -0.03193643 0.19200000 172 98 106 0.000000
-0.05542232 -0.02722138 0.16600001 78 55 50 0.000000
-0.05503199 -0.02722138 0.16600001 88 65 60 0.000000
-0.05464166 -0.02722138 0.16600001 92 60 56 0.000000
-0.05425133 -0.02722138 0.16600001 90 58 54 0.000000
-0.05386100 -0.02722138 0.16600001 90 52 43 0.000000
-0.05347066 -0.02722138 0.16600001 89 51 42 0.000000
-0.05276057 -0.02705739 0.16500001 90 49 39 0.000000
-0.05237259 -0.02705739 0.16500001 87 46 36 0.000000
-0.05198461 -0.02705739 0.16500001 83 40 31 0.000000
-0.05159663 -0.02705739 0.16500001 71 28 19 0.000000
-0.05120865 -0.02705739 0.16500001 68 28 15 0.000000
-0.05051266 -0.02689341 0.16400000 64 24 11 0.000000
-0.05012704 -0.02689341 0.16400000 62 25 9 0.000000
-0.04943811 -0.02672942 0.16300000 65 28 12 0.000000
-0.04905483 -0.02672942 0.16300000 69 32 16 0.000000
-0.04837296 -0.02656544 0.16200000 71 34 18 0.000000
-0.00274401 -0.02738536 0.16700001 169 88 87 0.000000
-0.00235133 -0.02738536 0.16700001 172 91 90 0.000000
-0.00195864 -0.02738536 0.16700001 174 90 90 0.000000
-0.00156596 -0.02738536 0.16700001 176 92 92 0.000000
-0.00118030 -0.02754935 0.16800001 176 91 91 0.000000
-0.00078527 -0.02754935 0.16800001 168 83 83 0.000000
-0.00039024 -0.02754935 0.16800001 178 93 93 0.000000
0.00000480 -0.02754935 0.16800001 186 104 108 0.000000
0.00040221 -0.02771333 0.16900001 186 104 108 0.000000
0.00079960 -0.02771333 0.16900001 186 104 110 0.000000
0.00120407 -0.02787731 0.17000000 186 104 110 0.000000
0.00160380 -0.02787731 0.17000000 187 102 107 0.000000
0.00200354 -0.02787731 0.17000000 187 102 107 0.000000
0.00240328 -0.02787731 0.17000000 190 101 107 0.000000
0.00281950 -0.02804130 0.17100000 188 99 105 0.000000
0.00322159 -0.02804130 0.17100000 188 99 105 0.000000
0.00364487 -0.02820528 0.17200001 190 101 107 0.000000
0.00404931 -0.02820528 0.17200001 190 101 107 0.000000
0.00447964 -0.02836927 0.17300001 190 101 107 0.000000
0.00491468 -0.02853325 0.17400001 190 101 107 0.000000
0.00535442 -0.02869724 0.17500001 190 101 107 0.000000
0.00579886 -0.02886122 0.17600001 184 98 103 0.000000
0.00766601 -0.02968114 0.18100001 187 102 107 0.000000
0.00813632 -0.02984513 0.18200001 178 93 98 0.000000
0.00856427 -0.02984513 0.18200001 177 98 101 0.000000
0.00904163 -0.03000911 0.18300001 178 99 102 0.000000
0.00952370 -0.03017309 0.18400002 179 100 105 0.000000
0.01001047 -0.03033708 0.18500000 177 98 103 0.000000
0.01050194 -0.03050106 0.18600000 173 94 99 0.000000
0.01099811 -0.03066505 0.18700001 176 97 102 0.000000
0.01149898 -0.03082903 0.18800001 177 98 103 0.000000
0.01200456 -0.03099301 0.18900001 176 97 102 0.000000
0.01251484 -0.03115700 0.19000001 175 98 102 0.000000
0.01302983 -0.03132098 0.19100001 176 99 103 0.000000
0.01347894 -0.03132098 0.19100001 174 100 108 0.000000
0.01400098 -0.03148497 0.19200000 172 98 106 0.000000
-0.05581266 -0.02683104 0.16600001 66 62 51 0.000000
-0.05542232 -0.02683104 0.16600001 81 58 53 0.000000
-0.05503199 -0.02683104 0.16600001 88 65 60 0.000000
-0.05464166 -0.02683104 0.16600001 96 61 58 0.000000
-0.05425133 -0.02683104 0.16600001 93 58 55 0.000000
-0.05386100 -0.02683104 0.16600001 92 54 45 0.000000
-0.05347066 -0.02683104 0.16600001 87 49 40 0.000000
-0.05308034 -0.02683104 0.16600001 88 47 37 0.000000
-0.05269000 -0.02683104 0.16600001 88 47 37 0.000000
-0.05229967 -0.02683104 0.16600001 80 39 29 0.000000
-0.05190934 -0.02683104 0.16600001 67 26 16 0.000000
-0.05151901 -0.02683104 0.16600001 64 23 13 0.000000
-0.05082067 -0.02666941 0.16500001 63 22 12 0.000000
-0.05043269 -0.02666941 0.16500001 61 24 8 0.000000
-0.04974141 -0.02650778 0.16400000 66 29 13 0.000000
-0.04905483 -0.02634615 0.16300000 68 33 18 0.000000
-0.00274401 -0.02699268 0.16700001 171 90 89 0.000000
-0.00235133 -0.02699268 0.16700001 172 91 90 0.000000
-0.00195864 -0.02699268 0.16700001 175 91 91 0.000000
-0.00156596 -0.02699268 0.16700001 175 91 91 0.000000
-0.00117328 -0.02699268 0.16700001 178 90 91 0.000000
-0.00078527 -0.02715431 0.16800001 171 86 86 0.000000
-0.00039024 -0.02715431 0.16800001 177 92 92 0.000000
0.00000480 -0.02715431 0.16800001 183 101 105 0.000000
0.00040221 -0.02731594 0.16900001 187 105 109 0.000000
0.00079960 -0.02731594 0.16900001 186 104 110 0.000000
0.00120407 -0.02747758 0.17000000 185 103 109 0.000000
0.00160380 -0.02747758 0.17000000 188 103 108 0.000000
0.00200354 -0.02747758 0.17000000 187 102 107 0.000000
0.00241741 -0.02763921 0.17100000 190 101 107 0.000000
0.00281950 -0.02763921 0.17100000 188 99 105 0.000000
0.00322159 -0.02763921 0.17100000 188 99 105 0.000000
0.00364487 -0.02780084 0.17200001 190 101 107 0.000000
0.00404931 -0.02780084 0.17200001 190 101 107 0.000000
0.00447964 -0.02796247 0.17300001 188 99 105 0.000000
0.00491468 -0.02812411 0.17400001 187 98 104 0.000000
0.00535442 -0.02828574 0.17500001 187 98 104 0.000000
0.00579886 -0.02844737 0.17600001 186 97 103 0.000000
0.00766601 -0.02925554 0.18100001 189 104 109 0.000000
0.00813632 -0.02941717 0.18200001 184 99 104 0.000000
0.00861133 -0.02957880 0.18300001 174 95 100 0.000000
0.00909104 -0.02974044 0.18400002 174 95 100 0.000000
0.00952370 -0.02974044 0.18400002 177 98 103 0.000000
0.01001047 -0.02990207 0.18500000 176 97 102 0.000000
0.01050194 -0.03006370 0.18600000 173 94 99 0.000000
0.01099811 -0.03022533 0.18700001 174 95 100 0.000000
0.01149898 -0.03038697 0.18800001 177 98 103 0.000000
0.01206808 -0.03071023 0.19000001 176 97 102 0.000000
0.01251484 -0.03071023 0.19000001 173 96 100 0.000000
0.01302983 -0.03087187 0.19100001 176 99 103 0.000000
0.01347894 -0.03087187 0.19100001 173 100 105 0.000000
0.01400098 -0.03103350 0.19200000 172 99 104 0.000000
-0.05581266 -0.02644071 0.16600001 69 65 54 0.000000
-0.05542232 -0.02644071 0.16600001 80 59 54 0.000000
-0.05503199 -0.02644071 0.16600001 88 67 62 0.000000
-0.05464166 -0.02644071 0.16600001 95 63 59 0.000000
-0.05457814 -0.02660000 0.16700001 91 59 55 0.000000
-0.05418546 -0.02660000 0.16700001 92 54 47 0.000000
-0.05379277 -0.02660000 0.16700001 86 48 41 0.000000
-0.05340010 -0.02660000 0.16700001 85 47 36 0.000000
-0.05300741 -0.02660000 0.16700001 78 40 29 0.000000
-0.05261473 -0.02660000 0.16700001 77 36 26 0.000000
-0.05222205 -0.02660000 0.16700001 66 25 15 0.000000
-0.05182936 -0.02660000 0.16700001 61 23 12 0.000000
-0.05112867 -0.02644071 0.16600001 61 23 12 0.000000
-0.05073835 -0.02644071 0.16600001 61 24 10 0.000000
-0.05004471 -0.02628143 0.16500001 65 28 14 0.000000
-0.04935578 -0.02612215 0.16400000 72 35 21 0.000000
-0.00313669 -0.02660000 0.16700001 164 91 89 0.000000
-0.00274401 -0.02660000 0.16700001 169 91 89 0.000000
-0.00235133 -0.02660000 0.16700001 170 92 90 0.000000
-0.00195864 -0.02660000 0.16700001 176 92 92 0.000000
-0.00156596 -0.02660000 0.16700001 176 92 92 0.000000
-0.00117328 -0.02660000 0.16700001 176 91 91 0.000000
-0.00078527 -0.02675928 0.16800001 175 90 92 0.000000
-0.00039024 -0.02675928 0.16800001 176 91 93 0.000000
0.00000480 -0.02675928 0.16800001 182 100 106 0.000000
0.00039983 -0.02675928 0.16800001 186 104 110 0.000000
0.00079960 -0.02691856 0.16900001 187 105 111 0.000000
0.00119698 -0.02691856 0.16900001 183 101 107 0.000000
0.00160380 -0.02707784 0.17000000 185 100 107 0.000000
0.00200354 -0.02707784 0.17000000 185 100 107 0.000000
0.00241741 -0.02723712 0.17100000 186 100 105 0.000000
0.00281950 -0.02723712 0.17100000 188 102 107 0.000000
0.00322159 -0.02723712 0.17100000 186 100 105 0.000000
0.00364487 -0.02739640 0.17200001 188 102 107 0.000000
0.00404931 -0.02739640 0.17200001 186 100 105 0.000000
0.00447964 -0.02755568 0.17300001 185 99 104 0.000000
0.00491468 -0.02771497 0.17400001 185 99 104 0.000000
0.00535442 -0.02787425 0.17500001 185 99 104 0.000000
0.00583181 -0.02819281 0.17700000 186 100 105 0.000000
0.00766601 -0.02882994 0.18100001 190 104 109 0.000000
0.00813632 -0.02898922 0.18200001 189 103 108 0.000000
0.00861133 -0.02914850 0.18300001 180 101 106 0.000000
0.00909104 -0.02930778 0.18400002 176 97 102 0.000000
0.00957546 -0.02946706 0.18500000 176 97 102 0.000000
0.01006458 -0.02962634 0.18600000 176 97 102 0.000000
0.01055840 -0.02978562 0.18700001 176 97 102 0.000000
0.01099811 -0.02978562 0.18700001 174 95 100 0.000000
0.01149898 -0.02994490 0.18800001 176 97 104 0.000000
0.01206808 -0.03026347 0.19000001 176 97 104 0.000000
0.01251484 -0.03026347 0.19000001 174 95 102 0.000000
0.01302983 -0.03042275 0.19100001 174 95 102 0.000000
0.01347894 -0.03042275 0.19100001 174 100 105 0.000000
0.01400098 -0.03058203 0.19200000 174 100 105 0.000000
-0.05581266 -0.02605038 0.16600001 75 71 60 0.000000
-0.05542232 -0.02605038 0.16600001 80 61 55 0.000000
-0.05503199 -0.02605038 0.16600001 85 66 60 0.000000
-0.05497083 -0.02620731 0.16700001 92 60 56 0.000000
-0.05457814 -0.02620731 0.16700001 91 59 55 0.000000
-0.05418546 -0.02620731 0.16700001 92 54 47 0.000000
-0.05379277 -0.02620731 0.16700001 87 49 42 0.000000
-0.05340010 -0.02620731 0.16700001 83 45 34 0.000000
-0.05332482 -0.02636424 0.16800001 78 40 29 0.000000
-0.05292979 -0.02636424 0.16800001 65 27 16 0.000000
-0.05253476 -0.02636424 0.16800001 59 21 10 0.000000
-0.05213972 -0.02636424 0.16800001 60 22 11 0.000000
-0.05174468 -0.02636424 0.16800001 61 23 12 0.000000
-0.05104400 -0.02620731 0.16700001 62 24 13 0.000000
-0.05034801 -0.02605038 0.16600001 64 26 15 0.000000
-0.04965673 -0.02589345 0.16500001 68 32 22 0.000000
-0.00276044 -0.02636424 0.16800001 169 93 90 0.000000
-0.00235133 -0.02620731 0.16700001 169 93 90 0.000000
-0.00195864 -0.02620731 0.16700001 176 92 92 0.000000
-0.00156596 -0.02620731 0.16700001 176 92 92 0.000000
-0.00117328 -0.02620731 0.16700001 178 93 93 0.000000
-0.00078527 -0.02636424 0.16800001 174 89 89 0.000000
-0.00039024 -0.02636424 0.16800001 175 90 90 0.000000
0.00000480 -0.02636424 0.16800001 183 98 105 0.000000
0.00039983 -0.02636424 0.16800001 184 99 106 0.000000
0.00079960 -0.02652117 0.16900001 186 104 110 0.000000
0.00119698 -0.02652117 0.16900001 185 103 109 0.000000
0.00160380 -0.02667810 0.17000000 185 100 107 0.000000
0.00200354 -0.02667810 0.17000000 183 98 105 0.000000
0.00241741 -0.02683503 0.17100000 184 98 103 0.000000
0.00281950 -0.02683503 0.17100000 188 102 107 0.000000
0.00322159 -0.02683503 0.17100000 185 99 104 0.000000
0.00364487 -0.02699196 0.17200001 185 99 104 0.000000
0.00404931 -0.02699196 0.17200001 186 100 105 0.000000
0.00447964 -0.02714889 0.17300001 185 99 104 0.000000
0.00491468 -0.02730582 0.17400001 186 100 105 0.000000
0.00538502 -0.02761968 0.17600001 186 100 105 0.000000
0.00583181 -0.02777661 0.17700000 186 100 105 0.000000
0.00770837 -0.02856126 0.18200001 190 104 109 0.000000
0.00818102 -0.02871819 0.18300001 189 103 108 0.000000
0.00865839 -0.02887513 0.18400002 186 104 108 0.000000
0.00909104 -0.02887513 0.18400002 181 99 103 0.000000
0.00957546 -0.02903205 0.18500000 177 100 104 0.000000
0.01006458 -0.02918898 0.18600000 172 95 99 0.000000
0.01055840 -0.02934591 0.18700001 174 95 100 0.000000
0.01105692 -0.02950284 0.18800001 174 95 100 0.000000
0.01156015 -0.02965977 0.18900001 174 95 100 0.000000
0.01206808 -0.02981670 0.19000001 177 98 103 0.000000
0.01251484 -0.02981670 0.19000001 173 94 101 0.000000
0.01302983 -0.02997364 0.19100001 173 94 101 0.000000
0.01347894 -0.02997364 0.19100001 171 97 102 0.000000
0.01400098 -0.03013056 0.19200000 177 103 108 0.000000
-0.05542232 -0.02566005 0.16600001 81 65 58 0.000000
-0.05536351 -0.02581463 0.16700001 84 68 61 0.000000
-0.05497083 -0.02581463 0.16700001 94 64 59 0.000000
-0.05457814 -0.02581463 0.16700001 90 60 55 0.000000
-0.05418546 -0.02581463 0.16700001 91 50 42 0.000000
-0.05411489 -0.02596921 0.16800001 88 47 39 0.000000
-0.05371986 -0.02596921 0.16800001 85 44 34 0.000000
-0.05332482 -0.02596921 0.16800001 75 34 24 0.000000
-0.05324484 -0.02612379 0.16900001 57 21 9 0.000000
-0.05284746 -0.02612379 0.16900001 57 21 9 0.000000
-0.05245008 -0.02612379 0.16900001 55 21 9 0.000000
-0.05174468 -0.02596921 0.16800001 57 23 11 0.000000
-0.05134965 -0.02596921 0.16800001 56 22 12 0.000000
-0.05065132 -0.02581463 0.16700001 62 28 18 0.000000
-0.04995768 -0.02566005 0.16600001 68 34 26 0.000000
-0.00315548 -0.02596921 0.16800001 157 97 93 0.000000
-0.00276044 -0.02596921 0.16800001 168 95 91 0.000000
-0.00235133 -0.02581463 0.16700001 167 94 90 0.000000
-0.00195864 -0.02581463 0.16700001 175 94 93 0.000000
-0.00156596 -0.02581463 0.16700001 174 93 92 0.000000
-0.00117328 -0.02581463 0.16700001 179 94 94 0.000000
-0.00078060 -0.02581463 0.16700001 174 89 89 0.000000
-0.00039024 -0.02596921 0.16800001 175 90 90 0.000000
0.00000480 -0.02596921 0.16800001 183 98 105 0.000000
0.00039983 -0.02596921 0.16800001 184 99 106 0.000000
0.00079960 -0.02612379 0.16900001 182 100 106 0.000000
0.00119698 -0.02612379 0.16900001 185 103 109 0.000000
0.00160380 -0.02627836 0.17000000 185 100 107 0.000000
0.00200354 -0.02627836 0.17000000 185 100 107 0.000000
0.00240328 -0.02627836 0.17000000 185 100 107 0.000000
0.00281950 -0.02643294 0.17100000 184 99 106 0.000000
0.00322159 -0.02643294 0.17100000 184 98 103 0.000000
0.00364487 -0.02658752 0.17200001 184 98 103 0.000000
0.00404931 -0.02658752 0.17200001 184 98 103 0.000000
0.00447964 -0.02674210 0.17300001 185 99 104 0.000000
0.00491468 -0.02689668 0.17400001 185 99 104 0.000000
0.00535442 -0.02705126 0.17500001 184 98 103 0.000000
0.00583181 -0.02736042 0.17700000 186 100 105 0.000000
0.00770837 -0.02813331 0.18200001 189 103 108 0.000000
0.00818102 -0.02828789 0.18300001 190 104 109 0.000000
0.00865839 -0.02844247 0.18400002 187 105 109 0.000000
0.00914045 -0.02859704 0.18500000 187 105 109 0.000000
0.00962722 -0.02875162 0.18600000 184 107 111 0.000000
0.01006458 -0.02875162 0.18600000 175 98 102 0.000000
0.01055840 -0.02890620 0.18700001 173 96 100 0.000000
0.01105692 -0.02906078 0.18800001 173 96 100 0.000000
0.01156015 -0.02921536 0.18900001 179 97 103 0.000000
0.01206808 -0.02936994 0.19000001 179 97 103 0.000000
0.01251484 -0.02936994 0.19000001 175 93 99 0.000000
0.01302983 -0.02952452 0.19100001 174 92 98 0.000000
0.01347894 -0.02952452 0.19100001 172 95 99 0.000000
0.01400098 -0.02967909 0.19200000 172 95 99 0.000000
-0.05575619 -0.02542195 0.16700001 78 64 58 0.000000
-0.05536351 -0.02542195 0.16700001 83 69 63 0.000000
-0.05497083 -0.02542195 0.16700001 95 65 60 0.000000
-0.05457814 -0.02542195 0.16700001 90 60 55 0.000000
-0.05450993 -0.02557418 0.16800001 92 51 43 0.000000
-0.05411489 -0.02557418 0.16800001 85 44 36 0.000000
-0.05371986 -0.02557418 0.16800001 79 41 30 0.000000
-0.05364223 -0.02572640 0.16900001 67 29 18 0.000000
-0.05324484 -0.02572640 0.16900001 59 23 11 0.000000
-0.05284746 -0.02572640 0.16900001 57 21 9 0.000000
-0.05245008 -0.02572640 0.16900001 53 22 11 0.000000
-0.05205269 -0.02572640 0.16900001 53 22 11 0.000000
-0.05165531 -0.02572640 0.16900001 53 22 13 0.000000
-0.05095462 -0.02557418 0.16800001 56 25 16 0.000000
-0.00315548 -0.02557418 0.16800001 150 100 95 0.000000
-0.00276044 -0.02557418 0.16800001 161 95 89 0.000000
-0.00236541 -0.02557418 0.16800001 162 96 90 0.000000
-0.00195864 -0.02542195 0.16700001 173 95 93 0.000000
-0.00156596 -0.02542195 0.16700001 174 96 94 0.000000
-0.00117328 -0.02542195 0.16700001 181 96 96 0.000000
-0.00078060 -0.02542195 0.16700001 175 90 92 0.000000
-0.00039024 -0.02557418 0.16800001 175 90 92 0.000000
0.00000480 -0.02557418 0.16800001 178 93 100 0.000000
0.00039983 -0.02557418 0.16800001 183 98 105 0.000000
0.00079960 -0.02572640 0.16900001 182 100 108 0.000000
0.00119698 -0.02572640 0.16900001 183 101 109 0.000000
0.00160380 -0.02587863 0.17000000 183 98 105 0.000000
0.00200354 -0.02587863 0.17000000 184 99 106 0.000000
0.00240328 -0.02587863 0.17000000 185 99 106 0.000000
0.00281950 -0.02603086 0.17100000 184 98 105 0.000000
0.00322159 -0.02603086 0.17100000 184 98 105 0.000000
0.00364487 -0.02618308 0.17200001 186 100 107 0.000000
0.00404931 -0.02618308 0.17200001 184 98 105 0.000000
0.00447964 -0.02633531 0.17300001 184 98 105 0.000000
0.00491468 -0.02648754 0.17400001 182 96 103 0.000000
0.00535442 -0.02663977 0.17500001 183 97 104 0.000000
0.00583181 -0.02694422 0.17700000 184 98 105 0.000000
0.00770837 -0.02770536 0.18200001 188 103 108 0.000000
0.00818102 -0.02785758 0.18300001 189 104 109 0.000000
0.00865839 -0.02800981 0.18400002 186 104 108 0.000000
0.00914045 -0.02816204 0.18500000 187 105 109 0.000000
0.00962722 -0.02831426 0.18600000 181 107 110 0.000000
0.01006458 -0.02831426 0.18600000 177 103 106 0.000000
0.01055840 -0.02846649 0.18700001 176 99 103 0.000000
0.01105692 -0.02861872 0.18800001 171 94 98 0.000000
0.01156015 -0.02877095 0.18900001 171 92 97 0.000000
0.01206808 -0.02892317 0.19000001 172 93 98 0.000000
0.01251484 -0.02892317 0.19000001 175 93 99 0.000000
0.01302983 -0.02907540 0.19100001 174 92 98 0.000000
0.01347894 -0.02907540 0.19100001 172 95 99 0.000000
0.01400098 -0.02922763 0.19200000 176 99 103 0.000000
-0.05575619 -0.02502926 0.16700001 76 62 56 0.000000
-0.05536351 -0.02502926 0.16700001 84 70 64 0.000000
-0.05497083 -0.02502926 0.16700001 95 65 60 0.000000
-0.05490496 -0.02517914 0.16800001 89 59 54 0.000000
-0.05450993 -0.02517914 0.16800001 90 52 43 0.000000
-0.05411489 -0.02517914 0.16800001 82 44 35 0.000000
-0.05403962 -0.02532902 0.16900001 72 34 23 0.000000
-0.05364223 -0.02532902 0.16900001 67 29 18 0.000000
-0.05324484 -0.02532902 0.16900001 57 23 13 0.000000
-0.05316017 -0.02547889 0.17000000 51 17 7 0.000000
-0.05276043 -0.02547889 0.17000000 48 17 6 0.000000
-0.05236069 -0.02547889 0.17000000 50 19 8 0.000000
-0.05165531 -0.02532902 0.16900001 49 19 12 0.000000
-0.05095462 -0.02517914 0.16800001 53 23 16 0.000000
-0.05025863 -0.02502926 0.16700001 61 34 28 0.000000
-0.00315548 -0.02517914 0.16800001 142 96 92 0.000000
-0.00276044 -0.02517914 0.16800001 154 93 87 0.000000
-0.00236541 -0.02517914 0.16800001 159 98 92 0.000000
-0.00195864 -0.02502926 0.16700001 170 94 93 0.000000
-0.00156596 -0.02502926 0.16700001 172 96 95 0.000000
-0.00117328 -0.02502926 0.16700001 175 91 93 0.000000
-0.00078060 -0.02502926 0.16700001 174 90 92 0.000000
-0.00038791 -0.02502926 0.16700001 174 90 92 0.000000
0.00000480 -0.02517914 0.16800001 180 95 100 0.000000
0.00039983 -0.02517914 0.16800001 183 98 103 0.000000
0.00079487 -0.02517914 0.16800001 182 100 106 0.000000
0.00119698 -0.02532902 0.16900001 181 99 105 0.000000
0.00159437 -0.02532902 0.16900001 180 98 104 0.000000
0.00200354 -0.02547889 0.17000000 180 98 104 0.000000
0.00240328 -0.02547889 0.17000000 183 98 105 0.000000
0.00281950 -0.02562877 0.17100000 183 98 105 0.000000
0.00322159 -0.02562877 0.17100000 184 99 106 0.000000
0.00364487 -0.02577864 0.17200001 184 99 106 0.000000
0.00404931 -0.02577864 0.17200001 185 99 106 0.000000
0.00447964 -0.02592852 0.17300001 184 98 105 0.000000
0.00491468 -0.02607839 0.17400001 182 96 103 0.000000
0.00535442 -0.02622827 0.17500001 183 97 104 0.000000
0.00583181 -0.02652802 0.17700000 184 98 103 0.000000
0.00775072 -0.02742728 0.18300001 187 102 107 0.000000
0.00822573 -0.02757715 0.18400002 189 104 109 0.000000
0.00870544 -0.02772703 0.18500000 186 104 108 0.000000
0.00914045 -0.02772703 0.18500000 187 105 109 0.000000
0.00962722 -0.02787690 0.18600000 183 106 110 0.000000
0.01006458 -0.02787690 0.18600000 180 103 107 0.000000
0.01055840 -0.02802678 0.18700001 175 101 106 0.000000
0.01105692 -0.02817666 0.18800001 174 100 105 0.000000
0.01149898 -0.02817666 0.18800001 174 95 100 0.000000
0.01200456 -0.02832653 0.18900001 172 93 98 0.000000
0.01251484 -0.02847641 0.19000001 174 92 98 0.000000
0.01296161 -0.02847641 0.19000001 174 92 98 0.000000
0.01347894 -0.02862628 0.19100001 172 93 98 0.000000
0.01392806 -0.02862628 0.19100001 177 98 103 0.000000
0.01445245 -0.02877616 0.19200000 154 102 109 0.000000
-0.05575619 -0.02463658 0.16700001 68 57 50 0.000000
-0.05536351 -0.02463658 0.16700001 78 67 60 0.000000
-0.05530000 -0.02478411 0.16800001 96 66 61 0.000000
-0.05490496 -0.02478411 0.16800001 90 60 55 0.000000
-0.05450993 -0.02478411 0.16800001 90 52 43 0.000000
-0.05411489 -0.02478411 0.16800001 82 44 35 0.000000
-0.05403962 -0.02493163 0.16900001 70 34 22 0.000000
-0.05364223 -0.02493163 0.16900001 65 29 17 0.000000
-0.05355990 -0.02507915 0.17000000 57 23 13 0.000000
-0.05316017 -0.02507915 0.17000000 52 18 8 0.000000
-0.05276043 -0.02507915 0.17000000 49 20 8 0.000000
-0.05236069 -0.02507915 0.17000000 49 20 8 0.000000
-0.05165531 -0.02493163 0.16900001 47 21 10 0.000000
-0.05125792 -0.02493163 0.16900001 54 28 17 0.000000
-0.05055958 -0.02478411 0.16800001 58 36 28 0.000000
-0.00317426 -0.02493163 0.16900001 140 94 90 0.000000
-0.00277687 -0.02493163 0.16900001 149 92 85 0.000000
-0.00236541 -0.02478411 0.16800001 153 96 89 0.000000
-0.00197037 -0.02478411 0.16800001 164 95 92 0.000000
-0.00156596 -0.02463658 0.16700001 167 98 95 0.000000
-0.00117328 -0.02463658 0.16700001 172 91 92 0.000000
-0.00078060 -0.02463658 0.16700001 173 89 91 0.000000
-0.00038791 -0.02463658 0.16700001 174 90 92 0.000000
0.00000480 -0.02478411 0.16800001 180 96 98 0.000000
0.00039983 -0.02478411 0.16800001 183 99 101 0.000000
0.00079487 -0.02478411 0.16800001 180 98 102 0.000000
0.00119698 -0.02493163 0.16900001 181 99 103 0.000000
0.00159437 -0.02493163 0.16900001 181 99 103 0.000000
0.00200354 -0.02507915 0.17000000 181 99 103 0.000000
0.00240328 -0.02507915 0.17000000 180 98 104 0.000000
0.00280301 -0.02507915 0.17000000 181 99 105 0.000000
0.00322159 -0.02522668 0.17100000 185 99 106 0.000000
0.00362368 -0.02522668 0.17100000 185 99 106 0.000000
0.00404931 -0.02537420 0.17200001 185 99 106 0.000000
0.00447964 -0.02552173 0.17300001 184 98 105 0.000000
0.00488644 -0.02552173 0.17300001 183 97 102 0.000000
0.00535442 -0.02581678 0.17500001 184 98 103 0.000000
0.00579886 -0.02596430 0.17600001 184 98 103 0.000000
0.00775072 -0.02699697 0.18300001 184 99 104 0.000000
0.00822573 -0.02714450 0.18400002 187 102 107 0.000000
0.00870544 -0.02729202 0.18500000 185 103 109 0.000000
0.00914045 -0.02729202 0.18500000 185 103 109 0.000000
0.00962722 -0.02743954 0.18600000 183 106 110 0.000000
0.01006458 -0.02743954 0.18600000 182 105 109 0.000000
0.01055840 -0.02758707 0.18700001 176 102 107 0.000000
0.01099811 -0.02758707 0.18700001 176 102 107 0.000000
0.01149898 -0.02773459 0.18800001 177 100 104 0.000000
0.01200456 -0.02788212 0.18900001 173 96 100 0.000000
0.01251484 -0.02802964 0.19000001 173 94 99 0.000000
0.01296161 -0.02802964 0.19000001 172 93 98 0.000000
0.01340837 -0.02802964 0.19000001 172 93 98 0.000000
0.01392806 -0.02817717 0.19100001 173 94 99 0.000000
-0.05575619 -0.02424390 0.16700001 61 52 45 0.000000
-0.05536351 -0.02424390 0.16700001 74 65 58 0.000000
-0.05530000 -0.02438907 0.16800001 94 66 63 0.000000
-0.05490496 -0.02438907 0.16800001 89 61 58 0.000000
-0.05450993 -0.02438907 0.16800001 89 51 42 0.000000
-0.05443700 -0.02453425 0.16900001 85 47 38 0.000000
-0.05403962 -0.02453425 0.16900001 71 35 23 0.000000
-0.05364223 -0.02453425 0.16900001 64 28 16 0.000000
-0.05355990 -0.02467942 0.17000000 61 27 15 0.000000
-0.05316017 -0.02467942 0.17000000 54 20 8 0.000000
-0.05276043 -0.02467942 0.17000000 49 20 6 0.000000
-0.05236069 -0.02467942 0.17000000 49 20 6 0.000000
-0.05196096 -0.02467942 0.17000000 45 21 9 0.000000
-0.05125792 -0.02453425 0.16900001 49 25 13 0.000000
-0.05055958 -0.02438907 0.16800001 58 37 32 0.000000
-0.00317426 -0.02453425 0.16900001 138 90 84 0.000000
-0.00277687 -0.02453425 0.16900001 146 93 87 0.000000
-0.00237949 -0.02453425 0.16900001 149 96 90 0.000000
-0.00197037 -0.02438907 0.16800001 161 95 91 0.000000
-0.00157534 -0.02438907 0.16800001 163 97 93 0.000000
-0.00118030 -0.02438907 0.16800001 171 93 93 0.000000
-0.00078527 -0.02438907 0.16800001 174 90 92 0.000000
-0.00039024 -0.02438907 0.16800001 174 90 92 0.000000
0.00000480 -0.02438907 0.16800001 175 94 95 0.000000
0.00039983 -0.02438907 0.16800001 180 99 100 0.000000
0.00079487 -0.02438907 0.16800001 179 97 101 0.000000
0.00119698 -0.02453425 0.16900001 180 98 102 0.000000
0.00159437 -0.02453425 0.16900001 181 99 103 0.000000
0.00200354 -0.02467942 0.17000000 181 99 103 0.000000
0.00240328 -0.02467942 0.17000000 181 99 103 0.000000
0.00280301 -0.02467942 0.17000000 181 99 103 0.000000
0.00322159 -0.02482459 0.17100000 184 99 104 0.000000
0.00362368 -0.02482459 0.17100000 184 99 104 0.000000
0.00404931 -0.02496976 0.17200001 185 99 104 0.000000
0.00445375 -0.02496976 0.17200001 185 99 104 0.000000
0.00488644 -0.02511494 0.17300001 184 98 103 0.000000
0.00535442 -0.02540528 0.17500001 183 97 102 0.000000
0.00579886 -0.02555046 0.17600001 183 97 102 0.000000
0.00822573 -0.02671184 0.18400002 185 100 105 0.000000
0.00870544 -0.02685701 0.18500000 183 101 107 0.000000
0.00914045 -0.02685701 0.18500000 185 103 109 0.000000
0.00962722 -0.02700219 0.18600000 182 105 109 0.000000
0.01006458 -0.02700219 0.18600000 180 103 107 0.000000
0.01050194 -0.02700219 0.18600000 176 102 107 0.000000
0.01099811 -0.02714736 0.18700001 175 101 106 0.000000
0.01149898 -0.02729253 0.18800001 177 100 106 0.000000
0.01194105 -0.02729253 0.18800001 176 99 105 0.000000
0.01244898 -0.02743771 0.18900001 174 95 100 0.000000
0.01289339 -0.02743771 0.18900001 173 94 99 0.000000
0.01340837 -0.02758288 0.19000001 173 94 99 0.000000
0.01385514 -0.02758288 0.19000001 173 94 99 0.000000
-0.05575619 -0.02385122 0.16700001 64 55 48 0.000000
-0.05569503 -0.02399404 0.16800001 67 58 51 0.000000
-0.05530000 -0.02399404 0.16800001 92 66 62 0.000000
-0.05490496 -0.02399404 0.16800001 91 65 61 0.000000
-0.05450993 -0.02399404 0.16800001 93 57 47 0.000000
-0.05443700 -0.02413686 0.16900001 78 42 32 0.000000
-0.05403962 -0.02413686 0.16900001 68 32 20 0.000000
-0.05364223 -0.02413686 0.16900001 66 30 18 0.000000
-0.05355990 -0.02427968 0.17000000 63 27 15 0.000000
-0.05316017 -0.02427968 0.17000000 60 24 12 0.000000
-0.05276043 -0.02427968 0.17000000 53 22 9 0.000000
-0.05236069 -0.02427968 0.17000000 50 19 6 0.000000
-0.05196096 -0.02427968 0.17000000 46 20 9 0.000000
-0.05125792 -0.02413686 0.16900001 51 25 14 0.000000
-0.05055958 -0.02399404 0.16800001 60 40 32 0.000000
-0.00319304 -0.02427968 0.17000000 133 85 79 0.000000
-0.00279330 -0.02427968 0.17000000 147 94 90 0.000000
-0.00237949 -0.02413686 0.16900001 147 94 90 0.000000
-0.00198210 -0.02413686 0.16900001 156 95 89 0.000000
-0.00157534 -0.02399404 0.16800001 159 98 92 0.000000
-0.00118030 -0.02399404 0.16800001 167 94 92 0.000000
-0.00078527 -0.02399404 0.16800001 169 88 89 0.000000
-0.00039024 -0.02399404 0.16800001 168 87 88 0.000000
0.00000480 -0.02399404 0.16800001 171 90 91 0.000000
0.00039983 -0.02399404 0.16800001 181 100 101 0.000000
0.00079487 -0.02399404 0.16800001 178 97 98 0.000000
0.00119698 -0.02413686 0.16900001 178 97 98 0.000000
0.00159437 -0.02413686 0.16900001 178 96 100 0.000000
0.00199175 -0.02413686 0.16900001 179 97 101 0.000000
0.00240328 -0.02427968 0.17000000 180 98 102 0.000000
0.00280301 -0.02427968 0.17000000 181 99 103 0.000000
0.00320275 -0.02427968 0.17000000 185 100 105 0.000000
0.00362368 -0.02442250 0.17100000 185 100 105 0.000000
0.00402577 -0.02442250 0.17100000 185 100 105 0.000000
0.00445375 -0.02456532 0.17200001 184 99 104 0.000000
0.00488644 -0.02470814 0.17300001 182 97 102 0.000000
0.00532382 -0.02485097 0.17400001 181 96 101 0.000000
0.00579886 -0.02513661 0.17600001 182 97 102 0.000000
0.00822573 -0.02627918 0.18400002 185 100 105 0.000000
0.00870544 -0.02642200 0.18500000 183 101 107 0.000000
0.00914045 -0.02642200 0.18500000 183 101 107 0.000000
0.00957546 -0.02642200 0.18500000 180 103 107 0.000000
0.01006458 -0.02656483 0.18600000 180 103 107 0.000000
0.01050194 -0.02656483 0.18600000 176 102 107 0.000000
0.01099811 -0.02670765 0.18700001 175 101 106 0.000000
0.01143782 -0.02670765 0.18700001 176 99 105 0.000000
0.01194105 -0.02685047 0.18800001 176 99 105 0.000000
0.01238311 -0.02685047 0.18800001 179 100 107 0.000000
0.01289339 -0.02699329 0.18900001 177 98 105 0.000000
0.01333780 -0.02699329 0.18900001 173 96 102 0.000000
0.01385514 -0.02713611 0.19000001 171 94 100 0.000000
-0.05575619 -0.02345853 0.16700001 64 55 48 0.000000
-0.05569503 -0.02359900 0.16800001 61 52 45 0.000000
-0.05530000 -0.02359900 0.16800001 94 68 64 0.000000
-0.05490496 -0.02359900 0.16800001 88 62 58 0.000000
-0.05450993 -0.02359900 0.16800001 95 59 49 0.000000
-0.05443700 -0.02373947 0.16900001 77 41 31 0.000000
-0.05403962 -0.02373947 0.16900001 70 34 22 0.000000
-0.05364223 -0.02373947 0.16900001 66 30 18 0.000000
-0.05355990 -0.02387994 0.17000000 64 28 16 0.000000
-0.05316017 -0.02387994 0.17000000 63 27 15 0.000000
-0.05276043 -0.02387994 0.17000000 55 21 9 0.000000
-0.05236069 -0.02387994 0.17000000 52 18 6 0.000000
-0.05196096 -0.02387994 0.17000000 46 20 9 0.000000
-0.05125792 -0.02373947 0.16900001 49 23 12 0.000000
-0.00363505 -0.02416088 0.17200001 132 79 75 0.000000
-0.00321182 -0.02402041 0.17100000 135 82 78 0.000000
-0.00279330 -0.02387994 0.17000000 139 86 82 0.000000
-0.00239357 -0.02387994 0.17000000 141 88 84 0.000000
-0.00198210 -0.02373947 0.16900001 151 91 87 0.000000
-0.00158472 -0.02373947 0.16900001 155 95 91 0.000000
-0.00118030 -0.02359900 0.16800001 157 88 85 0.000000
-0.00078527 -0.02359900 0.16800001 164 88 87 0.000000
-0.00039024 -0.02359900 0.16800001 165 89 88 0.000000
0.00000480 -0.02359900 0.16800001 169 91 91 0.000000
0.00039983 -0.02359900 0.16800001 178 100 100 0.000000
0.00079487 -0.02359900 0.16800001 176 95 96 0.000000
0.00119698 -0.02373947 0.16900001 176 95 96 0.000000
0.00159437 -0.02373947 0.16900001 176 95 96 0.000000
0.00199175 -0.02373947 0.16900001 178 97 98 0.000000
0.00240328 -0.02387994 0.17000000 179 97 101 0.000000
0.00280301 -0.02387994 0.17000000 181 99 103 0.000000
0.00320275 -0.02387994 0.17000000 182 100 104 0.000000
0.00362368 -0.02402041 0.17100000 183 101 105 0.000000
0.00402577 -0.02402041 0.17100000 182 100 104 0.000000
0.00445375 -0.02416088 0.17200001 181 99 103 0.000000
0.00488644 -0.02430135 0.17300001 182 97 102 0.000000
0.00532382 -0.02444183 0.17400001 181 96 101 0.000000
0.00579886 -0.02472277 0.17600001 181 96 101 0.000000
0.00822573 -0.02584653 0.18400002 184 99 104 0.000000
0.00870544 -0.02598700 0.18500000 182 100 106 0.000000
0.00914045 -0.02598700 0.18500000 183 101 107 0.000000
0.00957546 -0.02598700 0.18500000 182 105 109 0.000000
0.01001047 -0.02598700 0.18500000 183 106 110 0.000000
0.01050194 -0.02612747 0.18600000 177 103 106 0.000000
0.01093929 -0.02612747 0.18600000 178 104 107 0.000000
0.01143782 -0.02626794 0.18700001 175 101 104 0.000000
0.01187753 -0.02626794 0.18700001 173 99 102 0.000000
0.01238311 -0.02640841 0.18800001 177 100 104 0.000000
0.01282517 -0.02640841 0.18800001 176 99 103 0.000000
0.01333780 -0.02654888 0.18900001 176 99 105 0.000000
0.01378222 -0.02654888 0.18900001 175 98 104 0.000000
-0.05569503 -0.02320397 0.16800001 57 48 41 0.000000
-0.05530000 -0.02320397 0.16800001 88 63 56 0.000000
-0.05490496 -0.02320397 0.16800001 91 66 59 0.000000
-0.05483439 -0.02334209 0.16900001 93 57 49 0.000000
-0.05443700 -0.02334209 0.16900001 78 42 34 0.000000
-0.05403962 -0.02334209 0.16900001 70 34 24 0.000000
-0.05364223 -0.02334209 0.16900001 65 29 19 0.000000
-0.05355990 -0.02348020 0.17000000 64 28 16 0.000000
-0.05316017 -0.02348020 0.17000000 64 28 16 0.000000
-0.05276043 -0.02348020 0.17000000 61 27 15 0.000000
-0.05236069 -0.02348020 0.17000000 56 22 10 0.000000
-0.05196096 -0.02348020 0.17000000 49 18 9 0.000000
-0.05125792 -0.02334209 0.16900001 47 16 7 0.000000
-0.05086053 -0.02334209 0.16900001 58 33 24 0.000000
-0.00406297 -0.02389456 0.17300001 134 81 75 0.000000
-0.00365618 -0.02389456 0.17300001 133 80 74 0.000000
-0.00323061 -0.02375644 0.17200001 133 80 74 0.000000
-0.00280973 -0.02361832 0.17100000 133 78 73 0.000000
-0.00240765 -0.02361832 0.17100000 140 85 80 0.000000
-0.00199383 -0.02348020 0.17000000 150 90 86 0.000000
-0.00158472 -0.02334209 0.16900001 150 90 86 0.000000
-0.00118733 -0.02334209 0.16900001 153 89 84 0.000000
-0.00078527 -0.02320397 0.16800001 158 89 86 0.000000
-0.00039024 -0.02320397 0.16800001 159 90 87 0.000000
0.00000480 -0.02320397 0.16800001 165 89 88 0.000000
0.00039983 -0.02320397 0.16800001 175 99 98 0.000000
0.00079960 -0.02334209 0.16900001 176 98 98 0.000000
0.00119698 -0.02334209 0.16900001 174 96 96 0.000000
0.00159437 -0.02334209 0.16900001 176 95 96 0.000000
0.00199175 -0.02334209 0.16900001 178 97 98 0.000000
0.00240328 -0.02348020 0.17000000 182 101 102 0.000000
0.00280301 -0.02348020 0.17000000 182 101 102 0.000000
0.00320275 -0.02348020 0.17000000 182 100 104 0.000000
0.00362368 -0.02361832 0.17100000 186 104 108 0.000000
0.00402577 -0.02361832 0.17100000 185 103 107 0.000000
0.00442786 -0.02361832 0.17100000 180 98 102 0.000000
0.00485819 -0.02375644 0.17200001 182 97 102 0.000000
0.00532382 -0.02403268 0.17400001 182 97 102 0.000000
0.00579886 -0.02430892 0.17600001 184 99 104 0.000000
0.00822573 -0.02541387 0.18400002 183 98 103 0.000000
0.00870544 -0.02555199 0.18500000 182 100 106 0.000000
0.00914045 -0.02555199 0.18500000 182 100 106 0.000000
0.00957546 -0.02555199 0.18500000 183 106 110 0.000000
0.01001047 -0.02555199 0.18500000 182 105 109 0.000000
0.01044547 -0.02555199 0.18500000 177 103 106 0.000000
0.01093929 -0.02569011 0.18600000 178 104 107 0.000000
0.01137665 -0.02569011 0.18600000 176 102 105 0.000000
0.01187753 -0.02582823 0.18700001 171 97 100 0.000000
0.01231724 -0.02582823 0.18700001 173 96 100 0.000000
0.01275695 -0.02582823 0.18700001 172 95 99 0.000000
0.01326723 -0.02596634 0.18800001 176 99 103 0.000000
-0.05569503 -0.02280894 0.16800001 54 45 38 0.000000
-0.05530000 -0.02280894 0.16800001 83 61 53 0.000000
-0.05490496 -0.02280894 0.16800001 90 68 60 0.000000
-0.05483439 -0.02294470 0.16900001 91 57 49 0.000000
-0.05443700 -0.02294470 0.16900001 79 45 37 0.000000
-0.05403962 -0.02294470 0.16900001 71 35 27 0.000000
-0.05364223 -0.02294470 0.16900001 66 30 22 0.000000
-0.05355990 -0.02308047 0.17000000 65 29 17 0.000000
-0.05316017 -0.02308047 0.17000000 64 28 16 0.000000
-0.05276043 -0.02308047 0.17000000 61 27 15 0.000000
-0.05236069 -0.02308047 0.17000000 61 27 15 0.000000
-0.05196096 -0.02308047 0.17000000 52 21 10 0.000000
-0.05156122 -0.02308047 0.17000000 50 19 8 0.000000
-0.00449560 -0.02362354 0.17400001 135 82 78 0.000000
-0.00408646 -0.02362354 0.17400001 134 81 77 0.000000
-0.00365618 -0.02348777 0.17300001 134 79 76 0.000000
-0.00324939 -0.02348777 0.17300001 133 78 75 0.000000
-0.00282617 -0.02335200 0.17200001 134 76 72 0.000000
-0.00242173 -0.02335200 0.17200001 135 77 73 0.000000
-0.00200556 -0.02321624 0.17100000 137 77 73 0.000000
-0.00159409 -0.02308047 0.17000000 137 77 73 0.000000
-0.00118733 -0.02294470 0.16900001 137 75 72 0.000000
-0.00078994 -0.02294470 0.16900001 142 75 74 0.000000
-0.00039256 -0.02294470 0.16900001 150 83 82 0.000000
0.00000483 -0.02294470 0.16900001 159 85 86 0.000000
0.00040221 -0.02294470 0.16900001 171 97 98 0.000000
0.00079960 -0.02294470 0.16900001 176 99 101 0.000000
0.00119698 -0.02294470 0.16900001 173 96 98 0.000000
0.00159437 -0.02294470 0.16900001 178 96 100 0.000000
0.00199175 -0.02294470 0.16900001 179 97 101 0.000000
0.00240328 -0.02308047 0.17000000 181 99 103 0.000000
0.00280301 -0.02308047 0.17000000 181 99 103 0.000000
0.00320275 -0.02308047 0.17000000 181 99 103 0.000000
0.00362368 -0.02321624 0.17100000 183 101 105 0.000000
0.00402577 -0.02321624 0.17100000 183 101 105 0.000000
0.00442786 -0.02321624 0.17100000 179 97 101 0.000000
0.00485819 -0.02335200 0.17200001 178 96 100 0.000000
0.00532382 -0.02362354 0.17400001 180 98 102 0.000000
0.00579886 -0.02389508 0.17600001 183 101 105 0.000000
0.00822573 -0.02498122 0.18400002 180 98 102 0.000000
0.00870544 -0.02511698 0.18500000 180 98 102 0.000000
0.00914045 -0.02511698 0.18500000 181 99 103 0.000000
0.00957546 -0.02511698 0.18500000 183 106 110 0.000000
0.01001047 -0.02511698 0.18500000 182 105 109 0.000000
0.01044547 -0.02511698 0.18500000 176 102 105 0.000000
0.01088048 -0.02511698 0.18500000 177 103 106 0.000000
0.01137665 -0.02525275 0.18600000 174 100 103 0.000000
0.01181401 -0.02525275 0.18600000 169 95 98 0.000000
0.01225137 -0.02525275 0.18600000 171 94 98 0.000000
0.01275695 -0.02538852 0.18700001 172 95 99 0.000000
0.01319666 -0.02538852 0.18700001 176 99 103 0.000000
-0.05562916 -0.02254732 0.16900001 78 56 48 0.000000
-0.05523178 -0.02254732 0.16900001 90 68 60 0.000000
-0.05483439 -0.02254732 0.16900001 90 59 50 0.000000
-0.05443700 -0.02254732 0.16900001 78 47 38 0.000000
-0.05403962 -0.02254732 0.16900001 65 31 23 0.000000
-0.05364223 -0.02254732 0.16900001 64 30 22 0.000000
-0.05355990 -0.02268073 0.17000000 63 29 21 0.000000
-0.05316017 -0.02268073 0.17000000 63 29 21 0.000000
-0.05276043 -0.02268073 0.17000000 59 25 13 0.000000
-0.05236069 -0.02268073 0.17000000 62 28 16 0.000000
-0.05196096 -0.02268073 0.17000000 55 24 13 0.000000
-0.05156122 -0.02268073 0.17000000 50 19 8 0.000000
-0.00493293 -0.02334781 0.17500001 126 80 74 0.000000
-0.00452144 -0.02334781 0.17500001 132 82 77 0.000000
-0.00410994 -0.02334781 0.17500001 133 83 78 0.000000
-0.00367731 -0.02321440 0.17400001 136 78 74 0.000000
-0.00326817 -0.02321440 0.17400001 135 77 73 0.000000
-0.00284260 -0.02308098 0.17300001 137 76 70 0.000000
-0.00243581 -0.02308098 0.17300001 135 74 68 0.000000
-0.00201729 -0.02294756 0.17200001 135 71 66 0.000000
-0.00160347 -0.02281415 0.17100000 134 70 65 0.000000
-0.00119436 -0.02268073 0.17000000 135 74 68 0.000000
-0.00079462 -0.02268073 0.17000000 139 75 70 0.000000
-0.00039256 -0.02254732 0.16900001 140 76 71 0.000000
0.00000483 -0.02254732 0.16900001 147 74 75 0.000000
0.00040221 -0.02254732 0.16900001 166 93 94 0.000000
0.00079960 -0.02254732 0.16900001 174 100 101 0.000000
0.00119698 -0.02254732 0.16900001 173 99 100 0.000000
0.00159437 -0.02254732 0.16900001 177 98 101 0.000000
0.00199175 -0.02254732 0.16900001 178 99 102 0.000000
0.00240328 -0.02268073 0.17000000 180 98 102 0.000000
0.00280301 -0.02268073 0.17000000 180 98 102 0.000000
0.00320275 -0.02268073 0.17000000 180 98 104 0.000000
0.00362368 -0.02281415 0.17100000 182 100 106 0.000000
0.00402577 -0.02281415 0.17100000 182 100 104 0.000000
0.00445375 -0.02294756 0.17200001 180 98 102 0.000000
0.00488644 -0.02308098 0.17300001 176 94 98 0.000000
0.00535442 -0.02334781 0.17500001 180 98 102 0.000000
0.00583181 -0.02361465 0.17700000 182 100 104 0.000000
0.00865839 -0.02454856 0.18400002 179 100 103 0.000000
0.00909104 -0.02454856 0.18400002 181 102 105 0.000000
0.00952370 -0.02454856 0.18400002 182 105 109 0.000000
0.00995636 -0.02454856 0.18400002 180 103 107 0.000000
0.01044547 -0.02468197 0.18500000 174 100 105 0.000000
0.01088048 -0.02468197 0.18500000 175 101 106 0.000000
0.01131549 -0.02468197 0.18500000 171 97 100 0.000000
0.01181401 -0.02481539 0.18600000 169 95 98 0.000000
0.01225137 -0.02481539 0.18600000 173 94 99 0.000000
0.01268873 -0.02481539 0.18600000 172 93 98 0.000000
-0.05523178 -0.02214993 0.16900001 83 65 56 0.000000
-0.05483439 -0.02214993 0.16900001 90 58 52 0.000000
-0.05443700 -0.02214993 0.16900001 77 45 39 0.000000
-0.05435938 -0.02228099 0.17000000 56 24 20 0.000000
-0.05395964 -0.02228099 0.17000000 53 21 17 0.000000
-0.05355990 -0.02228099 0.17000000 51 24 18 0.000000
-0.05316017 -0.02228099 0.17000000 51 24 18 0.000000
-0.05307078 -0.02241206 0.17100000 52 26 15 0.000000
-0.05266869 -0.02241206 0.17100000 57 31 20 0.000000
-0.05226661 -0.02241206 0.17100000 58 29 19 0.000000
-0.05156122 -0.02228099 0.17000000 54 25 15 0.000000
-0.00537496 -0.02306738 0.17600001 125 82 75 0.000000
-0.00496112 -0.02306738 0.17600001 127 84 77 0.000000
-0.00454727 -0.02306738 0.17600001 136 83 77 0.000000
-0.00413343 -0.02306738 0.17600001 135 82 76 0.000000
-0.00369845 -0.02293632 0.17500001 140 78 75 0.000000
-0.00328695 -0.02293632 0.17500001 140 78 75 0.000000
-0.00287546 -0.02293632 0.17500001 141 75 71 0.000000
-0.00244989 -0.02280525 0.17400001 138 72 68 0.000000
-0.00202902 -0.02267419 0.17300001 136 70 66 0.000000
-0.00161285 -0.02254312 0.17200001 137 71 67 0.000000
-0.00120138 -0.02241206 0.17100000 135 69 65 0.000000
-0.00079462 -0.02228099 0.17000000 137 68 65 0.000000
-0.00039488 -0.02228099 0.17000000 146 77 74 0.000000
0.00000483 -0.02214993 0.16900001 149 75 76 0.000000
0.00040221 -0.02214993 0.16900001 163 89 90 0.000000
0.00079960 -0.02214993 0.16900001 176 99 101 0.000000
0.00119698 -0.02214993 0.16900001 176 99 101 0.000000
0.00159437 -0.02214993 0.16900001 177 98 103 0.000000
0.00199175 -0.02214993 0.16900001 178 99 104 0.000000
0.00240328 -0.02228099 0.17000000 179 97 103 0.000000
0.00280301 -0.02228099 0.17000000 178 96 102 0.000000
0.00320275 -0.02228099 0.17000000 179 97 103 0.000000
0.00362368 -0.02241206 0.17100000 181 99 105 0.000000
0.00404931 -0.02254312 0.17200001 184 99 104 0.000000
0.00447964 -0.02267419 0.17300001 182 97 102 0.000000
0.00491468 -0.02280525 0.17400001 180 95 100 0.000000
0.00538502 -0.02306738 0.17600001 180 95 100 0.000000
0.00586476 -0.02332951 0.17800000 181 96 101 0.000000
0.00865839 -0.02411590 0.18400002 180 98 102 0.000000
0.00909104 -0.02411590 0.18400002 182 100 104 0.000000
0.00952370 -0.02411590 0.18400002 180 103 105 0.000000
0.00995636 -0.02411590 0.18400002 182 105 107 0.000000
0.01038901 -0.02411590 0.18400002 174 100 105 0.000000
0.01088048 -0.02424696 0.18500000 174 100 105 0.000000
0.01131549 -0.02424696 0.18500000 173 96 100 0.000000
0.01175050 -0.02424696 0.18500000 172 95 99 0.000000
0.01225137 -0.02437803 0.18600000 172 93 98 0.000000
0.01407608 -0.02450909 0.18700001 170 96 99 0.000000
-0.05555859 -0.02188126 0.17000000 80 65 55 0.000000
-0.05515885 -0.02188126 0.17000000 94 64 59 0.000000
-0.05475911 -0.02188126 0.17000000 76 46 41 0.000000
-0.05435938 -0.02188126 0.17000000 46 18 17 0.000000
-0.05395964 -0.02188126 0.17000000 42 14 13 0.000000
