-0.09503799 -0.02508222 0.18800001 236 176 174 0.000000
-0.09459592 -0.02508222 0.18800001 250 168 176 0.000000
-0.09169880 -0.02601613 0.19500001 252 134 168 0.000000
-0.09124028 -0.02601613 0.19500001 250 132 166 0.000000
-0.09078643 -0.02614955 0.19600001 249 128 165 0.000000
-0.02126262 -0.02681663 0.20100001 108 37 46 0.000000
-0.02068656 -0.02668322 0.20000000 152 81 90 0.000000
-0.10463864 -0.02503335 0.19100001 11 40 39 0.000000
-0.10364403 -0.02490229 0.19000001 16 45 44 0.000000
-0.10319726 -0.02490229 0.19000001 10 39 38 0.000000
-0.10275050 -0.02490229 0.19000001 14 39 44 0.000000
-0.10230374 -0.02490229 0.19000001 6 31 36 0.000000
-0.10239306 -0.02503335 0.19100001 8 33 40 0.000000
-0.10194395 -0.02503335 0.19100001 21 46 53 0.000000
-0.10149483 -0.02503335 0.19100001 30 52 66 0.000000
-0.10104571 -0.02503335 0.19100001 23 45 59 0.000000
-0.10006991 -0.02490229 0.19000001 32 33 62 0.000000
-0.09962314 -0.02490229 0.19000001 56 57 86 0.000000
-0.09917638 -0.02490229 0.19000001 183 154 188 0.000000
-0.09872962 -0.02490229 0.19000001 255 230 255 0.000000
-0.09828285 -0.02490229 0.19000001 255 241 255 0.000000
-0.09732116 -0.02477122 0.18900001 255 237 251 0.000000
-0.09687674 -0.02477122 0.18900001 255 238 237 0.000000
-0.09643233 -0.02477122 0.18900001 242 214 213 0.000000
-0.09548005 -0.02464016 0.18800001 233 171 170 0.000000
-0.09262993 -0.02568868 0.19600001 248 128 160 0.000000
-0.09078640 -0.02581974 0.19700001 245 120 162 0.000000
-0.09202769 -0.02699932 0.20600002 250 116 161 0.000000
-0.02126262 -0.02634400 0.20100001 105 37 45 0.000000
-0.02068656 -0.02621293 0.20000000 149 81 89 0.000000
-0.02021628 -0.02621293 0.20000000 163 97 104 0.000000
-0.01927572 -0.02621293 0.20000000 147 79 85 0.000000
-0.10463864 -0.02458424 0.19100001 26 57 57 0.000000
-0.10418952 -0.02458424 0.19100001 26 57 57 0.000000
-0.10374041 -0.02458424 0.19100001 40 71 71 0.000000
-0.10275050 -0.02445552 0.19000001 39 67 71 0.000000
-0.10284218 -0.02458424 0.19100001 37 65 69 0.000000
-0.10239306 -0.02458424 0.19100001 37 64 73 0.000000
-0.10194395 -0.02458424 0.19100001 49 76 85 0.000000
-0.10149483 -0.02458424 0.19100001 50 74 86 0.000000
-0.10051668 -0.02445552 0.19000001 47 71 83 0.000000
-0.10006991 -0.02445552 0.19000001 46 50 75 0.000000
-0.09962314 -0.02445552 0.19000001 61 65 90 0.000000
-0.09917638 -0.02445552 0.19000001 177 146 176 0.000000
-0.09872962 -0.02445552 0.19000001 255 233 255 0.000000
-0.09828285 -0.02445552 0.19000001 255 241 251 0.000000
-0.09732116 -0.02432681 0.18900001 255 241 251 0.000000
-0.09687674 -0.02432681 0.18900001 255 227 226 0.000000
-0.09643233 -0.02432681 0.18900001 248 215 214 0.000000
-0.09598792 -0.02432681 0.18900001 233 166 169 0.000000
-0.09687173 -0.02574266 0.20000000 251 138 166 0.000000
-0.09591945 -0.02561394 0.19900002 248 135 163 0.000000
-0.09545152 -0.02561394 0.19900002 251 134 163 0.000000
-0.09450629 -0.02548523 0.19800001 250 133 162 0.000000
-0.09356575 -0.02535652 0.19700001 248 128 160 0.000000
-0.09262993 -0.02522780 0.19600001 247 127 159 0.000000
-0.09169880 -0.02509909 0.19500001 246 120 157 0.000000
-0.09032319 -0.02535652 0.19700001 252 124 163 0.000000
-0.02491872 -0.02728722 0.21200001 110 38 52 0.000000
-0.02384428 -0.02664365 0.20700002 109 41 49 0.000000
-0.02126262 -0.02587137 0.20100001 105 36 47 0.000000
-0.02068656 -0.02574266 0.20000000 148 79 90 0.000000
-0.02021628 -0.02574266 0.20000000 156 90 97 0.000000
-0.01974600 -0.02574266 0.20000000 155 89 96 0.000000
-0.01927572 -0.02574266 0.20000000 139 73 80 0.000000
-0.10418952 -0.02413512 0.19100001 37 70 72 0.000000
-0.10319726 -0.02400876 0.19000001 42 75 77 0.000000
-0.10275050 -0.02400876 0.19000001 43 73 76 0.000000
-0.10284218 -0.02413512 0.19100001 44 74 77 0.000000
-0.10239306 -0.02413512 0.19100001 42 70 76 0.000000
-0.10194395 -0.02413512 0.19100001 44 72 78 0.000000
-0.10149483 -0.02413512 0.19100001 47 74 85 0.000000
-0.10104571 -0.02413512 0.19100001 41 68 79 0.000000
-0.10006991 -0.02400876 0.19000001 51 53 79 0.000000
-0.09962314 -0.02400876 0.19000001 64 66 92 0.000000
-0.09917638 -0.02400876 0.19000001 154 123 155 0.000000
-0.09872962 -0.02400876 0.19000001 255 226 255 0.000000
-0.09828285 -0.02400876 0.19000001 255 229 241 0.000000
-0.09732116 -0.02388240 0.18900001 255 244 255 0.000000
-0.09687674 -0.02388240 0.18900001 255 238 238 0.000000
-0.09643233 -0.02388240 0.18900001 243 207 207 0.000000
-0.09598792 -0.02388240 0.18900001 236 163 168 0.000000
-0.09554351 -0.02388240 0.18900001 237 164 169 0.000000
-0.09782872 -0.02539874 0.20100001 250 137 163 0.000000
-0.09687173 -0.02527238 0.20000000 247 132 158 0.000000
-0.09591945 -0.02514602 0.19900002 246 131 157 0.000000
-0.09545152 -0.02514602 0.19900002 246 129 158 0.000000
-0.09450629 -0.02501966 0.19800001 248 131 160 0.000000
-0.09356575 -0.02489330 0.19700001 249 126 159 0.000000
-0.09262993 -0.02476693 0.19600001 248 125 158 0.000000
-0.09216905 -0.02476693 0.19600001 247 119 156 0.000000
-0.09124028 -0.02464057 0.19500001 244 116 153 0.000000
-0.09078640 -0.02489330 0.19700001 253 120 159 0.000000
-0.09032319 -0.02489330 0.19700001 249 116 155 0.000000
-0.09031610 -0.02501966 0.19800001 249 113 153 0.000000
-0.09376522 -0.02666236 0.21100001 250 108 150 0.000000
-0.02589679 -0.02729417 0.21600001 110 38 50 0.000000
-0.02491872 -0.02678872 0.21200001 109 37 49 0.000000
-0.02126262 -0.02539874 0.20100001 106 37 48 0.000000
-0.02068656 -0.02527238 0.20000000 151 82 93 0.000000
-0.02021628 -0.02527238 0.20000000 155 91 100 0.000000
-0.01974600 -0.02527238 0.20000000 158 94 103 0.000000
-0.10418952 -0.02368600 0.19100001 37 72 73 0.000000
-0.10374041 -0.02368600 0.19100001 38 73 74 0.000000
-0.10329129 -0.02368600 0.19100001 42 75 77 0.000000
-0.10284218 -0.02368600 0.19100001 42 75 77 0.000000
-0.10239306 -0.02368600 0.19100001 39 72 76 0.000000
-0.10194395 -0.02368600 0.19100001 37 70 74 0.000000
-0.10149483 -0.02368600 0.19100001 41 70 80 0.000000
-0.10104571 -0.02368600 0.19100001 40 69 79 0.000000
-0.10006991 -0.02356199 0.19000001 53 57 82 0.000000
-0.09962314 -0.02356199 0.19000001 62 66 91 0.000000
-0.09917638 -0.02356199 0.19000001 154 125 159 0.000000
-0.09872962 -0.02356199 0.19000001 248 219 253 0.000000
-0.09828285 -0.02356199 0.19000001 245 210 224 0.000000
-0.09732116 -0.02343798 0.18900001 255 240 254 0.000000
-0.09687674 -0.02343798 0.18900001 255 238 239 0.000000
-0.09643233 -0.02343798 0.18900001 242 202 203 0.000000
-0.09598792 -0.02343798 0.18900001 233 158 166 0.000000
-0.09554351 -0.02343798 0.18900001 238 163 171 0.000000
-0.09636859 -0.02455408 0.19800001 248 135 161 0.000000
-0.09590301 -0.02455408 0.19800001 248 131 158 0.000000
-0.09495543 -0.02443007 0.19700001 247 130 157 0.000000
-0.09449220 -0.02443007 0.19700001 248 128 156 0.000000
-0.09402898 -0.02443007 0.19700001 249 129 157 0.000000
-0.09356575 -0.02443007 0.19700001 248 123 153 0.000000
-0.09262993 -0.02430606 0.19600001 246 121 151 0.000000
-0.09124028 -0.02418205 0.19500001 243 116 150 0.000000
-0.09031610 -0.02455408 0.19800001 249 112 150 0.000000
-0.09030432 -0.02467809 0.19900002 245 108 146 0.000000
-0.09247442 -0.02567017 0.20700002 252 107 150 0.000000
-0.02613658 -0.02703429 0.21800001 108 37 46 0.000000
-0.02503626 -0.02641424 0.21300001 106 35 44 0.000000
-0.02384428 -0.02567017 0.20700002 104 33 42 0.000000
-0.02126262 -0.02492611 0.20100001 114 47 59 0.000000
-0.02068656 -0.02480210 0.20000000 153 86 98 0.000000
-0.02021628 -0.02480210 0.20000000 154 92 100 0.000000
-0.01974600 -0.02480210 0.20000000 150 88 96 0.000000
-0.01927572 -0.02480210 0.20000000 142 82 90 0.000000
-0.10418952 -0.02323689 0.19100001 30 65 68 0.000000
-0.10374041 -0.02323689 0.19100001 34 69 72 0.000000
-0.10329129 -0.02323689 0.19100001 36 73 74 0.000000
-0.10284218 -0.02323689 0.19100001 36 73 74 0.000000
-0.10239306 -0.02323689 0.19100001 40 75 78 0.000000
-0.10194395 -0.02323689 0.19100001 37 72 75 0.000000
-0.10149483 -0.02323689 0.19100001 41 73 84 0.000000
-0.10104571 -0.02323689 0.19100001 41 73 84 0.000000
-0.09962314 -0.02311523 0.19000001 59 67 95 0.000000
-0.09917638 -0.02311523 0.19000001 135 110 145 0.000000
-0.09872962 -0.02311523 0.19000001 242 217 252 0.000000
-0.09828285 -0.02311523 0.19000001 251 215 234 0.000000
-0.09732116 -0.02299357 0.18900001 255 240 255 0.000000
-0.09687674 -0.02299357 0.18900001 255 234 236 0.000000
-0.09643233 -0.02299357 0.18900001 240 197 199 0.000000
-0.09598792 -0.02299357 0.18900001 231 156 164 0.000000
-0.09554351 -0.02299357 0.18900001 233 158 166 0.000000
-0.09636859 -0.02408850 0.19800001 252 138 161 0.000000
-0.09590301 -0.02408850 0.19800001 255 139 163 0.000000
-0.09495543 -0.02396684 0.19700001 252 136 160 0.000000
-0.09449220 -0.02396684 0.19700001 248 126 152 0.000000
-0.09402898 -0.02396684 0.19700001 244 122 148 0.000000
-0.09168452 -0.02445348 0.20100001 246 105 140 0.000000
-0.09166568 -0.02457514 0.20200001 245 104 139 0.000000
-0.09164214 -0.02469680 0.20300001 247 103 139 0.000000
-0.09251208 -0.02506177 0.20600002 250 106 142 0.000000
-0.02503626 -0.02591339 0.21300001 102 34 42 0.000000
-0.02384428 -0.02518343 0.20700002 104 32 44 0.000000
-0.02115683 -0.02433182 0.20000000 112 45 57 0.000000
-0.02068656 -0.02433182 0.20000000 154 87 99 0.000000
-0.02021628 -0.02433182 0.20000000 151 91 101 0.000000
-0.01974600 -0.02433182 0.20000000 148 88 98 0.000000
-0.01927572 -0.02433182 0.20000000 142 85 92 0.000000
-0.01889947 -0.02445348 0.20100001 137 80 87 0.000000
-0.01851851 -0.02457514 0.20200001 136 76 84 0.000000
-0.10418952 -0.02278777 0.19100001 20 54 60 0.000000
-0.10374041 -0.02278777 0.19100001 23 57 63 0.000000
-0.10329129 -0.02278777 0.19100001 33 70 71 0.000000
-0.10284218 -0.02278777 0.19100001 33 70 71 0.000000
-0.10239306 -0.02278777 0.19100001 34 71 74 0.000000
-0.10194395 -0.02278777 0.19100001 34 71 74 0.000000
-0.10149483 -0.02278777 0.19100001 37 71 77 0.000000
-0.10104571 -0.02278777 0.19100001 40 74 80 0.000000
-0.09962314 -0.02266847 0.19000001 54 69 93 0.000000
-0.09917638 -0.02266847 0.19000001 119 99 132 0.000000
-0.09872962 -0.02266847 0.19000001 236 216 249 0.000000
-0.09828285 -0.02266847 0.19000001 254 218 239 0.000000
-0.09732116 -0.02254916 0.18900001 255 240 255 0.000000
-0.09687674 -0.02254916 0.18900001 255 235 240 0.000000
-0.09643233 -0.02254916 0.18900001 239 194 199 0.000000
-0.09598792 -0.02254916 0.18900001 235 155 165 0.000000
-0.09604903 -0.02266847 0.19000001 235 155 165 0.000000
-0.09636859 -0.02362293 0.19800001 241 121 149 0.000000
-0.09541865 -0.02350362 0.19700001 248 123 153 0.000000
-0.09495543 -0.02350362 0.19700001 249 124 154 0.000000
-0.09449220 -0.02350362 0.19700001 247 119 145 0.000000
-0.09402898 -0.02350362 0.19700001 248 120 146 0.000000
-0.09310253 -0.02350362 0.19700001 250 119 146 0.000000
-0.09348085 -0.02457739 0.20600002 246 102 138 0.000000
-0.09344790 -0.02469670 0.20700002 244 100 136 0.000000
-0.09430842 -0.02505462 0.21000001 247 103 139 0.000000
-0.02126262 -0.02398085 0.20100001 112 44 61 0.000000
-0.02068656 -0.02386154 0.20000000 161 93 110 0.000000
-0.02021628 -0.02386154 0.20000000 153 93 105 0.000000
-0.01974600 -0.02386154 0.20000000 150 90 102 0.000000
-0.01927572 -0.02386154 0.20000000 140 83 92 0.000000
-0.01889947 -0.02398085 0.20100001 136 79 88 0.000000
-0.01851851 -0.02410016 0.20200001 136 76 84 0.000000
-0.10418952 -0.02233866 0.19100001 36 68 75 0.000000
-0.10374041 -0.02233866 0.19100001 43 75 82 0.000000
-0.10329129 -0.02233866 0.19100001 33 70 73 0.000000
-0.10284218 -0.02233866 0.19100001 35 72 75 0.000000
-0.10239306 -0.02233866 0.19100001 37 72 75 0.000000
-0.10194395 -0.02233866 0.19100001 36 71 74 0.000000
-0.10149483 -0.02233866 0.19100001 38 71 75 0.000000
-0.10104571 -0.02233866 0.19100001 38 71 75 0.000000
-0.09962314 -0.02222170 0.19000001 54 70 91 0.000000
-0.09917638 -0.02222170 0.19000001 107 90 120 0.000000
-0.09872962 -0.02222170 0.19000001 233 216 246 0.000000
-0.09828285 -0.02222170 0.19000001 255 225 247 0.000000
-0.09732116 -0.02210474 0.18900001 255 239 255 0.000000
-0.09687674 -0.02210474 0.18900001 255 236 244 0.000000
-0.09643233 -0.02210474 0.18900001 234 186 194 0.000000
-0.09649580 -0.02222170 0.19000001 237 154 165 0.000000
-0.09604903 -0.02222170 0.19000001 237 154 165 0.000000
-0.09588188 -0.02304039 0.19700001 245 121 148 0.000000
-0.09541865 -0.02304039 0.19700001 249 121 149 0.000000
-0.09495543 -0.02304039 0.19700001 247 119 147 0.000000
-0.09449220 -0.02304039 0.19700001 249 118 145 0.000000
-0.09402898 -0.02304039 0.19700001 249 118 145 0.000000
-0.09356575 -0.02304039 0.19700001 252 119 144 0.000000
-0.09262993 -0.02292344 0.19600001 250 117 142 0.000000
-0.09216905 -0.02292344 0.19600001 250 115 141 0.000000
-0.09217608 -0.02304039 0.19700001 249 114 140 0.000000
-0.09570510 -0.02479474 0.21200001 246 103 136 0.000000
-0.02173525 -0.02350822 0.20100001 103 31 45 0.000000
-0.02115683 -0.02339126 0.20000000 114 44 62 0.000000
-0.02068656 -0.02339126 0.20000000 170 100 118 0.000000
-0.02021628 -0.02339126 0.20000000 158 94 107 0.000000
-0.01974600 -0.02339126 0.20000000 149 85 98 0.000000
-0.01927572 -0.02339126 0.20000000 138 78 88 0.000000
-0.01889947 -0.02350822 0.20100001 137 77 87 0.000000
-0.01851851 -0.02362517 0.20200001 132 72 80 0.000000
-0.10284218 -0.02188954 0.19100001 39 72 76 0.000000
-0.10239306 -0.02188954 0.19100001 42 75 77 0.000000
-0.10194395 -0.02188954 0.19100001 38 71 73 0.000000
-0.10149483 -0.02188954 0.19100001 41 71 74 0.000000
-0.10104571 -0.02188954 0.19100001 43 73 76 0.000000
-0.09962314 -0.02177493 0.19000001 54 71 87 0.000000
-0.09917638 -0.02177493 0.19000001 96 82 107 0.000000
-0.09872962 -0.02177493 0.19000001 223 209 234 0.000000
-0.09828285 -0.02177493 0.19000001 255 225 244 0.000000
-0.09783608 -0.02177493 0.19000001 255 233 252 0.000000
-0.09738932 -0.02177493 0.19000001 255 228 242 0.000000
-0.09694255 -0.02177493 0.19000001 231 178 192 0.000000
-0.09649580 -0.02177493 0.19000001 238 151 165 0.000000
-0.09604903 -0.02177493 0.19000001 239 152 166 0.000000
-0.09570566 -0.02200414 0.19200000 254 136 156 0.000000
-0.09495543 -0.02257717 0.19700001 244 116 144 0.000000
-0.09449220 -0.02257717 0.19700001 249 115 143 0.000000
-0.09355167 -0.02246256 0.19600001 248 114 142 0.000000
-0.09356575 -0.02257717 0.19700001 247 112 138 0.000000
-0.09310253 -0.02257717 0.19700001 247 112 138 0.000000
-0.09263930 -0.02257717 0.19700001 246 109 135 0.000000
-0.09264398 -0.02269178 0.19800001 248 111 137 0.000000
-0.04706863 -0.02521308 0.22000001 103 30 49 0.000000
-0.02173525 -0.02303559 0.20100001 100 28 44 0.000000
-0.02115683 -0.02292098 0.20000000 113 43 61 0.000000
-0.02068656 -0.02292098 0.20000000 176 106 124 0.000000
-0.02021628 -0.02292098 0.20000000 159 90 105 0.000000
-0.01974600 -0.02292098 0.20000000 148 79 94 0.000000
-0.01927572 -0.02292098 0.20000000 141 77 88 0.000000
-0.01889947 -0.02303559 0.20100001 139 75 86 0.000000
-0.01851851 -0.02315019 0.20200001 134 72 80 0.000000
-0.10149483 -0.02144042 0.19100001 36 69 71 0.000000
-0.10104571 -0.02144042 0.19100001 38 71 73 0.000000
-0.09962314 -0.02132817 0.19000001 44 65 73 0.000000
-0.09917638 -0.02132817 0.19000001 84 71 91 0.000000
-0.09872962 -0.02132817 0.19000001 201 188 208 0.000000
-0.09828285 -0.02132817 0.19000001 255 222 239 0.000000
-0.09732116 -0.02121592 0.18900001 255 232 249 0.000000
-0.09738932 -0.02132817 0.19000001 255 224 238 0.000000
-0.09694255 -0.02132817 0.19000001 235 177 191 0.000000
-0.09649580 -0.02132817 0.19000001 238 145 168 0.000000
-0.09604903 -0.02132817 0.19000001 242 149 172 0.000000
-0.09610543 -0.02144042 0.19100001 247 133 156 0.000000
-0.09570566 -0.02155268 0.19200000 248 130 150 0.000000
-0.09624643 -0.02177718 0.19400001 245 127 147 0.000000
-0.09588188 -0.02211394 0.19700001 247 121 146 0.000000
-0.09541865 -0.02211394 0.19700001 248 117 144 0.000000
-0.09447342 -0.02200169 0.19600001 247 116 143 0.000000
-0.09401255 -0.02200169 0.19600001 249 115 143 0.000000
-0.09355167 -0.02200169 0.19600001 249 115 143 0.000000
-0.09356575 -0.02211394 0.19700001 249 113 142 0.000000
-0.09310253 -0.02211394 0.19700001 247 111 140 0.000000
-0.09310956 -0.02222620 0.19800001 246 107 132 0.000000
-0.09311188 -0.02233845 0.19900002 244 105 130 0.000000
-0.09543724 -0.02301197 0.20500001 246 107 132 0.000000
-0.08897061 -0.02413451 0.21500000 241 142 167 0.000000
-0.08846506 -0.02413451 0.21500000 230 119 144 0.000000
-0.08795951 -0.02413451 0.21500000 227 116 141 0.000000
-0.08644287 -0.02413451 0.21500000 237 116 126 0.000000
-0.08593731 -0.02413451 0.21500000 235 114 124 0.000000
-0.08543177 -0.02413451 0.21500000 235 115 129 0.000000
-0.04965516 -0.02469577 0.22000001 108 32 52 0.000000
-0.04869115 -0.02447127 0.21800001 106 30 50 0.000000
-0.04795754 -0.02435901 0.21700001 128 55 74 0.000000
-0.02162711 -0.02245070 0.20000000 94 25 40 0.000000
-0.02115683 -0.02245070 0.20000000 126 56 76 0.000000
-0.02068656 -0.02245070 0.20000000 177 107 127 0.000000
-0.02021628 -0.02245070 0.20000000 161 92 107 0.000000
-0.01974600 -0.02245070 0.20000000 144 75 90 0.000000
-0.01927572 -0.02245070 0.20000000 141 79 89 0.000000
-0.01889947 -0.02256296 0.20100001 139 77 87 0.000000
-0.01851851 -0.02267521 0.20200001 134 74 82 0.000000
-0.10149483 -0.02099131 0.19100001 20 49 50 0.000000
-0.10104571 -0.02099131 0.19100001 20 49 50 0.000000
-0.10006991 -0.02088141 0.19000001 33 52 56 0.000000
-0.09962314 -0.02088141 0.19000001 27 46 50 0.000000
-0.09917638 -0.02088141 0.19000001 68 53 71 0.000000
-0.09872962 -0.02088141 0.19000001 173 158 176 0.000000
-0.09828285 -0.02088141 0.19000001 255 220 241 0.000000
-0.09732116 -0.02077150 0.18900001 255 234 255 0.000000
-0.09738932 -0.02088141 0.19000001 255 220 235 0.000000
-0.09694255 -0.02088141 0.19000001 228 165 180 0.000000
-0.09649580 -0.02088141 0.19000001 239 139 164 0.000000
-0.09604903 -0.02088141 0.19000001 240 140 165 0.000000
-0.09610543 -0.02099131 0.19100001 250 134 158 0.000000
-0.09570566 -0.02110121 0.19200000 254 133 154 0.000000
-0.09588188 -0.02165072 0.19700001 247 121 148 0.000000
-0.09447342 -0.02154082 0.19600001 246 115 144 0.000000
-0.09401255 -0.02154082 0.19600001 248 114 144 0.000000
-0.09355167 -0.02154082 0.19600001 248 114 144 0.000000
-0.09356575 -0.02165072 0.19700001 249 111 140 0.000000
-0.09310253 -0.02165072 0.19700001 252 114 143 0.000000
-0.09310956 -0.02176062 0.19800001 253 108 133 0.000000
-0.09048726 -0.02362896 0.21500000 255 181 202 0.000000
-0.08956320 -0.02351906 0.21400002 255 179 198 0.000000
-0.08864383 -0.02340915 0.21300001 255 179 198 0.000000
-0.08772916 -0.02329925 0.21200001 241 153 172 0.000000
-0.08723067 -0.02329925 0.21200001 240 141 159 0.000000
-0.08673217 -0.02329925 0.21200001 226 127 145 0.000000
-0.08623368 -0.02329925 0.21200001 227 114 132 0.000000
-0.08573519 -0.02329925 0.21200001 225 112 130 0.000000
-0.08523669 -0.02329925 0.21200001 225 112 126 0.000000
-0.08473819 -0.02329925 0.21200001 224 111 125 0.000000
-0.08423970 -0.02329925 0.21200001 222 109 125 0.000000
-0.08413621 -0.02340915 0.21300001 238 125 141 0.000000
-0.08402801 -0.02351906 0.21400002 255 151 169 0.000000
-0.08430542 -0.02373886 0.21600001 255 150 168 0.000000
-0.04852663 -0.02362896 0.21500000 114 40 65 0.000000
-0.02162711 -0.02198043 0.20000000 94 26 43 0.000000
-0.02115683 -0.02198043 0.20000000 157 88 113 0.000000
-0.02068656 -0.02198043 0.20000000 177 108 133 0.000000
-0.02021628 -0.02198043 0.20000000 160 92 109 0.000000
-0.01974600 -0.02198043 0.20000000 142 74 91 0.000000
-0.01927572 -0.02198043 0.20000000 141 79 87 0.000000
-0.01889947 -0.02209033 0.20100001 140 78 86 0.000000
-0.10149483 -0.02054219 0.19100001 11 37 37 0.000000
-0.10104571 -0.02054219 0.19100001 7 33 33 0.000000
-0.10059659 -0.02054219 0.19100001 11 28 31 0.000000
-0.09962314 -0.02043464 0.19000001 18 35 38 0.000000
-0.09917638 -0.02043464 0.19000001 54 43 60 0.000000
-0.09872962 -0.02043464 0.19000001 144 133 150 0.000000
-0.09828285 -0.02043464 0.19000001 255 221 239 0.000000
-0.09783608 -0.02043464 0.19000001 255 238 255 0.000000
-0.09738932 -0.02043464 0.19000001 255 217 231 0.000000
-0.09694255 -0.02043464 0.19000001 219 152 166 0.000000
-0.09649580 -0.02043464 0.19000001 236 131 156 0.000000
-0.09655455 -0.02054219 0.19100001 239 134 159 0.000000
-0.09610543 -0.02054219 0.19100001 254 132 158 0.000000
-0.09570566 -0.02064974 0.19200000 250 126 151 0.000000
-0.09588188 -0.02118750 0.19700001 246 117 148 0.000000
-0.09493429 -0.02107994 0.19600001 249 117 149 0.000000
-0.09447342 -0.02107994 0.19600001 247 115 147 0.000000
-0.09401255 -0.02107994 0.19600001 249 112 146 0.000000
-0.09355167 -0.02107994 0.19600001 246 109 143 0.000000
-0.09356575 -0.02118750 0.19700001 248 108 140 0.000000
-0.09310253 -0.02118750 0.19700001 253 113 145 0.000000
-0.09823052 -0.02269321 0.21100001 249 99 123 0.000000
-0.09107279 -0.02301586 0.21400002 255 150 167 0.000000
-0.09014637 -0.02290831 0.21300001 255 194 206 0.000000
-0.08922465 -0.02280076 0.21200001 255 184 196 0.000000
-0.08830763 -0.02269321 0.21100001 255 189 200 0.000000
-0.08739533 -0.02258565 0.21000001 255 189 200 0.000000
-0.08648771 -0.02247810 0.20900001 253 175 186 0.000000
-0.08599627 -0.02247810 0.20900001 246 160 174 0.000000
-0.08362845 -0.02237055 0.20800000 217 122 139 0.000000
-0.08273965 -0.02226300 0.20700002 214 119 136 0.000000
-0.08225291 -0.02226300 0.20700002 242 138 158 0.000000
-0.08255618 -0.02247810 0.20900001 250 146 166 0.000000
-0.08285005 -0.02269321 0.21100001 255 149 170 0.000000
-0.08274421 -0.02280076 0.21200001 255 151 172 0.000000
-0.02162711 -0.02151015 0.20000000 99 29 47 0.000000
-0.02115683 -0.02151015 0.20000000 175 104 130 0.000000
-0.02068656 -0.02151015 0.20000000 176 105 131 0.000000
-0.02021628 -0.02151015 0.20000000 171 102 117 0.000000
-0.01974600 -0.02151015 0.20000000 148 79 94 0.000000
-0.01927572 -0.02151015 0.20000000 141 77 88 0.000000
-0.01889947 -0.02161770 0.20100001 137 73 84 0.000000
-0.10301141 -0.02030347 0.19300000 38 61 55 0.000000
-0.10202621 -0.02019827 0.19200000 44 68 56 0.000000
-0.10104571 -0.02009307 0.19100001 35 59 47 0.000000
-0.10059659 -0.02009307 0.19100001 34 52 46 0.000000
-0.10014747 -0.02009307 0.19100001 35 53 47 0.000000
-0.09917638 -0.01998788 0.19000001 53 51 62 0.000000
-0.09872962 -0.01998788 0.19000001 112 110 121 0.000000
-0.09828285 -0.01998788 0.19000001 240 216 233 0.000000
-0.09783608 -0.01998788 0.19000001 255 243 255 0.000000
-0.09738932 -0.01998788 0.19000001 255 217 228 0.000000
-0.09694255 -0.01998788 0.19000001 215 151 162 0.000000
-0.09649580 -0.01998788 0.19000001 240 135 158 0.000000
-0.09655455 -0.02009307 0.19100001 242 137 160 0.000000
-0.09610543 -0.02009307 0.19100001 251 129 155 0.000000
-0.09620412 -0.02030347 0.19300000 250 126 151 0.000000
-0.09541865 -0.02072427 0.19700001 254 118 149 0.000000
-0.09543744 -0.02082947 0.19800001 249 113 144 0.000000
-0.09449220 -0.02072427 0.19700001 246 108 139 0.000000
-0.09402898 -0.02072427 0.19700001 245 107 138 0.000000
-0.09404071 -0.02082947 0.19800001 249 103 135 0.000000
-0.09310253 -0.02072427 0.19700001 245 99 131 0.000000
-0.09200391 -0.02261786 0.21500000 230 117 133 0.000000
-0.09064722 -0.02240746 0.21300001 255 172 188 0.000000
-0.08929992 -0.02219706 0.21100001 255 187 198 0.000000
-0.08796204 -0.02198666 0.20900001 255 181 192 0.000000
-0.08338634 -0.02156587 0.20500001 255 196 205 0.000000
-0.02151898 -0.02093467 0.19900002 114 45 60 0.000000
-0.02105105 -0.02093467 0.19900002 184 113 137 0.000000
-0.02068656 -0.02103987 0.20000000 175 104 128 0.000000
-0.02021628 -0.02103987 0.20000000 168 99 114 0.000000
-0.01974600 -0.02103987 0.20000000 147 78 93 0.000000
-0.01927572 -0.02103987 0.20000000 140 76 87 0.000000
-0.10202621 -0.01974680 0.19200000 49 70 59 0.000000
-0.10104571 -0.01964396 0.19100001 54 75 64 0.000000
-0.10059659 -0.01964396 0.19100001 54 72 66 0.000000
-0.10014747 -0.01964396 0.19100001 46 64 58 0.000000
-0.09917638 -0.01954111 0.19000001 58 60 70 0.000000
-0.09872962 -0.01954111 0.19000001 86 88 98 0.000000
-0.09828285 -0.01954111 0.19000001 226 207 222 0.000000
-0.09732116 -0.01943826 0.18900001 255 247 255 0.000000
-0.09738932 -0.01954111 0.19000001 255 213 223 0.000000
-0.09694255 -0.01954111 0.19000001 212 150 160 0.000000
-0.09649580 -0.01954111 0.19000001 244 139 162 0.000000
-0.09655455 -0.01964396 0.19100001 242 137 160 0.000000
-0.09660859 -0.01974680 0.19200000 254 132 158 0.000000
-0.09776532 -0.02036389 0.19800001 253 122 149 0.000000
-0.09687173 -0.02056959 0.20000000 247 109 138 0.000000
-0.09688345 -0.02067244 0.20100001 246 108 137 0.000000
-0.09593116 -0.02056959 0.20000000 247 107 137 0.000000
-0.09250946 -0.02211231 0.21500000 244 111 134 0.000000
-0.09114807 -0.02190661 0.21300001 233 124 139 0.000000
-0.08979607 -0.02170092 0.21100001 255 176 191 0.000000
-0.08621504 -0.02118668 0.20600002 255 184 192 0.000000
-0.08531448 -0.02108383 0.20500001 253 187 194 0.000000
-0.08352748 -0.02087813 0.20300001 244 189 199 0.000000
-0.02151898 -0.02046674 0.19900002 137 67 85 0.000000
-0.02105105 -0.02046674 0.19900002 192 119 140 0.000000
-0.02058312 -0.02046674 0.19900002 184 111 132 0.000000
-0.02011520 -0.02046674 0.19900002 149 80 95 0.000000
-0.01974600 -0.02056959 0.20000000 136 67 82 0.000000
-0.01927572 -0.02056959 0.20000000 130 70 80 0.000000
-0.10301141 -0.01939584 0.19300000 47 68 55 0.000000
-0.10104571 -0.01919484 0.19100001 54 75 62 0.000000
-0.10059659 -0.01919484 0.19100001 54 72 66 0.000000
-0.10014747 -0.01919484 0.19100001 54 72 66 0.000000
-0.09917638 -0.01909435 0.19000001 55 60 69 0.000000
-0.09872962 -0.01909435 0.19000001 72 77 86 0.000000
-0.09828285 -0.01909435 0.19000001 199 177 195 0.000000
-0.09783608 -0.01909435 0.19000001 255 245 255 0.000000
-0.09687674 -0.01899385 0.18900001 255 206 223 0.000000
-0.09643233 -0.01899385 0.18900001 224 156 173 0.000000
-0.09649580 -0.01909435 0.19000001 238 130 154 0.000000
-0.09655455 -0.01919484 0.19100001 241 133 157 0.000000
-0.09660859 -0.01929534 0.19200000 252 126 151 0.000000
-0.09720106 -0.01959683 0.19500001 249 119 143 0.000000
-0.09773478 -0.01979782 0.19700001 250 120 144 0.000000
-0.09832481 -0.02040080 0.20300001 249 107 135 0.000000
-0.09207918 -0.02150626 0.21400002 241 111 133 0.000000
-0.09072014 -0.02130527 0.21200001 232 129 144 0.000000
-0.08669943 -0.02070229 0.20600002 255 187 196 0.000000
-0.08537800 -0.02050130 0.20400001 255 187 196 0.000000
-0.08448215 -0.02040080 0.20300001 253 189 198 0.000000
-0.08359099 -0.02030030 0.20200001 251 187 196 0.000000
-0.02151898 -0.01999881 0.19900002 152 82 100 0.000000
-0.02105105 -0.01999881 0.19900002 191 121 141 0.000000
-0.02058312 -0.01999881 0.19900002 177 107 127 0.000000
-0.02011520 -0.01999881 0.19900002 144 80 93 0.000000
-0.01974600 -0.02009931 0.20000000 140 76 89 0.000000
-0.10202621 -0.01884387 0.19200000 46 67 54 0.000000
-0.10059659 -0.01874573 0.19100001 50 69 59 0.000000
-0.10014747 -0.01874573 0.19100001 55 74 64 0.000000
-0.09917638 -0.01864758 0.19000001 56 58 64 0.000000
-0.09872962 -0.01864758 0.19000001 69 71 77 0.000000
-0.09828285 -0.01864758 0.19000001 162 136 155 0.000000
-0.09732116 -0.01854943 0.18900001 255 235 254 0.000000
-0.09687674 -0.01854943 0.18900001 255 206 226 0.000000
-0.09643233 -0.01854943 0.18900001 222 152 172 0.000000
-0.09649580 -0.01864758 0.19000001 240 130 152 0.000000
-0.09655455 -0.01874573 0.19100001 240 130 152 0.000000
-0.09660859 -0.01884387 0.19200000 247 119 145 0.000000
-0.09720106 -0.01913831 0.19500001 251 118 143 0.000000
-0.09823090 -0.01943274 0.19800001 250 117 142 0.000000
-0.09977551 -0.02031605 0.20700002 251 101 130 0.000000
-0.09395554 -0.02119935 0.21600001 243 108 130 0.000000
-0.09301501 -0.02110121 0.21500000 240 113 134 0.000000
-0.09164891 -0.02090492 0.21300001 245 118 139 0.000000
-0.09029222 -0.02070863 0.21100001 248 149 167 0.000000
-0.08851934 -0.02041419 0.20800000 255 183 201 0.000000
-0.08718381 -0.02021790 0.20600002 255 189 198 0.000000
-0.08585769 -0.02002161 0.20400001 255 189 198 0.000000
-0.08495948 -0.01992347 0.20300001 255 189 198 0.000000
-0.08364981 -0.01972718 0.20100001 251 189 197 0.000000
-0.02198691 -0.01953089 0.19900002 118 54 67 0.000000
-0.02151898 -0.01953089 0.19900002 188 124 137 0.000000
-0.02105105 -0.01953089 0.19900002 186 121 137 0.000000
-0.02058312 -0.01953089 0.19900002 170 102 119 0.000000
-0.02011520 -0.01953089 0.19900002 140 76 89 0.000000
-0.01964727 -0.01953089 0.19900002 133 69 82 0.000000
-0.10247768 -0.01839240 0.19200000 46 69 61 0.000000
-0.10104571 -0.01829661 0.19100001 50 74 62 0.000000
-0.10059659 -0.01829661 0.19100001 45 69 55 0.000000
-0.09962314 -0.01820082 0.19000001 50 74 60 0.000000
-0.09917638 -0.01820082 0.19000001 63 66 69 0.000000
-0.09872962 -0.01820082 0.19000001 63 66 69 0.000000
-0.09776557 -0.01810502 0.18900001 132 108 127 0.000000
-0.09732116 -0.01810502 0.18900001 246 222 241 0.000000
-0.09687674 -0.01810502 0.18900001 255 208 232 0.000000
-0.09643233 -0.01810502 0.18900001 212 146 170 0.000000
-0.09649580 -0.01820082 0.19000001 238 130 154 0.000000
-0.09655455 -0.01829661 0.19100001 239 131 155 0.000000
-0.09711177 -0.01848820 0.19300000 246 118 144 0.000000
-0.09769953 -0.01877558 0.19600001 252 115 141 0.000000
-0.09872701 -0.01906296 0.19900002 247 110 136 0.000000
-0.09974037 -0.01935034 0.20200001 245 100 127 0.000000
-0.10024822 -0.01954193 0.20400001 245 100 127 0.000000
-0.09976853 -0.01954193 0.20400001 250 99 128 0.000000
-0.10026227 -0.01973352 0.20600002 248 97 126 0.000000
-0.09977788 -0.01973352 0.20600002 244 90 120 0.000000
-0.10025751 -0.01992510 0.20800000 248 94 124 0.000000
-0.09352056 -0.02059566 0.21500000 250 116 135 0.000000
-0.09258239 -0.02049987 0.21400002 248 123 143 0.000000
-0.09121864 -0.02030828 0.21200001 247 122 142 0.000000
-0.08943636 -0.02002090 0.20900001 255 165 183 0.000000
-0.08809378 -0.01982931 0.20700002 255 182 200 0.000000
-0.08676059 -0.01963772 0.20500001 255 188 197 0.000000
-0.08543681 -0.01944613 0.20300001 255 188 197 0.000000
-0.08454096 -0.01935034 0.20200001 255 185 194 0.000000
-0.02234200 -0.01896717 0.19800001 93 35 49 0.000000
-0.02198691 -0.01906296 0.19900002 170 106 119 0.000000
-0.02151898 -0.01906296 0.19900002 194 130 143 0.000000
-0.02105105 -0.01906296 0.19900002 181 119 131 0.000000
-0.02058312 -0.01906296 0.19900002 145 83 95 0.000000
-0.02011520 -0.01906296 0.19900002 114 58 73 0.000000
-0.10202621 -0.01794093 0.19200000 47 71 59 0.000000
-0.10104571 -0.01784749 0.19100001 44 68 56 0.000000
-0.10059659 -0.01784749 0.19100001 45 69 55 0.000000
-0.09962314 -0.01775405 0.19000001 46 70 56 0.000000
-0.09917638 -0.01775405 0.19000001 61 67 69 0.000000
-0.09872962 -0.01775405 0.19000001 57 63 65 0.000000
-0.09776557 -0.01766061 0.18900001 103 88 108 0.000000
-0.09732116 -0.01766061 0.18900001 218 203 223 0.000000
-0.09687674 -0.01766061 0.18900001 255 217 239 0.000000
-0.09643233 -0.01766061 0.18900001 224 165 187 0.000000
-0.09649580 -0.01775405 0.19000001 237 129 153 0.000000
-0.09655455 -0.01784749 0.19100001 238 130 154 0.000000
-0.09711177 -0.01803438 0.19300000 248 121 144 0.000000
-0.09819800 -0.01840815 0.19700001 248 111 135 0.000000
-0.09872701 -0.01859503 0.19900002 245 108 132 0.000000
-0.09974037 -0.01887536 0.20200001 247 100 128 0.000000
-0.10024822 -0.01906224 0.20400001 244 97 125 0.000000
-0.10025760 -0.01915569 0.20500001 247 96 125 0.000000
-0.10026227 -0.01924913 0.20600002 248 97 126 0.000000
-0.10026224 -0.01934257 0.20700002 245 91 121 0.000000
-0.10073952 -0.01952945 0.20900001 245 91 121 0.000000
-0.10163996 -0.01999667 0.21400002 248 94 126 0.000000
-0.10160936 -0.02009011 0.21500000 247 93 125 0.000000
-0.09446344 -0.02018355 0.21600001 247 109 127 0.000000
-0.09308559 -0.01999667 0.21400002 253 115 133 0.000000
-0.09214976 -0.01990323 0.21300001 248 121 140 0.000000
-0.09078836 -0.01971634 0.21100001 251 124 143 0.000000
-0.08943636 -0.01952945 0.20900001 255 165 181 0.000000
-0.08766820 -0.01924913 0.20600002 255 182 198 0.000000
-0.08633737 -0.01906224 0.20400001 252 181 188 0.000000
-0.08543681 -0.01896880 0.20300001 252 181 188 0.000000
-0.08412244 -0.01878192 0.20100001 252 181 188 0.000000
-0.02234200 -0.01850159 0.19800001 116 55 70 0.000000
-0.02187642 -0.01850159 0.19800001 190 128 140 0.000000
-0.02151898 -0.01859503 0.19900002 190 128 140 0.000000
-0.02105105 -0.01859503 0.19900002 168 105 120 0.000000
-0.02058312 -0.01859503 0.19900002 118 55 70 0.000000
-0.10247768 -0.01748947 0.19200000 44 64 57 0.000000
-0.10149483 -0.01739838 0.19100001 48 69 58 0.000000
-0.10104571 -0.01739838 0.19100001 47 68 57 0.000000
-0.10006991 -0.01730729 0.19000001 47 66 56 0.000000
-0.09962314 -0.01730729 0.19000001 49 68 58 0.000000
-0.09917638 -0.01730729 0.19000001 62 69 73 0.000000
-0.09820998 -0.01721620 0.18900001 57 64 68 0.000000
-0.09776557 -0.01721620 0.18900001 81 67 92 0.000000
-0.09732116 -0.01721620 0.18900001 192 178 203 0.000000
-0.09687674 -0.01721620 0.18900001 255 221 242 0.000000
-0.09643233 -0.01721620 0.18900001 231 174 195 0.000000
-0.09649580 -0.01730729 0.19000001 235 131 151 0.000000
-0.09706007 -0.01748947 0.19200000 236 132 152 0.000000
-0.09711177 -0.01758056 0.19300000 253 123 145 0.000000
-0.09765959 -0.01776274 0.19500001 246 116 138 0.000000
-0.09819800 -0.01794492 0.19700001 248 106 130 0.000000
-0.09922312 -0.01821820 0.20000000 246 104 128 0.000000
-0.09974037 -0.01840038 0.20200001 251 102 126 0.000000
-0.10024822 -0.01858256 0.20400001 251 102 126 0.000000
-0.10025760 -0.01867365 0.20500001 249 99 123 0.000000
-0.10026227 -0.01876474 0.20600002 249 99 123 0.000000
-0.10026224 -0.01885583 0.20700002 252 98 126 0.000000
-0.10073952 -0.01903801 0.20900001 252 98 126 0.000000
-0.10072773 -0.01912911 0.21000001 251 97 125 0.000000
-0.10113676 -0.01949347 0.21400002 251 97 125 0.000000
-0.09497134 -0.01967565 0.21600001 248 107 128 0.000000
-0.09402610 -0.01958456 0.21500000 246 105 124 0.000000
-0.09265061 -0.01940238 0.21300001 248 107 126 0.000000
-0.09171713 -0.01931129 0.21200001 248 122 138 0.000000
-0.09035808 -0.01912911 0.21000001 254 128 144 0.000000
-0.08900844 -0.01894692 0.20800000 255 162 173 0.000000
-0.08766820 -0.01876474 0.20600002 255 179 190 0.000000
-0.08633737 -0.01858256 0.20400001 255 179 190 0.000000
-0.08501595 -0.01840038 0.20200001 254 180 185 0.000000
-0.08412244 -0.01830929 0.20100001 255 185 190 0.000000
-0.02280757 -0.01803602 0.19800001 139 77 85 0.000000
-0.02234200 -0.01803602 0.19800001 179 117 125 0.000000
-0.02187642 -0.01803602 0.19800001 196 132 143 0.000000
-0.02141084 -0.01803602 0.19800001 181 117 128 0.000000
-0.02094527 -0.01803602 0.19800001 125 64 81 0.000000
-0.10194395 -0.01694926 0.19100001 51 72 61 0.000000
-0.10149483 -0.01694926 0.19100001 50 69 59 0.000000
-0.10104571 -0.01694926 0.19100001 47 66 56 0.000000
-0.10006991 -0.01686052 0.19000001 45 64 54 0.000000
-0.09962314 -0.01686052 0.19000001 47 66 56 0.000000
-0.09917638 -0.01686052 0.19000001 59 69 72 0.000000
-0.09820998 -0.01677178 0.18900001 50 60 63 0.000000
-0.09776557 -0.01677178 0.18900001 62 48 71 0.000000
-0.09732116 -0.01677178 0.18900001 166 152 175 0.000000
-0.09687674 -0.01677178 0.18900001 255 223 245 0.000000
-0.09643233 -0.01677178 0.18900001 240 181 203 0.000000
-0.09649580 -0.01686052 0.19000001 233 133 154 0.000000
-0.09706007 -0.01703800 0.19200000 232 132 153 0.000000
-0.09761494 -0.01721548 0.19400001 247 120 143 0.000000
-0.09765959 -0.01730422 0.19500001 245 118 141 0.000000
-0.09869647 -0.01757044 0.19800001 249 108 127 0.000000
-0.09922312 -0.01774792 0.20000000 248 107 126 0.000000
-0.10023414 -0.01801414 0.20300001 251 103 120 0.000000
-0.10024822 -0.01810287 0.20400001 252 104 121 0.000000
-0.10025760 -0.01819162 0.20500001 247 98 117 0.000000
-0.10026227 -0.01828036 0.20600002 247 98 117 0.000000
-0.10026224 -0.01836910 0.20700002 249 96 119 0.000000
-0.10025751 -0.01845783 0.20800000 248 95 118 0.000000
-0.10072773 -0.01863531 0.21000001 250 94 120 0.000000
-0.10071124 -0.01872405 0.21100001 251 95 121 0.000000
-0.10066416 -0.01890153 0.21300001 254 97 126 0.000000
-0.10110381 -0.01907901 0.21500000 247 95 131 0.000000
-0.10106615 -0.01916775 0.21600001 255 118 154 0.000000
-0.09547924 -0.01916775 0.21600001 250 104 127 0.000000
-0.09453166 -0.01907901 0.21500000 249 103 126 0.000000
-0.09358878 -0.01899027 0.21400002 248 104 124 0.000000
-0.09265061 -0.01890153 0.21300001 243 99 119 0.000000
-0.09128450 -0.01872405 0.21100001 238 114 129 0.000000
-0.08992780 -0.01854657 0.20900001 253 129 144 0.000000
-0.08858052 -0.01836910 0.20700002 255 163 170 0.000000
-0.08724263 -0.01819162 0.20500001 255 178 185 0.000000
-0.08633737 -0.01810287 0.20400001 255 178 185 0.000000
-0.08501595 -0.01792540 0.20200001 250 168 172 0.000000
-0.08412244 -0.01783666 0.20100001 252 170 174 0.000000
-0.03475662 -0.01987767 0.22400001 105 48 57 0.000000
-0.02315561 -0.01748170 0.19700001 156 88 96 0.000000
-0.02269238 -0.01748170 0.19700001 193 124 135 0.000000
-0.02234200 -0.01757044 0.19800001 200 131 142 0.000000
-0.02187642 -0.01757044 0.19800001 195 131 142 0.000000
-0.02141084 -0.01757044 0.19800001 146 82 93 0.000000
-0.02094527 -0.01757044 0.19800001 106 50 63 0.000000
-0.10149483 -0.01650015 0.19100001 34 50 41 0.000000
-0.10104571 -0.01650015 0.19100001 34 50 41 0.000000
-0.10006991 -0.01641376 0.19000001 34 50 41 0.000000
-0.09962314 -0.01641376 0.19000001 31 47 38 0.000000
-0.09865440 -0.01632737 0.18900001 36 49 48 0.000000
-0.09820998 -0.01632737 0.18900001 30 43 42 0.000000
-0.09776557 -0.01632737 0.18900001 51 38 58 0.000000
-0.09732116 -0.01632737 0.18900001 140 127 147 0.000000
-0.09687674 -0.01632737 0.18900001 255 209 234 0.000000
-0.09643233 -0.01632737 0.18900001 255 195 220 0.000000
-0.09649580 -0.01641376 0.19000001 246 147 170 0.000000
-0.09706007 -0.01658653 0.19200000 229 130 153 0.000000
-0.09761494 -0.01675931 0.19400001 246 118 144 0.000000
-0.09816041 -0.01693209 0.19600001 241 113 139 0.000000
-0.09869647 -0.01710486 0.19800001 246 105 126 0.000000
-0.09922312 -0.01727764 0.20000000 246 105 126 0.000000
-0.10023414 -0.01753680 0.20300001 253 105 122 0.000000
-0.10024822 -0.01762319 0.20400001 255 107 124 0.000000
-0.10025760 -0.01770958 0.20500001 249 100 117 0.000000
-0.10026227 -0.01779597 0.20600002 250 101 118 0.000000
-0.10026224 -0.01788236 0.20700002 250 97 120 0.000000
-0.10025751 -0.01796874 0.20800000 248 95 118 0.000000
-0.10024807 -0.01805513 0.20900001 247 94 119 0.000000
-0.10023393 -0.01814152 0.21000001 252 99 124 0.000000
-0.10021509 -0.01822791 0.21100001 250 96 124 0.000000
-0.10019156 -0.01831430 0.21200001 243 89 117 0.000000
-0.10016331 -0.01840068 0.21300001 251 105 137 0.000000
-0.10013036 -0.01848707 0.21400002 255 132 164 0.000000
-0.10055826 -0.01865985 0.21600001 255 143 168 0.000000
-0.10005035 -0.01865985 0.21600001 255 136 161 0.000000
-0.09954245 -0.01865985 0.21600001 255 139 155 0.000000
-0.09694178 -0.01874624 0.21700001 246 102 124 0.000000
-0.09598714 -0.01865985 0.21600001 239 95 117 0.000000
-0.09503721 -0.01857346 0.21500000 246 97 119 0.000000
-0.09409198 -0.01848707 0.21400002 248 99 121 0.000000
-0.09315145 -0.01840068 0.21300001 241 100 119 0.000000
-0.09221563 -0.01831430 0.21200001 254 113 132 0.000000
-0.09085187 -0.01814152 0.21000001 249 123 139 0.000000
-0.08949752 -0.01796874 0.20800000 255 130 146 0.000000
-0.08858052 -0.01788236 0.20700002 255 166 176 0.000000
-0.08724263 -0.01770958 0.20500001 255 169 179 0.000000
-0.08591414 -0.01753680 0.20300001 255 169 179 0.000000
-0.08501595 -0.01745041 0.20200001 253 163 167 0.000000
-0.03501071 -0.01891901 0.21900001 120 65 71 0.000000
-0.03481078 -0.01909179 0.22100002 114 59 65 0.000000
-0.03429113 -0.01909179 0.22100002 108 51 60 0.000000
-0.03407709 -0.01926457 0.22300000 107 50 59 0.000000
-0.03355273 -0.01926457 0.22300000 109 49 57 0.000000
-0.03317648 -0.01935095 0.22400001 105 45 53 0.000000
-0.02606661 -0.01710486 0.19800001 130 61 72 0.000000
-0.02547173 -0.01701847 0.19700001 140 69 76 0.000000
-0.02500851 -0.01701847 0.19700001 154 83 90 0.000000
-0.02454528 -0.01701847 0.19700001 142 67 75 0.000000
-0.02408206 -0.01701847 0.19700001 164 89 97 0.000000
-0.02361883 -0.01701847 0.19700001 166 87 101 0.000000
-0.02315561 -0.01701847 0.19700001 186 107 121 0.000000
-0.02269238 -0.01701847 0.19700001 202 130 142 0.000000
-0.02234200 -0.01710486 0.19800001 207 135 147 0.000000
-0.02187642 -0.01710486 0.19800001 176 114 124 0.000000
-0.02141084 -0.01710486 0.19800001 122 60 70 0.000000
-0.02094527 -0.01710486 0.19800001 103 53 61 0.000000
-0.10149483 -0.01605103 0.19100001 27 43 34 0.000000
-0.10051668 -0.01596699 0.19000001 29 45 36 0.000000
-0.10006991 -0.01596699 0.19000001 29 45 36 0.000000
-0.09909881 -0.01588295 0.18900001 28 44 35 0.000000
-0.09865440 -0.01588295 0.18900001 28 46 44 0.000000
-0.09820998 -0.01588295 0.18900001 26 44 42 0.000000
-0.09776557 -0.01588295 0.18900001 44 33 50 0.000000
-0.09680623 -0.01579892 0.18800001 99 88 105 0.000000
-0.09636416 -0.01579892 0.18800001 252 193 217 0.000000
-0.09643233 -0.01588295 0.18900001 255 196 220 0.000000
-0.09649580 -0.01596699 0.19000001 254 158 180 0.000000
-0.09655455 -0.01605103 0.19100001 243 147 169 0.000000
-0.09711177 -0.01621910 0.19300000 246 122 149 0.000000
-0.09765959 -0.01638717 0.19500001 236 112 139 0.000000
-0.09819800 -0.01655525 0.19700001 247 110 134 0.000000
-0.09922312 -0.01680736 0.20000000 246 109 133 0.000000
-0.09974037 -0.01697543 0.20200001 245 102 119 0.000000
-0.09975680 -0.01705947 0.20300001 248 105 122 0.000000
-0.09976853 -0.01714351 0.20400001 249 101 118 0.000000
-0.09977556 -0.01722754 0.20500001 249 101 118 0.000000
-0.09929352 -0.01722754 0.20500001 250 100 122 0.000000
-0.09929350 -0.01731158 0.20600002 248 98 120 0.000000
-0.09928877 -0.01739562 0.20700002 248 98 120 0.000000
-0.09927932 -0.01747965 0.20800000 248 98 120 0.000000
-0.09974014 -0.01764773 0.21000001 248 97 124 0.000000
-0.09924635 -0.01764773 0.21000001 255 105 132 0.000000
-0.09922281 -0.01773176 0.21100001 255 131 159 0.000000
-0.09966246 -0.01789984 0.21300001 255 145 173 0.000000
-0.09962717 -0.01798387 0.21400002 255 148 171 0.000000
-0.09958716 -0.01806791 0.21500000 255 149 172 0.000000
-0.09908161 -0.01806791 0.21500000 255 152 165 0.000000
-0.09903456 -0.01815195 0.21600001 253 144 157 0.000000
-0.09852665 -0.01815195 0.21600001 255 136 141 0.000000
-0.09801875 -0.01815195 0.21600001 254 135 140 0.000000
-0.09751085 -0.01815195 0.21600001 250 119 128 0.000000
-0.09700295 -0.01815195 0.21600001 240 109 118 0.000000
-0.09649505 -0.01815195 0.21600001 248 108 124 0.000000
-0.09554276 -0.01806791 0.21500000 249 109 125 0.000000
-0.09459518 -0.01798387 0.21400002 250 107 124 0.000000
-0.09365230 -0.01789984 0.21300001 250 107 124 0.000000
-0.09271412 -0.01781580 0.21200001 251 110 129 0.000000
-0.09178065 -0.01773176 0.21100001 255 116 135 0.000000
-0.09041924 -0.01756369 0.20900001 253 124 141 0.000000
-0.08949752 -0.01747965 0.20800000 255 132 149 0.000000
-0.08815259 -0.01731158 0.20600002 255 151 161 0.000000
-0.08724263 -0.01722754 0.20500001 255 160 170 0.000000
-0.08591414 -0.01705947 0.20300001 255 160 170 0.000000
-0.08501595 -0.01697543 0.20200001 255 155 161 0.000000
-0.03503901 -0.01815195 0.21600001 125 69 82 0.000000
-0.03453111 -0.01815195 0.21600001 125 65 73 0.000000
-0.03449575 -0.01840406 0.21900001 121 61 69 0.000000
-0.03398080 -0.01840406 0.21900001 117 55 63 0.000000
-0.03361865 -0.01848809 0.22000001 114 52 60 0.000000
-0.02821102 -0.01680736 0.20000000 138 71 74 0.000000
-0.02534243 -0.01647121 0.19600001 165 87 98 0.000000
-0.02500851 -0.01655525 0.19700001 172 94 105 0.000000
-0.02454528 -0.01655525 0.19700001 183 103 115 0.000000
-0.02408206 -0.01655525 0.19700001 193 113 125 0.000000
-0.02361883 -0.01655525 0.19700001 200 116 132 0.000000
-0.02315561 -0.01655525 0.19700001 203 119 135 0.000000
-0.02269238 -0.01655525 0.19700001 208 136 148 0.000000
-0.02222916 -0.01655525 0.19700001 211 139 151 0.000000
-0.02187642 -0.01663928 0.19800001 136 74 84 0.000000
-0.02141084 -0.01663928 0.19800001 111 49 59 0.000000
-0.10149483 -0.01560191 0.19100001 31 46 41 0.000000
-0.10051668 -0.01552023 0.19000001 31 46 41 0.000000
-0.10006991 -0.01552023 0.19000001 29 47 41 0.000000
-0.09909881 -0.01543854 0.18900001 26 44 38 0.000000
-0.09865440 -0.01543854 0.18900001 28 46 42 0.000000
-0.09820998 -0.01543854 0.18900001 25 43 39 0.000000
-0.09724829 -0.01535685 0.18800001 38 37 48 0.000000
-0.09680623 -0.01535685 0.18800001 66 65 76 0.000000
-0.09636416 -0.01535685 0.18800001 218 167 191 0.000000
-0.09643233 -0.01543854 0.18900001 250 199 223 0.000000
-0.09649580 -0.01552023 0.19000001 255 162 185 0.000000
-0.09655455 -0.01560191 0.19100001 234 141 164 0.000000
-0.09711177 -0.01576528 0.19300000 255 131 158 0.000000
-0.09765959 -0.01592865 0.19500001 243 119 146 0.000000
-0.09769953 -0.01601034 0.19600001 247 112 138 0.000000
-0.09823090 -0.01617371 0.19800001 247 112 138 0.000000
-0.09875284 -0.01633708 0.20000000 252 108 130 0.000000
-0.09926539 -0.01650045 0.20200001 250 106 128 0.000000
-0.09879041 -0.01650045 0.20200001 249 103 124 0.000000
-0.09880213 -0.01658214 0.20300001 250 104 125 0.000000
-0.09832481 -0.01658214 0.20300001 249 100 122 0.000000
-0.09832948 -0.01666382 0.20400001 251 102 124 0.000000
-0.09832945 -0.01674551 0.20500001 251 102 124 0.000000
-0.09880202 -0.01690888 0.20700002 251 102 124 0.000000
-0.09831528 -0.01690888 0.20700002 248 98 125 0.000000
-0.09877375 -0.01707225 0.20900001 249 99 126 0.000000
-0.09828231 -0.01707225 0.20900001 254 114 144 0.000000
-0.09872666 -0.01723562 0.21100001 255 131 161 0.000000
-0.09869607 -0.01731730 0.21200001 255 150 174 0.000000
-0.09866077 -0.01739899 0.21300001 255 149 173 0.000000
-0.09862076 -0.01748068 0.21400002 255 154 166 0.000000
-0.09857606 -0.01756236 0.21500000 255 160 172 0.000000
-0.09807051 -0.01756236 0.21500000 248 132 138 0.000000
-0.09801875 -0.01764405 0.21600001 239 123 129 0.000000
-0.09705941 -0.01756236 0.21500000 252 119 129 0.000000
-0.09655386 -0.01756236 0.21500000 245 112 122 0.000000
-0.09560157 -0.01748068 0.21400002 247 107 119 0.000000
-0.09465399 -0.01739899 0.21300001 247 107 119 0.000000
-0.09415315 -0.01739899 0.21300001 250 107 122 0.000000
-0.09321262 -0.01731730 0.21200001 250 107 122 0.000000
-0.09227679 -0.01723562 0.21100001 255 119 135 0.000000
-0.09091069 -0.01707225 0.20900001 255 116 132 0.000000
-0.08998661 -0.01699056 0.20800000 252 120 136 0.000000
-0.08906725 -0.01690888 0.20700002 255 125 141 0.000000
-0.08772466 -0.01674551 0.20500001 253 130 140 0.000000
-0.08681706 -0.01666382 0.20400001 255 136 146 0.000000
-0.08591414 -0.01658214 0.20300001 255 136 146 0.000000
-0.08501595 -0.01650045 0.20200001 243 130 137 0.000000
-0.03522021 -0.01723562 0.21100001 125 75 83 0.000000
-0.03488863 -0.01731730 0.21200001 122 64 80 0.000000
-0.03422792 -0.01723562 0.21100001 121 63 79 0.000000
-0.03357191 -0.01715393 0.21000001 124 61 76 0.000000
-0.03276309 -0.01699056 0.20800000 122 59 74 0.000000
-0.03132647 -0.01674551 0.20500001 115 48 62 0.000000
-0.03069398 -0.01666382 0.20400001 118 46 60 0.000000
-0.02991807 -0.01650045 0.20200001 145 73 87 0.000000
-0.02929733 -0.01641876 0.20100001 167 93 101 0.000000
-0.02868130 -0.01633708 0.20000000 176 102 110 0.000000
-0.02806996 -0.01625540 0.19900002 177 103 108 0.000000
-0.02746333 -0.01617371 0.19800001 177 103 108 0.000000
-0.02580331 -0.01601034 0.19600001 178 99 113 0.000000
-0.02534243 -0.01601034 0.19600001 178 94 112 0.000000
-0.02500851 -0.01609202 0.19700001 186 102 120 0.000000
-0.02454528 -0.01609202 0.19700001 194 107 124 0.000000
-0.02408206 -0.01609202 0.19700001 199 112 129 0.000000
-0.02361883 -0.01609202 0.19700001 210 126 142 0.000000
-0.02315561 -0.01609202 0.19700001 226 142 158 0.000000
-0.02269238 -0.01609202 0.19700001 212 137 152 0.000000
-0.02222916 -0.01609202 0.19700001 172 97 112 0.000000
-0.02176593 -0.01609202 0.19700001 116 54 64 0.000000
-0.02130271 -0.01609202 0.19700001 122 60 70 0.000000
