-0.05586856 -0.04629507 0.26700002 247 170 198 0.000000
-0.05544762 -0.04646846 0.26800001 253 163 193 0.000000
-0.05481745 -0.04646846 0.26800001 248 158 188 0.000000
-0.05418728 -0.04646846 0.26800001 250 146 175 0.000000
-0.05355711 -0.04646846 0.26800001 249 145 174 0.000000
-0.05312442 -0.04664185 0.26900002 251 135 159 0.000000
-0.05249190 -0.04664185 0.26900002 246 130 154 0.000000
-0.05166658 -0.04646846 0.26800001 249 126 146 0.000000
-0.05103641 -0.04646846 0.26800001 245 122 142 0.000000
-0.05021815 -0.04629507 0.26700002 246 121 139 0.000000
-0.04959033 -0.04629507 0.26700002 233 108 126 0.000000
-0.04877913 -0.04612168 0.26600000 222 109 123 0.000000
-0.04815366 -0.04612168 0.26600000 220 107 121 0.000000
-0.04734951 -0.04594829 0.26500002 208 107 121 0.000000
-0.04672639 -0.04594829 0.26500002 205 104 118 0.000000
-0.04610327 -0.04594829 0.26500002 195 103 117 0.000000
-0.04548015 -0.04594829 0.26500002 195 103 117 0.000000
-0.04485703 -0.04594829 0.26500002 190 103 115 0.000000
-0.04423391 -0.04594829 0.26500002 186 99 111 0.000000
-0.04361079 -0.04594829 0.26500002 182 99 110 0.000000
-0.04298767 -0.04594829 0.26500002 180 97 108 0.000000
-0.04236455 -0.04594829 0.26500002 179 99 109 0.000000
-0.04174143 -0.04594829 0.26500002 181 101 111 0.000000
-0.04111832 -0.04594829 0.26500002 171 100 109 0.000000
-0.04049519 -0.04594829 0.26500002 164 93 102 0.000000
-0.03987208 -0.04594829 0.26500002 156 93 99 0.000000
-0.03939707 -0.04612168 0.26600000 151 88 94 0.000000
-0.03877159 -0.04612168 0.26600000 141 81 89 0.000000
-0.03828953 -0.04629507 0.26700002 142 82 90 0.000000
-0.03780276 -0.04646846 0.26800001 142 82 90 0.000000
-0.03745000 -0.04681524 0.27000001 142 82 90 0.000000
-0.03708783 -0.04716202 0.27200001 138 78 86 0.000000
-0.03643371 -0.04976286 0.28700000 132 73 78 0.000000
-0.03600805 -0.05010964 0.28900000 132 73 78 0.000000
-0.03476884 -0.05028303 0.29000002 129 73 77 0.000000
-0.03420447 -0.05045642 0.29100001 132 76 80 0.000000
-0.03363541 -0.05062982 0.29200003 135 79 81 0.000000
-0.03306164 -0.05080320 0.29300001 129 73 75 0.000000
-0.03248317 -0.05097659 0.29400000 126 72 73 0.000000
-0.03189999 -0.05114998 0.29500002 128 74 75 0.000000
-0.03131212 -0.05132337 0.29600000 127 73 76 0.000000
-0.03071954 -0.05149676 0.29700002 126 72 75 0.000000
-0.03022334 -0.05184354 0.29900002 131 77 78 0.000000
-0.11046022 -0.04960113 0.29000002 7 41 51 0.000000
-0.11015686 -0.04977217 0.29100001 7 41 51 0.000000
-0.10947260 -0.04977217 0.29100001 7 43 53 0.000000
-0.10878835 -0.04977217 0.29100001 7 43 53 0.000000
-0.10810409 -0.04977217 0.29100001 5 41 51 0.000000
-0.10741983 -0.04977217 0.29100001 3 39 49 0.000000
-0.10710237 -0.04994321 0.29200003 6 42 52 0.000000
-0.10678020 -0.05011424 0.29300001 5 41 51 0.000000
-0.10645332 -0.05028528 0.29400000 8 42 52 0.000000
-0.10576201 -0.05028528 0.29400000 9 43 53 0.000000
-0.10542809 -0.05045632 0.29500002 19 39 54 0.000000
-0.10473443 -0.05045632 0.29500002 18 38 53 0.000000
-0.10368808 -0.05028528 0.29400000 92 60 84 0.000000
-0.10264645 -0.05011424 0.29300001 208 176 200 0.000000
-0.10195749 -0.05011424 0.29300001 255 181 203 0.000000
-0.10092290 -0.04994321 0.29200003 252 176 198 0.000000
-0.10023630 -0.04994321 0.29200003 254 178 195 0.000000
-0.09920876 -0.04977217 0.29100001 255 179 196 0.000000
-0.09818593 -0.04960113 0.29000002 251 178 197 0.000000
-0.09750404 -0.04960113 0.29000002 252 179 198 0.000000
-0.09648826 -0.04943009 0.28900000 251 191 203 0.000000
-0.09580870 -0.04943009 0.28900000 255 195 207 0.000000
-0.09480000 -0.04925906 0.28800002 255 204 207 0.000000
-0.09379597 -0.04908801 0.28700000 252 198 201 0.000000
-0.09279665 -0.04891698 0.28600001 249 193 197 0.000000
-0.09147993 -0.04857490 0.28400001 249 193 197 0.000000
-0.09049238 -0.04840386 0.28300002 251 192 197 0.000000
-0.08950952 -0.04823282 0.28200001 250 191 196 0.000000
-0.08853137 -0.04806179 0.28100002 253 192 197 0.000000
-0.08755792 -0.04789075 0.28000000 251 190 195 0.000000
-0.08658918 -0.04771971 0.27900001 252 191 196 0.000000
-0.08593313 -0.04771971 0.27900001 255 197 202 0.000000
-0.08527710 -0.04771971 0.27900001 255 195 205 0.000000
-0.08462106 -0.04771971 0.27900001 243 183 193 0.000000
-0.08426596 -0.04789075 0.28000000 244 180 191 0.000000
-0.08390618 -0.04806179 0.28100002 244 180 191 0.000000
-0.08354168 -0.04823282 0.28200001 246 176 194 0.000000
-0.08317249 -0.04840386 0.28300002 244 174 192 0.000000
-0.08250704 -0.04840386 0.28300002 247 197 214 0.000000
-0.08213079 -0.04857490 0.28400001 255 230 247 0.000000
-0.08174984 -0.04874594 0.28500003 255 250 254 0.000000
-0.08136418 -0.04891698 0.28600001 255 250 254 0.000000
-0.08097382 -0.04908801 0.28700000 255 254 254 0.000000
-0.08057876 -0.04925906 0.28800002 255 254 254 0.000000
-0.07990155 -0.04925906 0.28800002 254 255 251 0.000000
-0.07922436 -0.04925906 0.28800002 254 255 251 0.000000
-0.07854715 -0.04925906 0.28800002 255 252 249 0.000000
-0.07841071 -0.04960113 0.29000002 255 249 246 0.000000
-0.07571851 -0.04874594 0.28500003 224 187 194 0.000000
-0.07281236 -0.04771971 0.27900001 237 164 183 0.000000
-0.07163907 -0.04737763 0.27700001 241 154 175 0.000000
-0.07021891 -0.04686452 0.27400002 244 157 178 0.000000
-0.06932070 -0.04669348 0.27300000 241 154 173 0.000000
-0.06728919 -0.04618036 0.27000001 245 170 187 0.000000
-0.06640745 -0.04600933 0.26900002 255 194 211 0.000000
-0.06553040 -0.04583829 0.26800001 255 209 223 0.000000
-0.06465807 -0.04566725 0.26700002 255 219 233 0.000000
-0.06403024 -0.04566725 0.26700002 255 218 233 0.000000
-0.06316496 -0.04549621 0.26600000 255 217 232 0.000000
-0.06253949 -0.04549621 0.26600000 253 220 235 0.000000
-0.06191401 -0.04549621 0.26600000 255 226 241 0.000000
-0.06128854 -0.04549621 0.26600000 255 230 246 0.000000
-0.06066307 -0.04549621 0.26600000 255 235 251 0.000000
-0.06003760 -0.04549621 0.26600000 255 233 255 0.000000
-0.05941213 -0.04549621 0.26600000 251 217 239 0.000000
-0.05878666 -0.04549621 0.26600000 244 198 220 0.000000
-0.05816119 -0.04549621 0.26600000 250 204 226 0.000000
-0.05753572 -0.04549621 0.26600000 255 195 220 0.000000
-0.05712420 -0.04566725 0.26700002 254 192 217 0.000000
-0.05649638 -0.04566725 0.26700002 252 175 201 0.000000
-0.05607780 -0.04583829 0.26800001 246 169 195 0.000000
-0.05544762 -0.04583829 0.26800001 252 160 187 0.000000
-0.05481745 -0.04583829 0.26800001 247 155 182 0.000000
-0.05418728 -0.04583829 0.26800001 250 145 172 0.000000
-0.05375695 -0.04600933 0.26900002 251 146 173 0.000000
-0.05312442 -0.04600933 0.26900002 252 136 160 0.000000
-0.05229675 -0.04583829 0.26800001 250 134 158 0.000000
-0.05166658 -0.04583829 0.26800001 251 128 150 0.000000
-0.05084598 -0.04566725 0.26700002 246 123 145 0.000000
-0.05021815 -0.04566725 0.26700002 250 126 141 0.000000
-0.04959033 -0.04566725 0.26700002 233 109 124 0.000000
-0.04877913 -0.04549621 0.26600000 223 111 122 0.000000
-0.04815366 -0.04549621 0.26600000 220 108 119 0.000000
-0.04752819 -0.04549621 0.26600000 207 103 121 0.000000
-0.04672639 -0.04532517 0.26500002 204 100 118 0.000000
-0.04610327 -0.04532517 0.26500002 199 101 117 0.000000
-0.04548015 -0.04532517 0.26500002 197 99 115 0.000000
-0.04485703 -0.04532517 0.26500002 189 102 114 0.000000
-0.04423391 -0.04532517 0.26500002 186 99 111 0.000000
-0.04361079 -0.04532517 0.26500002 183 97 109 0.000000
-0.04314989 -0.04549621 0.26600000 181 95 107 0.000000
-0.04252442 -0.04549621 0.26600000 178 95 106 0.000000
-0.04189895 -0.04549621 0.26600000 180 97 108 0.000000
-0.04127348 -0.04549621 0.26600000 179 101 110 0.000000
-0.04064801 -0.04549621 0.26600000 175 97 106 0.000000
-0.04002254 -0.04549621 0.26600000 164 96 104 0.000000
-0.03939707 -0.04549621 0.26600000 151 83 91 0.000000
-0.03877159 -0.04549621 0.26600000 148 84 93 0.000000
-0.03828953 -0.04566725 0.26700002 147 83 92 0.000000
-0.03780276 -0.04583829 0.26800001 141 81 89 0.000000
-0.03731130 -0.04600933 0.26900002 141 81 89 0.000000
-0.03695148 -0.04635140 0.27100003 138 78 86 0.000000
-0.03588346 -0.04925906 0.28800002 130 71 76 0.000000
-0.03464894 -0.04943009 0.28900000 135 79 83 0.000000
-0.03408694 -0.04960113 0.29000002 133 77 81 0.000000
-0.03352022 -0.04977217 0.29100001 131 77 80 0.000000
-0.03294880 -0.04994321 0.29200003 127 73 76 0.000000
-0.03237268 -0.05011424 0.29300001 123 72 74 0.000000
-0.03179185 -0.05028528 0.29400000 123 72 74 0.000000
-0.03131212 -0.05062736 0.29600000 126 75 77 0.000000
-0.03071954 -0.05079840 0.29700002 126 75 77 0.000000
-0.03022334 -0.05114048 0.29900002 127 76 78 0.000000
-0.11015686 -0.04908791 0.29100001 7 39 48 0.000000
-0.10947260 -0.04908791 0.29100001 7 41 49 0.000000
-0.10878835 -0.04908791 0.29100001 3 37 45 0.000000
-0.10810409 -0.04908791 0.29100001 4 40 48 0.000000
-0.10741983 -0.04908791 0.29100001 3 39 47 0.000000
-0.10673558 -0.04908791 0.29100001 4 40 48 0.000000
-0.10641576 -0.04925660 0.29200003 4 40 48 0.000000
-0.10609124 -0.04942529 0.29300001 6 40 46 0.000000
-0.10576201 -0.04959397 0.29400000 8 42 48 0.000000
-0.10507070 -0.04959397 0.29400000 18 40 52 0.000000
-0.10437939 -0.04959397 0.29400000 17 39 51 0.000000
-0.10333540 -0.04942529 0.29300001 88 58 81 0.000000
-0.10264645 -0.04942529 0.29300001 208 178 201 0.000000
-0.10160951 -0.04925660 0.29200003 255 179 201 0.000000
-0.10092290 -0.04925660 0.29200003 250 174 196 0.000000
-0.09989303 -0.04908791 0.29100001 253 177 194 0.000000
-0.09920876 -0.04908791 0.29100001 255 183 200 0.000000
-0.09818593 -0.04891923 0.29000002 255 179 199 0.000000
-0.09750404 -0.04891923 0.29000002 251 175 195 0.000000
-0.09648826 -0.04875053 0.28900000 251 189 201 0.000000
-0.09580870 -0.04875053 0.28900000 255 196 208 0.000000
-0.09480000 -0.04858185 0.28800002 255 204 210 0.000000
-0.09379597 -0.04841316 0.28700000 253 198 204 0.000000
-0.09279665 -0.04824448 0.28600001 250 194 198 0.000000
-0.09147993 -0.04790710 0.28400001 247 191 195 0.000000
-0.09049238 -0.04773842 0.28300002 244 185 190 0.000000
-0.08950952 -0.04756973 0.28200001 250 191 196 0.000000
-0.08853137 -0.04740104 0.28100002 254 195 198 0.000000
-0.08755792 -0.04723235 0.28000000 250 191 194 0.000000
-0.08658918 -0.04706367 0.27900001 252 193 196 0.000000
-0.08593313 -0.04706367 0.27900001 251 192 195 0.000000
-0.08527710 -0.04706367 0.27900001 252 196 198 0.000000
-0.08462106 -0.04706367 0.27900001 253 192 197 0.000000
-0.08426596 -0.04723235 0.28000000 244 182 190 0.000000
-0.08390618 -0.04740104 0.28100002 246 184 192 0.000000
-0.08354168 -0.04756973 0.28200001 247 180 192 0.000000
-0.08317249 -0.04773842 0.28300002 242 175 187 0.000000
-0.08250704 -0.04773842 0.28300002 233 187 199 0.000000
-0.08184160 -0.04773842 0.28300002 255 228 240 0.000000
-0.08146299 -0.04790710 0.28400001 254 243 247 0.000000
-0.08107969 -0.04807579 0.28500003 255 248 252 0.000000
-0.08069168 -0.04824448 0.28600001 254 254 254 0.000000
-0.08001918 -0.04824448 0.28600001 254 254 254 0.000000
-0.07934668 -0.04824448 0.28600001 254 254 254 0.000000
-0.07867419 -0.04824448 0.28600001 254 254 254 0.000000
-0.07800169 -0.04824448 0.28600001 254 255 251 0.000000
-0.07732918 -0.04824448 0.28600001 254 255 251 0.000000
-0.07638866 -0.04807579 0.28500003 255 250 251 0.000000
-0.07373172 -0.04723235 0.28000000 249 198 211 0.000000
-0.07255138 -0.04689498 0.27800003 236 185 198 0.000000
-0.07138045 -0.04655761 0.27600002 242 172 190 0.000000
-0.07021891 -0.04622023 0.27400002 236 166 184 0.000000
-0.06932070 -0.04605154 0.27300000 240 171 186 0.000000
-0.06817564 -0.04571417 0.27100003 255 188 203 0.000000
-0.06753841 -0.04571417 0.27100003 255 203 217 0.000000
-0.06640745 -0.04537680 0.26900002 255 211 225 0.000000
-0.06553040 -0.04520811 0.26800001 251 210 220 0.000000
-0.06490023 -0.04520811 0.26800001 255 216 226 0.000000
-0.06427006 -0.04520811 0.26800001 255 223 237 0.000000
-0.06340242 -0.04503942 0.26700002 255 220 234 0.000000
-0.06277460 -0.04503942 0.26700002 253 222 239 0.000000
-0.06214678 -0.04503942 0.26700002 255 224 241 0.000000
-0.06128854 -0.04487073 0.26600000 255 226 242 0.000000
-0.06066307 -0.04487073 0.26600000 255 226 242 0.000000
-0.06003760 -0.04487073 0.26600000 249 218 237 0.000000
-0.05963549 -0.04503942 0.26700002 244 213 232 0.000000
-0.05900766 -0.04503942 0.26700002 250 205 224 0.000000
-0.05837984 -0.04503942 0.26700002 245 200 219 0.000000
-0.05775202 -0.04503942 0.26700002 255 195 220 0.000000
-0.05712420 -0.04503942 0.26700002 250 188 213 0.000000
-0.05670797 -0.04520811 0.26800001 254 176 204 0.000000
-0.05607780 -0.04520811 0.26800001 246 168 196 0.000000
-0.05544762 -0.04520811 0.26800001 251 157 185 0.000000
-0.05502200 -0.04537680 0.26900002 246 152 180 0.000000
-0.05438947 -0.04537680 0.26900002 251 143 169 0.000000
-0.05375695 -0.04537680 0.26900002 248 140 166 0.000000
-0.05312442 -0.04537680 0.26900002 250 134 156 0.000000
-0.05229675 -0.04520811 0.26800001 250 134 156 0.000000
-0.05166658 -0.04520811 0.26800001 249 128 147 0.000000
-0.05103641 -0.04520811 0.26800001 245 124 143 0.000000
-0.05021815 -0.04503942 0.26700002 245 123 136 0.000000
-0.04959033 -0.04503942 0.26700002 228 106 119 0.000000
-0.04877913 -0.04487073 0.26600000 222 110 121 0.000000
-0.04815366 -0.04487073 0.26600000 221 109 120 0.000000
-0.04752819 -0.04487073 0.26600000 209 102 123 0.000000
-0.04690271 -0.04487073 0.26600000 205 98 119 0.000000
-0.04627724 -0.04487073 0.26600000 197 102 117 0.000000
-0.04565177 -0.04487073 0.26600000 195 100 115 0.000000
-0.04502630 -0.04487073 0.26600000 188 101 113 0.000000
-0.04440083 -0.04487073 0.26600000 182 95 107 0.000000
-0.04377536 -0.04487073 0.26600000 179 96 107 0.000000
-0.04314989 -0.04487073 0.26600000 179 96 107 0.000000
-0.04252442 -0.04487073 0.26600000 179 97 105 0.000000
-0.04189895 -0.04487073 0.26600000 179 97 105 0.000000
-0.04127348 -0.04487073 0.26600000 180 98 106 0.000000
-0.04080082 -0.04503942 0.26700002 181 99 107 0.000000
-0.04017300 -0.04503942 0.26700002 175 100 108 0.000000
-0.03954518 -0.04503942 0.26700002 163 88 96 0.000000
-0.03891736 -0.04503942 0.26700002 148 80 88 0.000000
-0.03828953 -0.04503942 0.26700002 150 82 90 0.000000
-0.03780276 -0.04520811 0.26800001 144 83 88 0.000000
-0.03731130 -0.04537680 0.26900002 140 79 84 0.000000
-0.03563426 -0.04824448 0.28600001 129 70 75 0.000000
-0.03508401 -0.04841316 0.28700000 129 70 75 0.000000
-0.03452905 -0.04858185 0.28800002 134 78 80 0.000000
-0.03396939 -0.04875053 0.28900000 128 72 74 0.000000
-0.03340503 -0.04891923 0.29000002 127 71 73 0.000000
-0.03283596 -0.04908791 0.29100001 127 71 73 0.000000
-0.03226219 -0.04925660 0.29200003 127 73 74 0.000000
-0.03168372 -0.04942529 0.29300001 128 74 75 0.000000
-0.03120633 -0.04976266 0.29500002 128 74 77 0.000000
-0.03071954 -0.05010003 0.29700002 131 77 80 0.000000
-0.03022334 -0.05043741 0.29900002 129 78 78 0.000000
-0.11015686 -0.04840365 0.29100001 10 39 47 0.000000
-0.10909641 -0.04823732 0.29000002 7 39 48 0.000000
-0.10878835 -0.04840365 0.29100001 7 39 48 0.000000
-0.10810409 -0.04840365 0.29100001 5 39 47 0.000000
-0.10741983 -0.04840365 0.29100001 8 42 50 0.000000
-0.10673558 -0.04840365 0.29100001 6 40 46 0.000000
-0.10605132 -0.04840365 0.29100001 3 37 43 0.000000
-0.10572916 -0.04857000 0.29200003 2 36 42 0.000000
-0.10540228 -0.04873633 0.29300001 6 40 46 0.000000
-0.10507070 -0.04890266 0.29400000 18 40 52 0.000000
-0.10437939 -0.04890266 0.29400000 15 37 49 0.000000
-0.10333540 -0.04873633 0.29300001 90 61 81 0.000000
-0.10229612 -0.04857000 0.29200003 209 180 200 0.000000
-0.10160951 -0.04857000 0.29200003 245 168 190 0.000000
-0.10092290 -0.04857000 0.29200003 246 169 191 0.000000
-0.10023630 -0.04857000 0.29200003 250 170 191 0.000000
-0.09920876 -0.04840365 0.29100001 254 174 195 0.000000
-0.09818593 -0.04823732 0.29000002 250 177 198 0.000000
-0.09750404 -0.04823732 0.29000002 251 178 199 0.000000
-0.09648826 -0.04807099 0.28900000 248 187 204 0.000000
-0.09580870 -0.04807099 0.28900000 255 196 213 0.000000
-0.09480000 -0.04790465 0.28800002 255 203 214 0.000000
-0.09379597 -0.04773831 0.28700000 255 198 209 0.000000
-0.09279665 -0.04757198 0.28600001 247 190 199 0.000000
-0.09147993 -0.04723931 0.28400001 245 188 197 0.000000
-0.09049238 -0.04707297 0.28300002 250 190 198 0.000000
-0.08950952 -0.04690664 0.28200001 247 187 195 0.000000
-0.08853137 -0.04674030 0.28100002 255 197 202 0.000000
-0.08755792 -0.04657396 0.28000000 255 197 202 0.000000
-0.08658918 -0.04640763 0.27900001 254 196 196 0.000000
-0.08593313 -0.04640763 0.27900001 255 197 197 0.000000
-0.08527710 -0.04640763 0.27900001 255 198 198 0.000000
-0.08462106 -0.04640763 0.27900001 255 197 197 0.000000
-0.08426596 -0.04657396 0.28000000 252 191 196 0.000000
-0.08390618 -0.04674030 0.28100002 249 188 193 0.000000
-0.08354168 -0.04690664 0.28200001 244 181 187 0.000000
-0.08317249 -0.04707297 0.28300002 240 177 183 0.000000
-0.08250704 -0.04707297 0.28300002 246 201 208 0.000000
-0.08184160 -0.04707297 0.28300002 255 233 240 0.000000
-0.08117615 -0.04707297 0.28300002 255 250 249 0.000000
-0.08079519 -0.04723931 0.28400001 255 252 251 0.000000
-0.08012740 -0.04723931 0.28400001 254 255 251 0.000000
-0.07945961 -0.04723931 0.28400001 254 255 251 0.000000
-0.07879180 -0.04723931 0.28400001 254 254 254 0.000000
-0.07784893 -0.04707297 0.28300002 254 254 254 0.000000
-0.07691075 -0.04690664 0.28200001 254 255 251 0.000000
-0.07651804 -0.04707297 0.28300002 254 255 251 0.000000
-0.07585260 -0.04707297 0.28300002 255 254 251 0.000000
-0.07492147 -0.04690664 0.28200001 255 254 251 0.000000
-0.07112182 -0.04574228 0.27500001 236 183 195 0.000000
-0.07021891 -0.04557595 0.27400002 252 199 211 0.000000
-0.06906679 -0.04524328 0.27200001 255 205 218 0.000000
-0.06817564 -0.04507695 0.27100003 255 206 219 0.000000
-0.06728919 -0.04491061 0.27000001 252 206 216 0.000000
-0.06640745 -0.04474428 0.26900002 255 214 224 0.000000
-0.06577493 -0.04474428 0.26900002 255 218 227 0.000000
-0.06490023 -0.04457794 0.26800001 255 219 228 0.000000
-0.06427006 -0.04457794 0.26800001 252 219 232 0.000000
-0.06363988 -0.04457794 0.26800001 255 222 235 0.000000
-0.06277460 -0.04441160 0.26700002 255 227 244 0.000000
-0.06214678 -0.04441160 0.26700002 255 225 242 0.000000
-0.06151896 -0.04441160 0.26700002 255 226 242 0.000000
-0.06089114 -0.04441160 0.26700002 255 227 243 0.000000
-0.06026331 -0.04441160 0.26700002 255 226 243 0.000000
-0.05963549 -0.04441160 0.26700002 248 217 234 0.000000
-0.05900766 -0.04441160 0.26700002 253 208 225 0.000000
-0.05837984 -0.04441160 0.26700002 244 199 216 0.000000
-0.05775202 -0.04441160 0.26700002 251 187 210 0.000000
-0.05733814 -0.04457794 0.26800001 246 182 205 0.000000
-0.05670797 -0.04457794 0.26800001 255 173 203 0.000000
-0.05607780 -0.04457794 0.26800001 249 166 196 0.000000
-0.05565452 -0.04474428 0.26900002 251 154 183 0.000000
-0.05502200 -0.04474428 0.26900002 247 150 179 0.000000
-0.05438947 -0.04474428 0.26900002 249 141 167 0.000000
-0.05375695 -0.04474428 0.26900002 245 137 163 0.000000
-0.05312442 -0.04474428 0.26900002 248 132 154 0.000000
-0.05229675 -0.04457794 0.26800001 247 131 153 0.000000
-0.05166658 -0.04457794 0.26800001 249 128 145 0.000000
-0.05103641 -0.04457794 0.26800001 244 123 140 0.000000
-0.05021815 -0.04441160 0.26700002 241 121 133 0.000000
-0.04959033 -0.04441160 0.26700002 236 116 128 0.000000
-0.04877913 -0.04424527 0.26600000 227 116 132 0.000000
-0.04833469 -0.04441160 0.26700002 220 109 125 0.000000
-0.04752819 -0.04424527 0.26600000 211 103 127 0.000000
-0.04690271 -0.04424527 0.26600000 205 97 121 0.000000
-0.04627724 -0.04424527 0.26600000 197 102 117 0.000000
-0.04582340 -0.04441160 0.26700002 194 99 114 0.000000
-0.04519558 -0.04441160 0.26700002 190 100 113 0.000000
-0.04456776 -0.04441160 0.26700002 185 95 108 0.000000
-0.04393993 -0.04441160 0.26700002 178 96 102 0.000000
-0.04331211 -0.04441160 0.26700002 175 93 99 0.000000
-0.04284415 -0.04457794 0.26800001 176 94 100 0.000000
-0.04221398 -0.04457794 0.26800001 179 97 103 0.000000
-0.04158381 -0.04457794 0.26800001 180 98 104 0.000000
-0.04080082 -0.04441160 0.26700002 182 100 106 0.000000
-0.04017300 -0.04441160 0.26700002 181 99 105 0.000000
-0.03954518 -0.04441160 0.26700002 180 98 104 0.000000
-0.03906311 -0.04457794 0.26800001 164 89 99 0.000000
-0.03843294 -0.04457794 0.26800001 152 77 87 0.000000
-0.03780276 -0.04457794 0.26800001 147 80 90 0.000000
-0.03745000 -0.04491061 0.27000001 146 79 89 0.000000
-0.03646692 -0.04607496 0.27700001 134 75 80 0.000000
-0.03620347 -0.04657396 0.28000000 130 71 74 0.000000
-0.03592592 -0.04707297 0.28300002 132 73 76 0.000000
-0.03550967 -0.04740565 0.28500003 134 78 80 0.000000
-0.03496177 -0.04757198 0.28600001 129 73 75 0.000000
-0.03440916 -0.04773831 0.28700000 127 71 73 0.000000
-0.03385185 -0.04790465 0.28800002 125 69 71 0.000000
-0.03328984 -0.04807099 0.28900000 125 69 71 0.000000
-0.03272313 -0.04823732 0.29000002 126 70 72 0.000000
-0.03215171 -0.04840365 0.29100001 126 72 73 0.000000
-0.03157559 -0.04857000 0.29200003 127 73 74 0.000000
-0.03120633 -0.04906900 0.29500002 128 74 75 0.000000
-0.03071954 -0.04940167 0.29700002 129 75 76 0.000000
-0.03022334 -0.04973434 0.29900002 129 78 78 0.000000
-0.11046022 -0.04755542 0.29000002 9 39 44 0.000000
-0.11015686 -0.04771940 0.29100001 10 40 45 0.000000
-0.10909641 -0.04755542 0.29000002 8 40 47 0.000000
-0.10841451 -0.04755542 0.29000002 8 40 47 0.000000
-0.10810409 -0.04771940 0.29100001 8 40 47 0.000000
-0.10705069 -0.04755542 0.29000002 4 36 43 0.000000
-0.10673558 -0.04771940 0.29100001 2 34 41 0.000000
-0.10605132 -0.04771940 0.29100001 4 36 43 0.000000
-0.10572916 -0.04788339 0.29200003 4 37 41 0.000000
-0.10540228 -0.04804737 0.29300001 8 41 45 0.000000
-0.10471332 -0.04804737 0.29300001 18 40 52 0.000000
-0.10402437 -0.04804737 0.29300001 14 36 48 0.000000
-0.10298272 -0.04788339 0.29200003 92 61 82 0.000000
-0.10229612 -0.04788339 0.29200003 209 178 199 0.000000
-0.10160951 -0.04788339 0.29200003 247 166 193 0.000000
-0.10092290 -0.04788339 0.29200003 246 165 192 0.000000
-0.10023630 -0.04788339 0.29200003 254 172 194 0.000000
-0.09920876 -0.04771940 0.29100001 255 174 196 0.000000
-0.09818593 -0.04755542 0.29000002 255 182 203 0.000000
-0.09750404 -0.04755542 0.29000002 255 182 203 0.000000
-0.09648826 -0.04739143 0.28900000 246 182 203 0.000000
-0.09580870 -0.04739143 0.28900000 255 196 217 0.000000
-0.09480000 -0.04722745 0.28800002 255 199 220 0.000000
-0.09379597 -0.04706346 0.28700000 251 189 210 0.000000
-0.09279665 -0.04689948 0.28600001 248 188 198 0.000000
-0.09180205 -0.04673550 0.28500003 249 189 199 0.000000
-0.09049238 -0.04640753 0.28300002 254 192 200 0.000000
-0.08950952 -0.04624354 0.28200001 251 189 197 0.000000
-0.08853137 -0.04607956 0.28100002 255 198 203 0.000000
-0.08755792 -0.04591557 0.28000000 255 196 201 0.000000
-0.08689953 -0.04591557 0.28000000 252 193 196 0.000000
-0.08593313 -0.04575159 0.27900001 255 197 200 0.000000
-0.08527710 -0.04575159 0.27900001 255 198 203 0.000000
-0.08492436 -0.04591557 0.28000000 255 197 202 0.000000
-0.08426596 -0.04591557 0.28000000 253 191 203 0.000000
-0.08390618 -0.04607956 0.28100002 247 185 197 0.000000
-0.08354168 -0.04624354 0.28200001 244 181 187 0.000000
-0.08317249 -0.04640753 0.28300002 243 180 186 0.000000
-0.08250704 -0.04640753 0.28300002 235 190 197 0.000000
-0.08184160 -0.04640753 0.28300002 255 236 243 0.000000
-0.08117615 -0.04640753 0.28300002 255 252 248 0.000000
-0.08079519 -0.04657151 0.28400001 255 253 249 0.000000
-0.08012740 -0.04657151 0.28400001 254 255 249 0.000000
-0.07945961 -0.04657151 0.28400001 254 255 249 0.000000
-0.07851437 -0.04640753 0.28300002 254 255 251 0.000000
-0.07757384 -0.04624354 0.28200001 254 255 251 0.000000
-0.07691075 -0.04624354 0.28200001 254 255 251 0.000000
-0.07624765 -0.04624354 0.28200001 254 255 251 0.000000
-0.07531654 -0.04607956 0.28100002 254 255 251 0.000000
-0.07439011 -0.04591557 0.28000000 254 255 251 0.000000
-0.07086319 -0.04493167 0.27400002 238 197 207 0.000000
-0.07021891 -0.04493167 0.27400002 254 213 223 0.000000
-0.06906679 -0.04460370 0.27200001 255 215 225 0.000000
-0.06817564 -0.04443972 0.27100003 255 209 219 0.000000
-0.06728919 -0.04427573 0.27000001 253 212 220 0.000000
-0.06640745 -0.04411175 0.26900002 255 218 226 0.000000
-0.06577493 -0.04411175 0.26900002 255 221 230 0.000000
-0.06490023 -0.04394776 0.26800001 255 220 229 0.000000
-0.06427006 -0.04394776 0.26800001 254 219 233 0.000000
-0.06363988 -0.04394776 0.26800001 255 220 234 0.000000
-0.06300971 -0.04394776 0.26800001 255 226 241 0.000000
-0.06237953 -0.04394776 0.26800001 255 224 239 0.000000
-0.06151896 -0.04378378 0.26700002 255 226 243 0.000000
-0.06089114 -0.04378378 0.26700002 255 225 242 0.000000
-0.06026331 -0.04378378 0.26700002 255 224 242 0.000000
-0.05963549 -0.04378378 0.26700002 253 219 237 0.000000
-0.05922867 -0.04394776 0.26800001 255 210 228 0.000000
-0.05859849 -0.04394776 0.26800001 246 199 217 0.000000
-0.05796832 -0.04394776 0.26800001 255 189 213 0.000000
-0.05733814 -0.04394776 0.26800001 244 178 202 0.000000
-0.05670797 -0.04394776 0.26800001 254 171 201 0.000000
-0.05628705 -0.04411175 0.26900002 248 165 195 0.000000
-0.05565452 -0.04411175 0.26900002 254 153 187 0.000000
-0.05502200 -0.04411175 0.26900002 247 146 180 0.000000
-0.05438947 -0.04411175 0.26900002 249 138 165 0.000000
-0.05375695 -0.04411175 0.26900002 248 137 164 0.000000
-0.05312442 -0.04411175 0.26900002 250 134 156 0.000000
-0.05229675 -0.04394776 0.26800001 247 131 153 0.000000
-0.05166658 -0.04394776 0.26800001 249 128 145 0.000000
-0.05103641 -0.04394776 0.26800001 244 123 140 0.000000
-0.05040624 -0.04394776 0.26800001 237 117 131 0.000000
-0.04959033 -0.04378378 0.26700002 233 113 127 0.000000
-0.04896251 -0.04378378 0.26700002 221 109 130 0.000000
-0.04833469 -0.04378378 0.26700002 214 102 123 0.000000
-0.04770687 -0.04378378 0.26700002 206 102 122 0.000000
-0.04707904 -0.04378378 0.26700002 202 98 118 0.000000
-0.04645122 -0.04378378 0.26700002 196 101 116 0.000000
-0.04599502 -0.04394776 0.26800001 194 99 114 0.000000
-0.04536485 -0.04394776 0.26800001 183 97 106 0.000000
-0.04473468 -0.04394776 0.26800001 183 97 106 0.000000
-0.04410450 -0.04394776 0.26800001 181 96 103 0.000000
-0.04347433 -0.04394776 0.26800001 178 93 100 0.000000
-0.04284415 -0.04394776 0.26800001 175 93 99 0.000000
-0.04221398 -0.04394776 0.26800001 179 97 103 0.000000
-0.04158381 -0.04394776 0.26800001 178 96 102 0.000000
-0.04095363 -0.04394776 0.26800001 180 98 104 0.000000
-0.04032346 -0.04394776 0.26800001 182 100 106 0.000000
-0.03969328 -0.04394776 0.26800001 182 100 106 0.000000
-0.03906311 -0.04394776 0.26800001 179 99 109 0.000000
-0.03843294 -0.04394776 0.26800001 177 97 107 0.000000
-0.03794382 -0.04411175 0.26900002 149 80 91 0.000000
-0.03745000 -0.04427573 0.27000001 141 72 83 0.000000
-0.03671625 -0.04493167 0.27400002 140 78 86 0.000000
-0.03633527 -0.04525964 0.27600002 135 75 83 0.000000
-0.03607417 -0.04575159 0.27900001 135 76 81 0.000000
-0.03579897 -0.04624354 0.28200001 132 73 78 0.000000
-0.03538507 -0.04657151 0.28400001 136 77 80 0.000000
-0.03483953 -0.04673550 0.28500003 132 73 76 0.000000
-0.03428927 -0.04689948 0.28600001 128 69 72 0.000000
-0.03373431 -0.04706346 0.28700000 128 69 72 0.000000
-0.03317465 -0.04722745 0.28800002 125 69 71 0.000000
-0.03261029 -0.04739143 0.28900000 126 70 72 0.000000
-0.03215171 -0.04771940 0.29100001 126 70 72 0.000000
-0.03157559 -0.04788339 0.29200003 127 71 73 0.000000
-0.03120633 -0.04837534 0.29500002 128 74 75 0.000000
-0.03071954 -0.04870331 0.29700002 129 75 76 0.000000
-0.03032442 -0.04919526 0.30000001 130 79 81 0.000000
-0.11046022 -0.04687351 0.29000002 5 35 40 0.000000
-0.10977831 -0.04687351 0.29000002 9 39 44 0.000000
-0.10947260 -0.04703514 0.29100001 9 39 44 0.000000
-0.10841451 -0.04687351 0.29000002 10 40 45 0.000000
-0.10773260 -0.04687351 0.29000002 9 39 44 0.000000
-0.10705069 -0.04687351 0.29000002 4 34 39 0.000000
-0.10636880 -0.04687351 0.29000002 5 35 40 0.000000
-0.10605132 -0.04703514 0.29100001 5 35 40 0.000000
-0.10536706 -0.04703514 0.29100001 6 36 41 0.000000
-0.10504255 -0.04719678 0.29200003 9 39 44 0.000000
-0.10435595 -0.04719678 0.29200003 17 34 48 0.000000
-0.10402437 -0.04735841 0.29300001 16 33 47 0.000000
-0.10298272 -0.04719678 0.29200003 93 62 83 0.000000
-0.10229612 -0.04719678 0.29200003 206 175 196 0.000000
-0.10160951 -0.04719678 0.29200003 249 166 196 0.000000
-0.10092290 -0.04719678 0.29200003 248 165 195 0.000000
-0.10023630 -0.04719678 0.29200003 254 171 199 0.000000
-0.09920876 -0.04703514 0.29100001 252 169 197 0.000000
-0.09818593 -0.04687351 0.29000002 249 175 202 0.000000
-0.09750404 -0.04687351 0.29000002 255 182 209 0.000000
-0.09648826 -0.04671188 0.28900000 254 192 215 0.000000
-0.09580870 -0.04671188 0.28900000 255 195 218 0.000000
-0.09480000 -0.04655025 0.28800002 254 195 215 0.000000
-0.09379597 -0.04638861 0.28700000 255 196 216 0.000000
-0.09279665 -0.04622698 0.28600001 252 194 208 0.000000
-0.09180205 -0.04606535 0.28500003 248 190 204 0.000000
-0.09081214 -0.04590371 0.28400001 249 192 203 0.000000
-0.08982693 -0.04574208 0.28300002 252 195 206 0.000000
-0.08853137 -0.04541882 0.28100002 255 196 208 0.000000
-0.08755792 -0.04525718 0.28000000 252 192 204 0.000000
-0.08689953 -0.04525718 0.28000000 250 193 204 0.000000
-0.08593313 -0.04509555 0.27900001 252 195 206 0.000000
-0.08527710 -0.04509555 0.27900001 253 196 207 0.000000
-0.08492436 -0.04525718 0.28000000 254 197 208 0.000000
-0.08456692 -0.04541882 0.28100002 252 191 206 0.000000
-0.08390618 -0.04541882 0.28100002 248 187 202 0.000000
-0.08354168 -0.04558045 0.28200001 246 184 196 0.000000
-0.08317249 -0.04574208 0.28300002 249 187 199 0.000000
-0.08250704 -0.04574208 0.28300002 234 189 194 0.000000
-0.08184160 -0.04574208 0.28300002 255 230 235 0.000000
-0.08117615 -0.04574208 0.28300002 255 251 244 0.000000
-0.08051071 -0.04574208 0.28300002 255 254 247 0.000000
-0.07984526 -0.04574208 0.28300002 254 255 249 0.000000
-0.07917982 -0.04574208 0.28300002 254 255 249 0.000000
-0.07823693 -0.04558045 0.28200001 254 255 249 0.000000
-0.07757384 -0.04558045 0.28200001 254 255 249 0.000000
-0.07663802 -0.04541882 0.28100002 254 255 249 0.000000
-0.07597727 -0.04541882 0.28100002 254 255 249 0.000000
-0.07531654 -0.04541882 0.28100002 255 255 251 0.000000
-0.07412444 -0.04509555 0.27900001 255 255 251 0.000000
-0.07320507 -0.04493392 0.27800003 255 245 253 0.000000
-0.07086319 -0.04428739 0.27400002 243 205 222 0.000000
-0.06996264 -0.04412575 0.27300000 249 211 228 0.000000
-0.06881286 -0.04380249 0.27100003 255 215 228 0.000000
-0.06792407 -0.04364086 0.27000001 253 213 226 0.000000
-0.06703997 -0.04347922 0.26900002 253 214 223 0.000000
-0.06640745 -0.04347922 0.26900002 255 216 225 0.000000
-0.06553040 -0.04331759 0.26800001 255 218 227 0.000000
-0.06490023 -0.04331759 0.26800001 255 218 227 0.000000
-0.06427006 -0.04331759 0.26800001 255 221 235 0.000000
-0.06363988 -0.04331759 0.26800001 253 218 232 0.000000
-0.06300971 -0.04331759 0.26800001 255 220 236 0.000000
-0.06237953 -0.04331759 0.26800001 255 223 239 0.000000
-0.06174936 -0.04331759 0.26800001 255 225 243 0.000000
-0.06111919 -0.04331759 0.26800001 255 224 242 0.000000
-0.06048901 -0.04331759 0.26800001 254 219 235 0.000000
-0.05985884 -0.04331759 0.26800001 251 216 232 0.000000
-0.05922867 -0.04331759 0.26800001 255 208 227 0.000000
-0.05859849 -0.04331759 0.26800001 253 203 222 0.000000
-0.05796832 -0.04331759 0.26800001 255 191 213 0.000000
-0.05733814 -0.04331759 0.26800001 241 175 197 0.000000
-0.05670797 -0.04331759 0.26800001 254 168 197 0.000000
-0.05628705 -0.04347922 0.26900002 250 164 193 0.000000
-0.05565452 -0.04347922 0.26900002 253 153 183 0.000000
-0.05502200 -0.04347922 0.26900002 243 143 173 0.000000
-0.05438947 -0.04347922 0.26900002 247 136 163 0.000000
-0.05375695 -0.04347922 0.26900002 248 137 164 0.000000
-0.05312442 -0.04347922 0.26900002 255 136 159 0.000000
-0.05229675 -0.04331759 0.26800001 250 131 154 0.000000
-0.05166658 -0.04331759 0.26800001 248 127 144 0.000000
-0.05103641 -0.04331759 0.26800001 243 122 139 0.000000
-0.05021815 -0.04315596 0.26700002 236 115 134 0.000000
-0.04959033 -0.04315596 0.26700002 233 112 131 0.000000
-0.04896251 -0.04315596 0.26700002 222 110 133 0.000000
-0.04833469 -0.04315596 0.26700002 216 104 127 0.000000
-0.04770687 -0.04315596 0.26700002 206 102 122 0.000000
-0.04725537 -0.04331759 0.26800001 202 98 118 0.000000
-0.04662519 -0.04331759 0.26800001 195 100 115 0.000000
-0.04599502 -0.04331759 0.26800001 194 99 114 0.000000
-0.04536485 -0.04331759 0.26800001 186 97 107 0.000000
-0.04490160 -0.04347922 0.26900002 186 97 107 0.000000
-0.04426907 -0.04347922 0.26900002 177 92 99 0.000000
-0.04363655 -0.04347922 0.26900002 178 93 100 0.000000
-0.04300402 -0.04347922 0.26900002 178 96 102 0.000000
-0.04237150 -0.04347922 0.26900002 178 96 102 0.000000
-0.04173897 -0.04347922 0.26900002 176 94 100 0.000000
-0.04095363 -0.04331759 0.26800001 179 97 103 0.000000
-0.04032346 -0.04331759 0.26800001 179 97 103 0.000000
-0.03969328 -0.04331759 0.26800001 180 98 104 0.000000
-0.03906311 -0.04331759 0.26800001 182 99 110 0.000000
-0.03843294 -0.04331759 0.26800001 188 105 116 0.000000
-0.03794382 -0.04347922 0.26900002 182 108 118 0.000000
-0.03745000 -0.04364086 0.27000001 158 84 94 0.000000
-0.03708783 -0.04396412 0.27200001 143 76 86 0.000000
-0.03671625 -0.04428739 0.27400002 142 75 85 0.000000
-0.03646692 -0.04477229 0.27700001 138 76 84 0.000000
-0.03607417 -0.04509555 0.27900001 131 72 77 0.000000
-0.03567203 -0.04541882 0.28100002 131 72 77 0.000000
-0.03526048 -0.04574208 0.28300002 131 72 75 0.000000
-0.03471728 -0.04590371 0.28400001 131 72 75 0.000000
-0.03416938 -0.04606535 0.28500003 130 71 74 0.000000
-0.03361677 -0.04622698 0.28600001 129 70 73 0.000000
-0.03305946 -0.04638861 0.28700000 128 69 72 0.000000
-0.03261029 -0.04671188 0.28900000 127 68 71 0.000000
-0.03204122 -0.04687351 0.29000002 126 70 72 0.000000
-0.03157559 -0.04719678 0.29200003 129 73 75 0.000000
-0.03110055 -0.04752004 0.29400000 129 73 75 0.000000
-0.03071954 -0.04800494 0.29700002 129 73 75 0.000000
-0.03032442 -0.04848984 0.30000001 129 78 80 0.000000
-0.11152536 -0.04635089 0.29100001 0 32 39 0.000000
-0.11046022 -0.04619161 0.29000002 4 34 39 0.000000
-0.11015686 -0.04635089 0.29100001 11 41 46 0.000000
-0.10947260 -0.04635089 0.29100001 9 37 43 0.000000
-0.10841451 -0.04619161 0.29000002 10 38 44 0.000000
-0.10773260 -0.04619161 0.29000002 7 35 39 0.000000
-0.10705069 -0.04619161 0.29000002 4 32 36 0.000000
-0.10636880 -0.04619161 0.29000002 9 34 39 0.000000
-0.10568689 -0.04619161 0.29000002 11 36 41 0.000000
-0.10536706 -0.04635089 0.29100001 12 40 46 0.000000
-0.10504255 -0.04651017 0.29200003 10 38 44 0.000000
-0.10435595 -0.04651017 0.29200003 12 26 46 0.000000
-0.10366934 -0.04651017 0.29200003 20 34 54 0.000000
-0.10298272 -0.04651017 0.29200003 90 56 78 0.000000
-0.10229612 -0.04651017 0.29200003 205 171 193 0.000000
-0.10160951 -0.04651017 0.29200003 236 153 183 0.000000
-0.10092290 -0.04651017 0.29200003 242 159 189 0.000000
-0.10023630 -0.04651017 0.29200003 252 166 195 0.000000
-0.09920876 -0.04635089 0.29100001 252 166 195 0.000000
-0.09818593 -0.04619161 0.29000002 255 178 204 0.000000
-0.09750404 -0.04619161 0.29000002 255 183 209 0.000000
-0.09682214 -0.04619161 0.29000002 255 193 214 0.000000
-0.09580870 -0.04603232 0.28900000 255 196 217 0.000000
-0.09512915 -0.04603232 0.28900000 253 196 215 0.000000
-0.09412279 -0.04587305 0.28800002 252 195 214 0.000000
-0.09279665 -0.04555449 0.28600001 253 196 207 0.000000
-0.09180205 -0.04539520 0.28500003 250 193 204 0.000000
-0.09081214 -0.04523592 0.28400001 247 190 201 0.000000
-0.08982693 -0.04507664 0.28300002 255 198 209 0.000000
-0.08884642 -0.04491736 0.28200001 255 198 212 0.000000
-0.08787064 -0.04475808 0.28100002 252 194 208 0.000000
-0.08689953 -0.04459879 0.28000000 250 192 206 0.000000
-0.08624113 -0.04459879 0.28000000 250 192 206 0.000000
-0.08527710 -0.04443951 0.27900001 254 196 210 0.000000
-0.08492436 -0.04459879 0.28000000 253 195 209 0.000000
-0.08456692 -0.04475808 0.28100002 248 190 204 0.000000
-0.08390618 -0.04475808 0.28100002 247 189 203 0.000000
-0.08354168 -0.04491736 0.28200001 249 187 199 0.000000
-0.08317249 -0.04507664 0.28300002 247 185 197 0.000000
-0.08250704 -0.04507664 0.28300002 234 186 194 0.000000
-0.08184160 -0.04507664 0.28300002 255 223 231 0.000000
-0.08117615 -0.04507664 0.28300002 255 252 246 0.000000
-0.08051071 -0.04507664 0.28300002 255 253 247 0.000000
-0.07956313 -0.04491736 0.28200001 254 255 249 0.000000
-0.07862025 -0.04475808 0.28100002 254 255 249 0.000000
-0.07795950 -0.04475808 0.28100002 254 255 249 0.000000
-0.07702368 -0.04459879 0.28000000 254 255 249 0.000000
-0.07636528 -0.04459879 0.28000000 254 255 249 0.000000
-0.07543651 -0.04443951 0.27900001 254 255 249 0.000000
-0.07451245 -0.04428023 0.27800003 254 249 247 0.000000
-0.07332740 -0.04396167 0.27600002 246 241 239 0.000000
-0.07241508 -0.04380239 0.27500001 255 227 238 0.000000
-0.07150748 -0.04364311 0.27400002 255 228 239 0.000000
-0.07060457 -0.04348382 0.27300000 250 211 231 0.000000
-0.06970637 -0.04332455 0.27200001 249 210 230 0.000000
-0.06881286 -0.04316526 0.27100003 255 216 231 0.000000
-0.06767250 -0.04284670 0.26900002 255 216 231 0.000000
-0.06703997 -0.04284670 0.26900002 255 216 229 0.000000
-0.06616057 -0.04268742 0.26800001 255 217 230 0.000000
-0.06553040 -0.04268742 0.26800001 255 219 232 0.000000
-0.06490023 -0.04268742 0.26800001 255 217 230 0.000000
-0.06427006 -0.04268742 0.26800001 255 220 235 0.000000
-0.06363988 -0.04268742 0.26800001 253 215 230 0.000000
-0.06300971 -0.04268742 0.26800001 254 219 233 0.000000
-0.06237953 -0.04268742 0.26800001 253 218 232 0.000000
-0.06174936 -0.04268742 0.26800001 253 217 236 0.000000
-0.06111919 -0.04268742 0.26800001 254 218 237 0.000000
-0.06048901 -0.04268742 0.26800001 253 212 232 0.000000
-0.05985884 -0.04268742 0.26800001 252 211 231 0.000000
-0.05922867 -0.04268742 0.26800001 255 205 225 0.000000
-0.05859849 -0.04268742 0.26800001 249 195 215 0.000000
-0.05796832 -0.04268742 0.26800001 255 187 211 0.000000
-0.05733814 -0.04268742 0.26800001 248 177 201 0.000000
-0.05691957 -0.04284670 0.26900002 251 166 191 0.000000
-0.05628705 -0.04284670 0.26900002 246 161 186 0.000000
-0.05565452 -0.04284670 0.26900002 254 155 180 0.000000
-0.05502200 -0.04284670 0.26900002 247 148 173 0.000000
-0.05438947 -0.04284670 0.26900002 251 140 165 0.000000
-0.05355711 -0.04268742 0.26800001 249 138 163 0.000000
-0.05292693 -0.04268742 0.26800001 253 134 157 0.000000
-0.05229675 -0.04268742 0.26800001 247 128 151 0.000000
-0.05166658 -0.04268742 0.26800001 245 124 145 0.000000
-0.05084598 -0.04252814 0.26700002 244 123 144 0.000000
-0.05021815 -0.04252814 0.26700002 234 116 136 0.000000
-0.04959033 -0.04252814 0.26700002 231 113 133 0.000000
-0.04896251 -0.04252814 0.26700002 222 110 131 0.000000
-0.04851571 -0.04268742 0.26800001 218 106 127 0.000000
-0.04788554 -0.04268742 0.26800001 205 103 120 0.000000
-0.04725537 -0.04268742 0.26800001 203 101 118 0.000000
-0.04662519 -0.04268742 0.26800001 193 98 113 0.000000
-0.04616664 -0.04284670 0.26900002 191 96 111 0.000000
-0.04553412 -0.04284670 0.26900002 184 95 105 0.000000
-0.04490160 -0.04284670 0.26900002 180 91 101 0.000000
-0.04426907 -0.04284670 0.26900002 177 91 100 0.000000
-0.04379876 -0.04300598 0.27000001 172 86 95 0.000000
-0.04316388 -0.04300598 0.27000001 175 90 99 0.000000
-0.04237150 -0.04284670 0.26900002 178 93 102 0.000000
-0.04173897 -0.04284670 0.26900002 176 94 102 0.000000
-0.04110644 -0.04284670 0.26900002 176 94 102 0.000000
-0.04047392 -0.04284670 0.26900002 180 98 106 0.000000
-0.03969328 -0.04268742 0.26800001 181 99 107 0.000000
-0.03906311 -0.04268742 0.26800001 182 100 108 0.000000
-0.03857635 -0.04284670 0.26900002 185 103 111 0.000000
-0.03808487 -0.04300598 0.27000001 184 106 117 0.000000
-0.03758870 -0.04316526 0.27100003 180 102 113 0.000000
-0.03708783 -0.04332455 0.27200001 153 82 91 0.000000
-0.03671625 -0.04364311 0.27400002 149 78 87 0.000000
-0.03633527 -0.04396167 0.27600002 143 77 84 0.000000
-0.03607417 -0.04443951 0.27900001 135 72 78 0.000000
-0.03554508 -0.04459879 0.28000000 137 74 80 0.000000
-0.03513588 -0.04491736 0.28200001 131 70 73 0.000000
-0.03459504 -0.04507664 0.28300002 133 72 75 0.000000
-0.03404948 -0.04523592 0.28400001 129 71 71 0.000000
-0.03349923 -0.04539520 0.28500003 127 69 69 0.000000
-0.03294427 -0.04555449 0.28600001 127 69 69 0.000000
-0.03249745 -0.04587305 0.28800002 128 70 70 0.000000
-0.03193073 -0.04603232 0.28900000 127 68 71 0.000000
-0.03146745 -0.04635089 0.29100001 128 69 72 0.000000
-0.03120633 -0.04698802 0.29500002 129 73 77 0.000000
-0.03082297 -0.04746586 0.29800001 130 74 78 0.000000
-0.11220962 -0.04566664 0.29100001 1 33 40 0.000000
-0.11114212 -0.04550971 0.29000002 1 33 40 0.000000
-0.11046022 -0.04550971 0.29000002 3 33 38 0.000000
-0.10977831 -0.04550971 0.29000002 8 38 43 0.000000
-0.10909641 -0.04550971 0.29000002 4 34 39 0.000000
-0.10841451 -0.04550971 0.29000002 5 35 40 0.000000
-0.10773260 -0.04550971 0.29000002 7 35 39 0.000000
-0.10705069 -0.04550971 0.29000002 6 34 38 0.000000
-0.10600200 -0.04535278 0.28900000 7 35 39 0.000000
-0.10568689 -0.04550971 0.29000002 7 35 39 0.000000
-0.10536706 -0.04566664 0.29100001 5 32 41 0.000000
-0.10468281 -0.04566664 0.29100001 6 33 42 0.000000
-0.10435595 -0.04582357 0.29200003 19 33 53 0.000000
-0.10366934 -0.04582357 0.29200003 21 35 55 0.000000
-0.10298272 -0.04582357 0.29200003 86 51 76 0.000000
-0.10194579 -0.04566664 0.29100001 203 168 193 0.000000
-0.10160951 -0.04582357 0.29200003 245 162 192 0.000000
-0.10092290 -0.04582357 0.29200003 244 161 191 0.000000
-0.10023630 -0.04582357 0.29200003 253 164 194 0.000000
-0.09920876 -0.04566664 0.29100001 254 165 195 0.000000
-0.09818593 -0.04550971 0.29000002 253 175 201 0.000000
-0.09750404 -0.04550971 0.29000002 255 181 207 0.000000
-0.09682214 -0.04550971 0.29000002 255 193 211 0.000000
-0.09580870 -0.04535278 0.28900000 255 197 215 0.000000
-0.09480000 -0.04519585 0.28800002 252 191 208 0.000000
-0.09412279 -0.04519585 0.28800002 249 188 205 0.000000
-0.09279665 -0.04488198 0.28600001 247 186 201 0.000000
-0.09180205 -0.04472506 0.28500003 250 189 204 0.000000
-0.09081214 -0.04456813 0.28400001 252 194 208 0.000000
-0.08982693 -0.04441120 0.28300002 255 199 213 0.000000
-0.08884642 -0.04425427 0.28200001 255 201 215 0.000000
-0.08787064 -0.04409734 0.28100002 253 195 209 0.000000
-0.08689953 -0.04394040 0.28000000 252 194 208 0.000000
-0.08624113 -0.04394040 0.28000000 254 196 210 0.000000
-0.08558275 -0.04394040 0.28000000 255 200 213 0.000000
-0.08492436 -0.04394040 0.28000000 253 197 210 0.000000
-0.08426596 -0.04394040 0.28000000 252 195 206 0.000000
-0.08390618 -0.04409734 0.28100002 249 192 203 0.000000
-0.08354168 -0.04425427 0.28200001 249 189 201 0.000000
-0.08317249 -0.04441120 0.28300002 248 188 200 0.000000
-0.08250704 -0.04441120 0.28300002 238 186 195 0.000000
-0.08184160 -0.04441120 0.28300002 255 217 226 0.000000
-0.08088931 -0.04425427 0.28200001 255 247 246 0.000000
-0.08022621 -0.04425427 0.28200001 255 248 247 0.000000
-0.07928099 -0.04409734 0.28100002 254 255 247 0.000000
-0.07834046 -0.04394040 0.28000000 253 255 246 0.000000
-0.07740463 -0.04378347 0.27900001 255 255 249 0.000000
-0.07647351 -0.04362655 0.27800003 254 254 248 0.000000
-0.07581982 -0.04362655 0.27800003 253 253 247 0.000000
-0.07489575 -0.04346962 0.27700001 253 253 247 0.000000
-0.07397639 -0.04331269 0.27600002 255 241 242 0.000000
-0.07279605 -0.04299883 0.27400002 251 236 237 0.000000
-0.07188842 -0.04284189 0.27300000 247 214 227 0.000000
-0.07098552 -0.04268496 0.27200001 248 215 228 0.000000
-0.06945010 -0.04252804 0.27100003 251 211 226 0.000000
-0.06855894 -0.04237111 0.27000001 252 210 226 0.000000
-0.06767250 -0.04221418 0.26900002 251 209 225 0.000000
-0.06679075 -0.04205725 0.26800001 251 209 223 0.000000
-0.06616057 -0.04205725 0.26800001 253 211 225 0.000000
-0.06553040 -0.04205725 0.26800001 255 217 231 0.000000
-0.06490023 -0.04205725 0.26800001 255 217 231 0.000000
-0.06427006 -0.04205725 0.26800001 255 220 233 0.000000
-0.06387734 -0.04221418 0.26900002 252 212 225 0.000000
-0.06324483 -0.04221418 0.26900002 255 217 232 0.000000
-0.06237953 -0.04205725 0.26800001 255 217 232 0.000000
-0.06174936 -0.04205725 0.26800001 255 216 233 0.000000
-0.06111919 -0.04205725 0.26800001 255 218 235 0.000000
-0.06071472 -0.04221418 0.26900002 255 211 230 0.000000
-0.06008220 -0.04221418 0.26900002 255 210 229 0.000000
-0.05944967 -0.04221418 0.26900002 255 201 224 0.000000
-0.05859849 -0.04205725 0.26800001 255 193 216 0.000000
-0.05796832 -0.04205725 0.26800001 255 182 208 0.000000
-0.05733814 -0.04205725 0.26800001 253 175 201 0.000000
-0.05691957 -0.04221418 0.26900002 255 165 192 0.000000
-0.05628705 -0.04221418 0.26900002 252 160 187 0.000000
-0.05565452 -0.04221418 0.26900002 254 154 179 0.000000
-0.05502200 -0.04221418 0.26900002 253 153 178 0.000000
-0.05418728 -0.04205725 0.26800001 254 142 165 0.000000
-0.05355711 -0.04205725 0.26800001 248 136 159 0.000000
-0.05292693 -0.04205725 0.26800001 252 134 154 0.000000
-0.05229675 -0.04205725 0.26800001 247 129 149 0.000000
-0.05147380 -0.04190032 0.26700002 247 126 147 0.000000
-0.05084598 -0.04190032 0.26700002 244 123 144 0.000000
-0.05021815 -0.04190032 0.26700002 233 118 137 0.000000
-0.04959033 -0.04190032 0.26700002 231 116 135 0.000000
-0.04896251 -0.04190032 0.26700002 219 109 129 0.000000
-0.04788554 -0.04205725 0.26800001 206 108 121 0.000000
-0.04725537 -0.04205725 0.26800001 200 102 115 0.000000
-0.04679917 -0.04221418 0.26900002 189 98 109 0.000000
-0.04616664 -0.04221418 0.26900002 187 96 107 0.000000
-0.04553412 -0.04221418 0.26900002 181 92 102 0.000000
-0.04490160 -0.04221418 0.26900002 183 94 104 0.000000
-0.04443364 -0.04237111 0.27000001 179 93 102 0.000000
-0.04379876 -0.04237111 0.27000001 177 91 100 0.000000
-0.04316388 -0.04237111 0.27000001 175 90 99 0.000000
-0.04252901 -0.04237111 0.27000001 174 89 98 0.000000
-0.04173897 -0.04221418 0.26900002 175 92 103 0.000000
-0.04110644 -0.04221418 0.26900002 178 95 106 0.000000
-0.04047392 -0.04221418 0.26900002 178 99 106 0.000000
-0.03969328 -0.04205725 0.26800001 180 101 108 0.000000
-0.03906311 -0.04205725 0.26800001 183 101 109 0.000000
-0.03857635 -0.04221418 0.26900002 183 101 109 0.000000
-0.03808487 -0.04237111 0.27000001 185 102 113 0.000000
-0.03758870 -0.04252804 0.27100003 188 105 116 0.000000
-0.03708783 -0.04268496 0.27200001 179 101 112 0.000000
-0.03671625 -0.04299883 0.27400002 166 88 99 0.000000
-0.03633527 -0.04331269 0.27600002 151 77 87 0.000000
-0.03594488 -0.04362655 0.27800003 137 71 76 0.000000
-0.03541813 -0.04378347 0.27900001 136 70 75 0.000000
-0.03501129 -0.04409734 0.28100002 131 71 71 0.000000
-0.03447279 -0.04425427 0.28200001 131 71 71 0.000000
-0.03392959 -0.04441120 0.28300002 129 71 69 0.000000
-0.03338169 -0.04456813 0.28400001 124 66 64 0.000000
-0.03294427 -0.04488198 0.28600001 128 73 70 0.000000
-0.03249745 -0.04519585 0.28800002 128 73 70 0.000000
-0.03193073 -0.04535278 0.28900000 125 70 69 0.000000
-0.03146745 -0.04566664 0.29100001 127 72 71 0.000000
-0.03120633 -0.04629436 0.29500002 128 72 76 0.000000
-0.03092640 -0.04692208 0.29900002 130 74 78 0.000000
-0.11220962 -0.04498238 0.29100001 1 34 38 0.000000
-0.11114212 -0.04482780 0.29000002 3 36 40 0.000000
-0.11046022 -0.04482780 0.29000002 4 37 39 0.000000
-0.10977831 -0.04482780 0.29000002 4 37 39 0.000000
-0.10909641 -0.04482780 0.29000002 8 33 38 0.000000
-0.10841451 -0.04482780 0.29000002 7 32 37 0.000000
-0.10773260 -0.04482780 0.29000002 3 33 36 0.000000
-0.10705069 -0.04482780 0.29000002 5 35 38 0.000000
-0.10600200 -0.04467322 0.28900000 6 36 41 0.000000
-0.10568689 -0.04482780 0.29000002 8 38 43 0.000000
-0.10536706 -0.04498238 0.29100001 9 38 48 0.000000
-0.10468281 -0.04498238 0.29100001 8 37 47 0.000000
