-0.02143929 0.02290156 0.19000001 193 185 230 2.000000
-0.02088204 0.02278102 0.18900001 172 157 189 2.000000
-0.02043762 0.02278102 0.18900001 150 135 167 2.000000
-0.01999321 0.02278102 0.18900001 152 126 153 2.000000
-0.01954880 0.02278102 0.18900001 159 133 160 2.000000
-0.01900330 0.02266049 0.18800001 182 155 189 2.000000
-0.01856124 0.02266049 0.18800001 187 160 194 2.000000
-0.01811918 0.02266049 0.18800001 188 164 210 2.000000
-0.01767711 0.02266049 0.18800001 195 171 217 2.000000
-0.01723505 0.02266049 0.18800001 194 176 225 2.000000
-0.01679299 0.02266049 0.18800001 199 181 230 2.000000
-0.01635093 0.02266049 0.18800001 195 179 227 2.000000
-0.01590887 0.02266049 0.18800001 186 170 218 2.000000
-0.01546680 0.02266049 0.18800001 199 174 209 2.000000
-0.01502474 0.02266049 0.18800001 159 134 169 2.000000
-0.01458268 0.02266049 0.18800001 150 111 135 2.000000
-0.01414062 0.02266049 0.18800001 156 117 141 2.000000
-0.01369856 0.02266049 0.18800001 185 153 177 2.000000
-0.01325649 0.02266049 0.18800001 194 162 186 2.000000
-0.01281443 0.02266049 0.18800001 188 161 195 2.000000
-0.01237237 0.02266049 0.18800001 191 164 198 2.000000
-0.01193031 0.02266049 0.18800001 191 170 206 2.000000
-0.01148824 0.02266049 0.18800001 191 170 206 2.000000
-0.01104618 0.02266049 0.18800001 186 167 195 2.000000
-0.01060412 0.02266049 0.18800001 182 163 191 2.000000
-0.01016206 0.02266049 0.18800001 173 148 170 2.000000
-0.00972000 0.02266049 0.18800001 152 127 149 2.000000
-0.00927794 0.02266049 0.18800001 143 117 134 2.000000
-0.00883587 0.02266049 0.18800001 150 124 141 2.000000
-0.00839381 0.02266049 0.18800001 157 136 163 2.000000
-0.00795175 0.02266049 0.18800001 174 153 180 2.000000
-0.00750969 0.02266049 0.18800001 168 161 199 2.000000
-0.00706762 0.02266049 0.18800001 172 165 203 2.000000
-0.00662556 0.02266049 0.18800001 176 170 210 2.000000
-0.00618350 0.02266049 0.18800001 167 158 194 2.000000
-0.00574144 0.02266049 0.18800001 168 159 195 2.000000
-0.00529938 0.02266049 0.18800001 169 155 170 2.000000
-0.00485731 0.02266049 0.18800001 147 133 148 2.000000
-0.00441525 0.02266049 0.18800001 146 117 121 2.000000
-0.03228131 0.02445429 0.19900002 141 79 89 2.000000
-0.03165352 0.02433141 0.19800001 147 85 95 2.000000
-0.03103043 0.02420852 0.19700001 158 115 140 2.000000
-0.03056720 0.02420852 0.19700001 188 145 170 2.000000
-0.02995116 0.02408563 0.19600001 184 153 183 2.000000
-0.02933983 0.02396275 0.19500001 191 160 190 2.000000
-0.02888131 0.02396275 0.19500001 187 156 186 2.000000
-0.02842279 0.02396275 0.19500001 184 153 183 2.000000
-0.02796426 0.02396275 0.19500001 181 141 158 2.000000
-0.02736469 0.02383986 0.19400001 158 118 135 2.000000
-0.02690852 0.02383986 0.19400001 148 94 97 2.000000
-0.02631599 0.02371698 0.19300000 156 102 105 2.000000
-0.02586217 0.02371698 0.19300000 149 103 113 2.000000
-0.02527671 0.02359409 0.19200000 200 154 164 2.000000
-0.02482524 0.02359409 0.19200000 195 159 178 2.000000
-0.02424682 0.02347120 0.19100001 194 158 177 2.000000
-0.02379771 0.02347120 0.19100001 209 178 210 2.000000
-0.02322635 0.02334832 0.19000001 212 181 213 2.000000
-0.02277958 0.02334832 0.19000001 201 184 226 2.000000
-0.02221528 0.02322543 0.18900001 197 180 222 2.000000
-0.02177086 0.02322543 0.18900001 184 172 212 2.000000
-0.02132645 0.02322543 0.18900001 187 175 215 2.000000
-0.02088204 0.02322543 0.18900001 148 122 149 2.000000
-0.02043762 0.02322543 0.18900001 143 117 144 2.000000
-0.01999321 0.02322543 0.18900001 146 110 133 2.000000
-0.01954880 0.02322543 0.18900001 154 118 141 2.000000
-0.01900330 0.02310255 0.18800001 175 143 169 2.000000
-0.01856124 0.02310255 0.18800001 192 160 186 2.000000
-0.01811918 0.02310255 0.18800001 194 168 208 2.000000
-0.01767711 0.02310255 0.18800001 195 169 209 2.000000
-0.01723505 0.02310255 0.18800001 192 172 219 2.000000
-0.01679299 0.02310255 0.18800001 196 176 223 2.000000
-0.01635093 0.02310255 0.18800001 192 172 221 2.000000
-0.01590887 0.02310255 0.18800001 185 165 214 2.000000
-0.01546680 0.02310255 0.18800001 186 153 193 2.000000
-0.01502474 0.02310255 0.18800001 158 125 165 2.000000
-0.01458268 0.02310255 0.18800001 156 113 138 2.000000
-0.01414062 0.02310255 0.18800001 152 109 134 2.000000
-0.01369856 0.02310255 0.18800001 174 132 161 2.000000
-0.01325649 0.02310255 0.18800001 198 156 185 2.000000
-0.01281443 0.02310255 0.18800001 195 161 199 2.000000
-0.01237237 0.02310255 0.18800001 196 162 200 2.000000
-0.01193031 0.02310255 0.18800001 193 167 209 2.000000
-0.01148824 0.02310255 0.18800001 193 167 209 2.000000
-0.01104618 0.02310255 0.18800001 193 168 201 2.000000
-0.01060412 0.02310255 0.18800001 185 160 193 2.000000
-0.01016206 0.02310255 0.18800001 174 145 163 2.000000
-0.00972000 0.02310255 0.18800001 148 119 137 2.000000
-0.00927794 0.02310255 0.18800001 148 108 125 2.000000
-0.00883587 0.02310255 0.18800001 156 116 133 2.000000
-0.00839381 0.02310255 0.18800001 147 113 135 2.000000
-0.00795175 0.02310255 0.18800001 171 137 159 2.000000
-0.00750969 0.02310255 0.18800001 174 160 194 2.000000
-0.00706762 0.02310255 0.18800001 167 153 187 2.000000
-0.03041204 0.02454651 0.19600001 192 139 163 2.000000
-0.02995116 0.02454651 0.19600001 186 146 175 2.000000
-0.02933983 0.02442127 0.19500001 194 154 183 2.000000
-0.02888131 0.02442127 0.19500001 185 146 168 2.000000
-0.02842279 0.02442127 0.19500001 176 137 159 2.000000
-0.02796426 0.02442127 0.19500001 175 120 130 2.000000
-0.02736469 0.02429603 0.19400001 153 98 108 2.000000
-0.02690852 0.02429603 0.19400001 162 97 99 2.000000
-0.02631599 0.02417080 0.19300000 160 95 97 2.000000
-0.02586217 0.02417080 0.19300000 150 98 107 2.000000
-0.02527671 0.02404556 0.19200000 178 126 135 2.000000
-0.02482524 0.02404556 0.19200000 190 154 173 2.000000
-0.02424682 0.02392032 0.19100001 196 160 179 2.000000
-0.02379771 0.02392032 0.19100001 198 170 201 2.000000
-0.02322635 0.02379509 0.19000001 200 172 203 2.000000
-0.02277958 0.02379509 0.19000001 197 179 216 2.000000
-0.02221528 0.02366985 0.18900001 201 183 220 2.000000
-0.02177086 0.02366985 0.18900001 204 183 219 2.000000
-0.02132645 0.02366985 0.18900001 176 155 191 2.000000
-0.02088204 0.02366985 0.18900001 150 109 131 2.000000
-0.02043762 0.02366985 0.18900001 157 116 138 2.000000
-0.01999321 0.02366985 0.18900001 152 105 123 2.000000
-0.01954880 0.02366985 0.18900001 154 107 125 2.000000
-0.01910438 0.02366985 0.18900001 154 115 139 2.000000
-0.01856124 0.02354461 0.18800001 201 162 186 2.000000
-0.01811918 0.02354461 0.18800001 198 171 207 2.000000
-0.01767711 0.02354461 0.18800001 197 170 206 2.000000
-0.01723505 0.02354461 0.18800001 193 171 214 2.000000
-0.01679299 0.02354461 0.18800001 191 169 212 2.000000
-0.01635093 0.02354461 0.18800001 193 171 216 2.000000
-0.01590887 0.02354461 0.18800001 190 168 213 2.000000
-0.01546680 0.02354461 0.18800001 174 140 176 2.000000
-0.01502474 0.02354461 0.18800001 151 117 153 2.000000
-0.01458268 0.02354461 0.18800001 153 110 135 2.000000
-0.01414062 0.02354461 0.18800001 153 110 135 2.000000
-0.01369856 0.02354461 0.18800001 156 107 137 2.000000
-0.01325649 0.02354461 0.18800001 191 142 172 2.000000
-0.01281443 0.02354461 0.18800001 196 152 193 2.000000
-0.01237237 0.02354461 0.18800001 200 156 197 2.000000
-0.01193031 0.02354461 0.18800001 199 164 207 2.000000
-0.01148824 0.02354461 0.18800001 194 159 202 2.000000
-0.01104618 0.02354461 0.18800001 188 160 191 2.000000
-0.01060412 0.02354461 0.18800001 184 156 187 2.000000
-0.01016206 0.02354461 0.18800001 182 143 163 2.000000
-0.00972000 0.02354461 0.18800001 146 107 127 2.000000
-0.02736469 0.02475220 0.19400001 165 99 106 2.000000
-0.02690852 0.02475220 0.19400001 159 89 91 2.000000
-0.02631599 0.02462461 0.19300000 158 88 90 2.000000
-0.02586217 0.02462461 0.19300000 159 103 116 2.000000
-0.02527671 0.02449703 0.19200000 183 127 140 2.000000
-0.02482524 0.02449703 0.19200000 193 154 176 2.000000
-0.02424682 0.02436944 0.19100001 199 160 182 2.000000
-0.02367311 0.02424185 0.19000001 195 169 200 2.000000
-0.02322635 0.02424185 0.19000001 198 172 203 2.000000
-0.02265969 0.02411426 0.18900001 198 175 212 2.000000
-0.02221528 0.02411426 0.18900001 201 178 215 2.000000
-0.02177086 0.02411426 0.18900001 183 152 182 2.000000
-0.02132645 0.02411426 0.18900001 157 126 156 2.000000
-0.02088204 0.02411426 0.18900001 159 109 126 2.000000
-0.02043762 0.02411426 0.18900001 155 105 122 2.000000
-0.01999321 0.02411426 0.18900001 162 109 123 2.000000
-0.01954880 0.02411426 0.18900001 162 109 123 2.000000
-0.01900330 0.02398667 0.18800001 161 115 137 2.000000
-0.01856124 0.02398667 0.18800001 198 152 174 2.000000
-0.01811918 0.02398667 0.18800001 192 164 191 2.000000
-0.01767711 0.02398667 0.18800001 190 162 189 2.000000
-0.01723505 0.02398667 0.18800001 192 169 206 2.000000
-0.01679299 0.02398667 0.18800001 188 165 202 2.000000
-0.01635093 0.02398667 0.18800001 194 168 210 2.000000
-0.01590887 0.02398667 0.18800001 193 167 209 2.000000
-0.01546680 0.02398667 0.18800001 165 127 160 2.000000
-0.01502474 0.02398667 0.18800001 151 113 146 2.000000
-0.01458268 0.02398667 0.18800001 157 109 132 2.000000
-0.01414062 0.02398667 0.18800001 160 112 135 2.000000
-0.01369856 0.02398667 0.18800001 156 108 131 2.000000
-0.01325649 0.02398667 0.18800001 180 132 155 2.000000
-0.01281443 0.02398667 0.18800001 200 155 188 2.000000
-0.02527671 0.02494849 0.19200000 191 133 147 2.000000
-0.02482524 0.02494849 0.19200000 201 160 184 2.000000
-0.02424682 0.02481855 0.19100001 194 153 177 2.000000
-0.02367311 0.02468861 0.19000001 190 159 187 2.000000
-0.02322635 0.02468861 0.19000001 199 168 196 2.000000
-0.02265969 0.02455867 0.18900001 207 175 210 2.000000
-0.02221528 0.02455867 0.18900001 191 159 194 2.000000
-0.02177086 0.02455867 0.18900001 159 114 133 2.000000
-0.02132645 0.02455867 0.18900001 149 104 123 2.000000
-0.02088204 0.02455867 0.18900001 164 107 118 2.000000
-0.02043762 0.02455867 0.18900001 164 107 118 2.000000
-0.01999321 0.02455867 0.18900001 174 114 126 2.000000
-0.01944536 0.02442873 0.18800001 167 107 119 2.000000
-0.01900330 0.02442873 0.18800001 163 111 130 2.000000
-0.01856124 0.02442873 0.18800001 184 132 151 2.000000
-0.01811918 0.02442873 0.18800001 186 152 174 2.000000
-0.01767711 0.02442873 0.18800001 201 167 189 2.000000
-0.01723505 0.02442873 0.18800001 190 164 195 2.000000
-0.01679299 0.02442873 0.18800001 188 162 193 2.000000
-0.01635093 0.02442873 0.18800001 198 166 201 2.000000
-0.01590887 0.02442873 0.18800001 181 149 184 2.000000
-0.01546680 0.02442873 0.18800001 149 106 129 2.000000
-0.02367311 0.02513538 0.19000001 185 144 168 2.000000
-0.02322635 0.02513538 0.19000001 192 151 175 2.000000
-0.02265969 0.02500309 0.18900001 195 152 173 2.000000
-0.02221528 0.02500309 0.18900001 170 127 148 2.000000
-0.02177086 0.02500309 0.18900001 169 110 115 2.000000
-0.02132645 0.02500309 0.18900001 158 99 104 2.000000
-0.02088204 0.02500309 0.18900001 165 99 106 2.000000
-0.02032949 0.02487080 0.18800001 169 103 110 2.000000
-0.01988743 0.02487080 0.18800001 174 110 119 2.000000
-0.01944536 0.02487080 0.18800001 172 108 117 2.000000
-0.01900330 0.02487080 0.18800001 160 99 114 2.000000
-0.01856124 0.02487080 0.18800001 174 113 128 2.000000
-0.01811918 0.02487080 0.18800001 197 150 170 2.000000
-0.02209773 0.02531286 0.18800001 153 93 105 2.000000
-0.02165567 0.02531286 0.18800001 173 104 99 2.000000
-0.02121361 0.02531286 0.18800001 174 105 100 2.000000
-0.02077155 0.02531286 0.18800001 174 102 98 2.000000
-0.00898183 -0.03027308 0.18200001 128 138 154 0.000000
-0.00855388 -0.03027308 0.18200001 118 128 144 0.000000
-0.00812592 -0.03027308 0.18200001 111 115 127 0.000000
-0.01148609 -0.02968114 0.18100001 123 115 133 0.000000
-0.01106049 -0.02968114 0.18100001 115 107 125 0.000000
-0.01063489 -0.02968114 0.18100001 111 98 116 0.000000
-0.01020929 -0.02968114 0.18100001 108 95 113 0.000000
-0.00978368 -0.02968114 0.18100001 109 91 110 0.000000
-0.00940978 -0.02984513 0.18200001 102 84 103 0.000000
-0.00898183 -0.02984513 0.18200001 108 86 100 0.000000
-0.00855388 -0.02984513 0.18200001 104 82 96 0.000000
-0.00812592 -0.02984513 0.18200001 113 85 94 0.000000
-0.01403971 -0.02925554 0.18100001 113 86 108 0.000000
-0.01353889 -0.02909390 0.18000001 101 74 96 0.000000
-0.01318850 -0.02925554 0.18100001 107 81 98 0.000000
-0.01276290 -0.02925554 0.18100001 108 82 99 0.000000
-0.01233730 -0.02925554 0.18100001 104 74 86 0.000000
-0.01191170 -0.02925554 0.18100001 101 71 83 0.000000
-0.01148609 -0.02925554 0.18100001 109 70 77 0.000000
-0.01106049 -0.02925554 0.18100001 115 76 83 0.000000
-0.01063489 -0.02925554 0.18100001 126 85 93 0.000000
-0.01020929 -0.02925554 0.18100001 122 81 89 0.000000
-0.00978368 -0.02925554 0.18100001 124 80 91 0.000000
-0.00935808 -0.02925554 0.18100001 120 76 87 0.000000
-0.00898183 -0.02941717 0.18200001 118 77 87 0.000000
-0.00855388 -0.02941717 0.18200001 119 78 88 0.000000
-0.00812592 -0.02941717 0.18200001 120 76 85 0.000000
-0.00769797 -0.02941717 0.18200001 124 80 89 0.000000
-0.00730996 -0.02957880 0.18300001 125 81 90 0.000000
-0.01396214 -0.02867065 0.18000001 127 73 95 0.000000
-0.01353889 -0.02867065 0.18000001 122 68 90 0.000000
-0.01311564 -0.02867065 0.18000001 129 76 88 0.000000
-0.01269239 -0.02867065 0.18000001 131 78 90 0.000000
-0.01233730 -0.02882994 0.18100001 133 79 82 0.000000
-0.01191170 -0.02882994 0.18100001 133 79 82 0.000000
-0.01148609 -0.02882994 0.18100001 135 77 75 0.000000
-0.01106049 -0.02882994 0.18100001 132 74 72 0.000000
-0.01063489 -0.02882994 0.18100001 139 78 83 0.000000
-0.01020929 -0.02882994 0.18100001 140 79 84 0.000000
-0.00978368 -0.02882994 0.18100001 136 76 86 0.000000
-0.00940978 -0.02898922 0.18200001 130 70 80 0.000000
-0.00898183 -0.02898922 0.18200001 128 73 83 0.000000
-0.00855388 -0.02898922 0.18200001 132 77 87 0.000000
-0.00812592 -0.02898922 0.18200001 123 73 81 0.000000
-0.00774027 -0.02914850 0.18300001 126 76 84 0.000000
-0.00730996 -0.02914850 0.18300001 131 79 88 0.000000
-0.00687966 -0.02914850 0.18300001 132 80 89 0.000000
-0.00477980 -0.02946706 0.18500000 135 74 91 0.000000
-0.01438539 -0.02824740 0.18000001 141 75 97 0.000000
-0.01353889 -0.02824740 0.18000001 135 69 91 0.000000
-0.01311564 -0.02824740 0.18000001 142 75 85 0.000000
-0.01269239 -0.02824740 0.18000001 144 77 87 0.000000
-0.01233730 -0.02840433 0.18100001 143 78 76 0.000000
-0.01191170 -0.02840433 0.18100001 141 76 74 0.000000
-0.01148609 -0.02840433 0.18100001 141 75 71 0.000000
-0.01106049 -0.02840433 0.18100001 138 72 68 0.000000
-0.01063489 -0.02840433 0.18100001 140 70 70 0.000000
-0.01020929 -0.02840433 0.18100001 146 76 76 0.000000
-0.00978368 -0.02840433 0.18100001 148 81 91 0.000000
-0.00940978 -0.02856126 0.18200001 148 81 91 0.000000
-0.00898183 -0.02856126 0.18200001 139 79 91 0.000000
-0.00855388 -0.02856126 0.18200001 142 82 94 0.000000
-0.00812592 -0.02856126 0.18200001 133 78 86 0.000000
-0.00774027 -0.02871819 0.18300001 140 85 93 0.000000
-0.00730996 -0.02871819 0.18300001 144 87 96 0.000000
-0.00687966 -0.02871819 0.18300001 140 83 92 0.000000
-0.00648459 -0.02887513 0.18400002 141 81 91 0.000000
-0.00605194 -0.02887513 0.18400002 137 77 87 0.000000
-0.00561928 -0.02887513 0.18400002 146 82 95 0.000000
-0.00521481 -0.02903205 0.18500000 133 69 82 0.000000
-0.00477980 -0.02903205 0.18500000 140 76 87 0.000000
0.00652372 -0.03107215 0.19800001 145 98 114 0.000000
0.00698930 -0.03107215 0.19800001 143 96 112 0.000000
0.00745487 -0.03107215 0.19800001 146 100 112 0.000000
0.00885160 -0.03107215 0.19800001 146 100 112 0.000000
0.00931718 -0.03107215 0.19800001 146 102 113 0.000000
0.01112302 -0.03091522 0.19700001 144 100 109 0.000000
0.01158624 -0.03091522 0.19700001 139 95 104 0.000000
0.01204947 -0.03091522 0.19700001 138 93 100 0.000000
0.01251269 -0.03091522 0.19700001 139 94 101 0.000000
0.01297592 -0.03091522 0.19700001 139 89 97 0.000000
-0.01480864 -0.02782415 0.18000001 142 70 86 0.000000
-0.01438539 -0.02782415 0.18000001 144 72 88 0.000000
-0.01396214 -0.02782415 0.18000001 146 71 88 0.000000
-0.01353889 -0.02782415 0.18000001 155 80 97 0.000000
-0.01311564 -0.02782415 0.18000001 150 78 90 0.000000
-0.01269239 -0.02782415 0.18000001 149 77 89 0.000000
-0.01226914 -0.02782415 0.18000001 149 79 81 0.000000
-0.01191170 -0.02797873 0.18100001 153 83 85 0.000000
-0.01148609 -0.02797873 0.18100001 156 83 84 0.000000
-0.01106049 -0.02797873 0.18100001 159 86 87 0.000000
-0.01063489 -0.02797873 0.18100001 152 75 77 0.000000
-0.01020929 -0.02797873 0.18100001 152 75 77 0.000000
-0.00978368 -0.02797873 0.18100001 156 85 92 0.000000
-0.00940978 -0.02813331 0.18200001 153 82 89 0.000000
-0.00898183 -0.02813331 0.18200001 152 90 98 0.000000
-0.00855388 -0.02813331 0.18200001 148 86 94 0.000000
-0.00817057 -0.02828789 0.18300001 144 84 94 0.000000
-0.00774027 -0.02828789 0.18300001 144 84 94 0.000000
-0.00730996 -0.02828789 0.18300001 143 83 93 0.000000
-0.00691725 -0.02844247 0.18400002 142 82 92 0.000000
-0.00648459 -0.02844247 0.18400002 144 82 92 0.000000
-0.00605194 -0.02844247 0.18400002 145 83 93 0.000000
-0.00564982 -0.02859704 0.18500000 148 81 91 0.000000
-0.00521481 -0.02859704 0.18500000 146 79 89 0.000000
-0.00393092 -0.02875162 0.18600000 147 78 89 0.000000
0.00652372 -0.03060657 0.19800001 148 95 107 0.000000
0.00698930 -0.03060657 0.19800001 150 97 109 0.000000
0.00745487 -0.03060657 0.19800001 151 98 112 0.000000
0.00880690 -0.03045199 0.19700001 147 96 109 0.000000
0.00927012 -0.03045199 0.19700001 147 101 113 0.000000
0.00973334 -0.03045199 0.19700001 149 103 115 0.000000
0.01019657 -0.03045199 0.19700001 148 102 114 0.000000
0.01065979 -0.03045199 0.19700001 148 102 114 0.000000
0.01112302 -0.03045199 0.19700001 146 100 110 0.000000
0.01158624 -0.03045199 0.19700001 141 95 105 0.000000
0.01198830 -0.03029741 0.19600001 145 96 107 0.000000
0.01244918 -0.03029741 0.19600001 148 99 110 0.000000
0.01291005 -0.03029741 0.19600001 146 96 104 0.000000
0.01337092 -0.03029741 0.19600001 140 90 98 0.000000
0.01475354 -0.03029741 0.19600001 147 99 107 0.000000
0.01513679 -0.03014283 0.19500001 143 95 103 0.000000
-0.01523189 -0.02740090 0.18000001 148 73 83 0.000000
-0.01480864 -0.02740090 0.18000001 149 70 84 0.000000
-0.01438539 -0.02740090 0.18000001 158 79 93 0.000000
-0.01396214 -0.02740090 0.18000001 156 77 91 0.000000
-0.01353889 -0.02740090 0.18000001 165 86 100 0.000000
-0.01311564 -0.02740090 0.18000001 159 85 93 0.000000
-0.01269239 -0.02740090 0.18000001 156 82 90 0.000000
-0.01226914 -0.02740090 0.18000001 160 87 92 0.000000
-0.01184589 -0.02740090 0.18000001 161 88 93 0.000000
-0.01148609 -0.02755313 0.18100001 152 78 81 0.000000
-0.01106049 -0.02755313 0.18100001 159 85 88 0.000000
-0.01063489 -0.02755313 0.18100001 164 82 86 0.000000
-0.01020929 -0.02755313 0.18100001 166 84 88 0.000000
-0.00978368 -0.02755313 0.18100001 162 88 91 0.000000
-0.00940978 -0.02770536 0.18200001 161 87 90 0.000000
-0.00898183 -0.02770536 0.18200001 158 92 97 0.000000
-0.00860088 -0.02785758 0.18300001 158 92 97 0.000000
-0.00817057 -0.02785758 0.18300001 153 92 97 0.000000
-0.00774027 -0.02785758 0.18300001 153 92 97 0.000000
-0.00734991 -0.02800981 0.18400002 146 87 92 0.000000
-0.00691725 -0.02800981 0.18400002 148 89 94 0.000000
-0.00648459 -0.02800981 0.18400002 146 85 90 0.000000
-0.00608483 -0.02816204 0.18500000 145 84 89 0.000000
-0.00564982 -0.02816204 0.18500000 149 82 92 0.000000
-0.00521481 -0.02816204 0.18500000 149 82 92 0.000000
-0.00480564 -0.02831426 0.18600000 150 82 90 0.000000
-0.00436828 -0.02831426 0.18600000 154 86 94 0.000000
-0.00393092 -0.02831426 0.18600000 151 83 89 0.000000
-0.00264700 -0.02861872 0.18800001 152 84 92 0.000000
0.00605814 -0.03014099 0.19800001 151 94 105 0.000000
0.00652372 -0.03014099 0.19800001 153 96 107 0.000000
0.00698930 -0.03014099 0.19800001 150 93 104 0.000000
0.00741722 -0.02998876 0.19700001 148 90 104 0.000000
0.00788045 -0.02998876 0.19700001 148 90 104 0.000000
0.00834367 -0.02998876 0.19700001 148 92 105 0.000000
0.00880690 -0.02998876 0.19700001 152 96 109 0.000000
0.00927012 -0.02998876 0.19700001 151 98 110 0.000000
0.00973334 -0.02998876 0.19700001 153 100 112 0.000000
0.01019657 -0.02998876 0.19700001 151 100 111 0.000000
0.01065979 -0.02998876 0.19700001 149 98 109 0.000000
0.01112302 -0.02998876 0.19700001 150 99 110 0.000000
0.01152743 -0.02983654 0.19600001 146 95 106 0.000000
0.01198830 -0.02983654 0.19600001 149 98 109 0.000000
0.01244918 -0.02983654 0.19600001 150 99 110 0.000000
0.01291005 -0.02983654 0.19600001 150 98 107 0.000000
0.01337092 -0.02983654 0.19600001 146 94 103 0.000000
0.01429267 -0.02983654 0.19600001 148 96 103 0.000000
0.01467827 -0.02968431 0.19500001 154 97 106 0.000000
0.01513679 -0.02968431 0.19500001 143 86 95 0.000000
0.01559531 -0.02968431 0.19500001 136 82 83 0.000000
-0.01565514 -0.02697765 0.18000001 152 70 74 0.000000
-0.01480864 -0.02697765 0.18000001 167 82 91 0.000000
-0.01438539 -0.02697765 0.18000001 164 79 88 0.000000
-0.01396214 -0.02697765 0.18000001 161 76 85 0.000000
-0.01353889 -0.02697765 0.18000001 173 88 97 0.000000
-0.01311564 -0.02697765 0.18000001 169 90 95 0.000000
-0.01269239 -0.02697765 0.18000001 166 87 92 0.000000
-0.01226914 -0.02697765 0.18000001 163 89 92 0.000000
-0.01184589 -0.02697765 0.18000001 163 89 92 0.000000
-0.01142263 -0.02697765 0.18000001 155 81 84 0.000000
-0.01106049 -0.02712752 0.18100001 161 87 90 0.000000
-0.01063489 -0.02712752 0.18100001 166 85 86 0.000000
-0.01020929 -0.02712752 0.18100001 166 85 86 0.000000
-0.00983774 -0.02727740 0.18200001 171 90 91 0.000000
-0.00940978 -0.02727740 0.18200001 175 94 95 0.000000
-0.00898183 -0.02727740 0.18200001 162 89 92 0.000000
-0.00860088 -0.02742728 0.18300001 167 94 97 0.000000
-0.00817057 -0.02742728 0.18300001 158 98 98 0.000000
-0.00774027 -0.02742728 0.18300001 158 98 98 0.000000
-0.00734991 -0.02757715 0.18400002 151 92 95 0.000000
-0.00691725 -0.02757715 0.18400002 152 93 96 0.000000
-0.00648459 -0.02757715 0.18400002 152 93 98 0.000000
-0.00608483 -0.02772703 0.18500000 151 92 97 0.000000
-0.00564982 -0.02772703 0.18500000 153 92 97 0.000000
-0.00521481 -0.02772703 0.18500000 151 90 95 0.000000
-0.00480564 -0.02787690 0.18600000 153 90 96 0.000000
-0.00436828 -0.02787690 0.18600000 152 89 95 0.000000
-0.00393092 -0.02787690 0.18600000 153 87 92 0.000000
-0.00351235 -0.02802678 0.18700001 155 89 94 0.000000
-0.00307263 -0.02802678 0.18700001 158 92 97 0.000000
-0.00263292 -0.02802678 0.18700001 157 91 96 0.000000
-0.00220494 -0.02817666 0.18800001 158 92 97 0.000000
0.00602755 -0.02952554 0.19700001 152 90 100 0.000000
0.00649077 -0.02952554 0.19700001 150 90 102 0.000000
0.00695400 -0.02952554 0.19700001 152 92 104 0.000000
0.00741722 -0.02952554 0.19700001 150 89 106 0.000000
0.00788045 -0.02952554 0.19700001 155 94 111 0.000000
0.00834367 -0.02952554 0.19700001 151 93 107 0.000000
0.00880690 -0.02952554 0.19700001 153 95 109 0.000000
0.00927012 -0.02952554 0.19700001 153 95 109 0.000000
0.00973334 -0.02952554 0.19700001 153 95 109 0.000000
0.01019657 -0.02952554 0.19700001 152 96 109 0.000000
0.01065979 -0.02952554 0.19700001 148 92 105 0.000000
0.01106656 -0.02937566 0.19600001 149 93 106 0.000000
0.01152743 -0.02937566 0.19600001 150 94 107 0.000000
0.01198830 -0.02937566 0.19600001 152 97 107 0.000000
0.01244918 -0.02937566 0.19600001 152 97 107 0.000000
0.01291005 -0.02937566 0.19600001 150 95 105 0.000000
0.01337092 -0.02937566 0.19600001 149 94 104 0.000000
0.01383180 -0.02937566 0.19600001 152 97 105 0.000000
0.01429267 -0.02937566 0.19600001 152 97 105 0.000000
0.01467827 -0.02922579 0.19500001 151 91 99 0.000000
0.01513679 -0.02922579 0.19500001 146 86 94 0.000000
0.01559531 -0.02922579 0.19500001 138 80 80 0.000000
0.01605383 -0.02922579 0.19500001 136 78 78 0.000000
-0.01438539 -0.02655440 0.18000001 170 80 84 0.000000
-0.01396214 -0.02655440 0.18000001 179 90 98 0.000000
-0.01353889 -0.02655440 0.18000001 179 90 98 0.000000
-0.01311564 -0.02655440 0.18000001 178 92 97 0.000000
-0.01269239 -0.02655440 0.18000001 179 93 98 0.000000
-0.01226914 -0.02655440 0.18000001 176 94 98 0.000000
-0.01184589 -0.02655440 0.18000001 172 90 94 0.000000
-0.01148609 -0.02670192 0.18100001 168 86 92 0.000000
-0.01106049 -0.02670192 0.18100001 169 87 93 0.000000
-0.01063489 -0.02670192 0.18100001 171 86 91 0.000000
-0.01026569 -0.02684945 0.18200001 170 85 90 0.000000
-0.00983774 -0.02684945 0.18200001 177 92 97 0.000000
-0.00940978 -0.02684945 0.18200001 183 98 103 0.000000
-0.00903118 -0.02699697 0.18300001 170 91 94 0.000000
-0.00860088 -0.02699697 0.18300001 174 95 98 0.000000
-0.00817057 -0.02699697 0.18300001 164 99 101 0.000000
-0.00778256 -0.02714450 0.18400002 168 103 105 0.000000
-0.00734991 -0.02714450 0.18400002 151 92 95 0.000000
-0.00691725 -0.02714450 0.18400002 157 98 101 0.000000
-0.00651984 -0.02729202 0.18500000 157 97 105 0.000000
-0.00608483 -0.02729202 0.18500000 156 96 104 0.000000
-0.00564982 -0.02729202 0.18500000 152 92 102 0.000000
-0.00521481 -0.02729202 0.18500000 155 95 105 0.000000
-0.00480564 -0.02743954 0.18600000 158 96 104 0.000000
-0.00436828 -0.02743954 0.18600000 155 93 101 0.000000
-0.00393092 -0.02743954 0.18600000 157 96 99 0.000000
-0.00351235 -0.02758707 0.18700001 159 98 101 0.000000
-0.00307263 -0.02758707 0.18700001 153 91 92 0.000000
-0.00263292 -0.02758707 0.18700001 149 87 88 0.000000
-0.00220494 -0.02773459 0.18800001 154 88 93 0.000000
-0.00176288 -0.02773459 0.18800001 160 94 99 0.000000
-0.00132082 -0.02773459 0.18800001 161 95 102 0.000000
-0.00088343 -0.02788212 0.18900001 160 93 103 0.000000
0.00602755 -0.02906231 0.19700001 153 90 96 0.000000
0.00649077 -0.02906231 0.19700001 151 89 97 0.000000
0.00695400 -0.02906231 0.19700001 153 91 99 0.000000
0.00741722 -0.02906231 0.19700001 152 92 104 0.000000
0.00788045 -0.02906231 0.19700001 158 98 110 0.000000
0.00834367 -0.02906231 0.19700001 153 92 107 0.000000
0.00880690 -0.02906231 0.19700001 155 94 109 0.000000
0.00927012 -0.02906231 0.19700001 155 94 109 0.000000
0.00973334 -0.02906231 0.19700001 153 92 107 0.000000
0.01019657 -0.02906231 0.19700001 157 96 111 0.000000
0.01060568 -0.02891479 0.19600001 153 92 107 0.000000
0.01106656 -0.02891479 0.19600001 156 96 108 0.000000
0.01152743 -0.02891479 0.19600001 152 92 104 0.000000
0.01198830 -0.02891479 0.19600001 155 95 107 0.000000
0.01244918 -0.02891479 0.19600001 153 93 105 0.000000
0.01291005 -0.02891479 0.19600001 150 93 104 0.000000
0.01337092 -0.02891479 0.19600001 146 89 100 0.000000
0.01383180 -0.02891479 0.19600001 144 87 96 0.000000
0.01421975 -0.02876727 0.19500001 153 96 105 0.000000
0.01467827 -0.02876727 0.19500001 158 97 100 0.000000
0.01513679 -0.02876727 0.19500001 152 91 94 0.000000
0.01559531 -0.02876727 0.19500001 134 72 71 0.000000
0.01605383 -0.02876727 0.19500001 142 80 79 0.000000
0.01659703 -0.02891479 0.19600001 134 84 77 0.000000
-0.01480864 -0.02613115 0.18000001 179 83 87 0.000000
-0.01438539 -0.02613115 0.18000001 177 81 85 0.000000
-0.01396214 -0.02613115 0.18000001 179 83 89 0.000000
-0.01353889 -0.02613115 0.18000001 181 85 91 0.000000
-0.01311564 -0.02613115 0.18000001 182 86 92 0.000000
-0.01276290 -0.02627632 0.18100001 177 81 87 0.000000
-0.01233730 -0.02627632 0.18100001 177 87 91 0.000000
-0.01191170 -0.02627632 0.18100001 181 91 95 0.000000
-0.01148609 -0.02627632 0.18100001 174 85 91 0.000000
-0.01106049 -0.02627632 0.18100001 173 84 90 0.000000
-0.01063489 -0.02627632 0.18100001 169 83 92 0.000000
-0.01026569 -0.02642149 0.18200001 168 82 91 0.000000
-0.00983774 -0.02642149 0.18200001 169 84 93 0.000000
-0.00946149 -0.02656667 0.18300001 175 90 99 0.000000
-0.00903118 -0.02656667 0.18300001 170 92 101 0.000000
-0.00864788 -0.02671184 0.18400002 172 94 103 0.000000
-0.00821522 -0.02671184 0.18400002 162 96 103 0.000000
-0.00778256 -0.02671184 0.18400002 167 101 108 0.000000
-0.00738985 -0.02685701 0.18500000 155 93 103 0.000000
-0.00695484 -0.02685701 0.18500000 159 97 107 0.000000
-0.00651984 -0.02685701 0.18500000 159 95 106 0.000000
-0.00608483 -0.02685701 0.18500000 159 95 106 0.000000
-0.00564982 -0.02685701 0.18500000 155 93 105 0.000000
-0.00524300 -0.02700219 0.18600000 158 96 108 0.000000
-0.00480564 -0.02700219 0.18600000 160 98 110 0.000000
-0.00436828 -0.02700219 0.18600000 160 98 110 0.000000
-0.00393092 -0.02700219 0.18600000 159 97 105 0.000000
-0.00351235 -0.02714736 0.18700001 158 96 104 0.000000
-0.00307263 -0.02714736 0.18700001 154 91 95 0.000000
-0.00263292 -0.02714736 0.18700001 152 89 93 0.000000
-0.00220494 -0.02729253 0.18800001 156 90 95 0.000000
-0.00176288 -0.02729253 0.18800001 158 92 97 0.000000
-0.00132082 -0.02729253 0.18800001 159 91 99 0.000000
-0.00088343 -0.02743771 0.18900001 160 89 98 0.000000
-0.00043902 -0.02743771 0.18900001 156 85 94 0.000000
0.00556432 -0.02859909 0.19700001 154 91 97 0.000000
0.00602755 -0.02859909 0.19700001 155 92 98 0.000000
0.00649077 -0.02859909 0.19700001 153 90 96 0.000000
0.00695400 -0.02859909 0.19700001 153 90 96 0.000000
0.00741722 -0.02859909 0.19700001 152 88 97 0.000000
0.00788045 -0.02859909 0.19700001 158 94 103 0.000000
0.00834367 -0.02859909 0.19700001 155 93 105 0.000000
0.00876219 -0.02845392 0.19600001 153 91 103 0.000000
0.00922306 -0.02845392 0.19600001 157 95 107 0.000000
0.00968394 -0.02845392 0.19600001 158 96 108 0.000000
0.01014481 -0.02845392 0.19600001 161 99 109 0.000000
0.01060568 -0.02845392 0.19600001 161 99 109 0.000000
0.01106656 -0.02845392 0.19600001 158 96 104 0.000000
0.01152743 -0.02845392 0.19600001 146 84 92 0.000000
0.01198830 -0.02845392 0.19600001 148 84 95 0.000000
0.01244918 -0.02845392 0.19600001 152 88 99 0.000000
0.01291005 -0.02845392 0.19600001 154 92 102 0.000000
0.01330270 -0.02830874 0.19500001 150 88 98 0.000000
0.01376122 -0.02830874 0.19500001 150 88 96 0.000000
0.01421975 -0.02830874 0.19500001 153 91 99 0.000000
0.01467827 -0.02830874 0.19500001 146 86 84 0.000000
0.01513679 -0.02830874 0.19500001 143 83 81 0.000000
0.01559531 -0.02830874 0.19500001 139 79 75 0.000000
0.01605383 -0.02830874 0.19500001 139 79 75 0.000000
0.01659703 -0.02845392 0.19600001 141 88 82 0.000000
-0.01489091 -0.02585072 0.18100001 175 78 84 0.000000
-0.01446531 -0.02585072 0.18100001 177 80 86 0.000000
-0.01403971 -0.02585072 0.18100001 180 83 87 0.000000
-0.01361411 -0.02585072 0.18100001 182 85 89 0.000000
-0.01318850 -0.02585072 0.18100001 184 87 91 0.000000
-0.01276290 -0.02585072 0.18100001 182 85 89 0.000000
-0.01233730 -0.02585072 0.18100001 179 86 91 0.000000
-0.01191170 -0.02585072 0.18100001 186 93 98 0.000000
-0.01148609 -0.02585072 0.18100001 177 88 96 0.000000
-0.01106049 -0.02585072 0.18100001 176 87 95 0.000000
-0.01069365 -0.02599354 0.18200001 174 84 99 0.000000
-0.01032210 -0.02613636 0.18300001 171 81 96 0.000000
-0.00989179 -0.02613636 0.18300001 168 82 96 0.000000
-0.00946149 -0.02613636 0.18300001 174 88 102 0.000000
-0.00908053 -0.02627918 0.18400002 169 93 106 0.000000
-0.00864788 -0.02627918 0.18400002 171 95 108 0.000000
-0.00821522 -0.02627918 0.18400002 160 96 109 0.000000
-0.00782486 -0.02642200 0.18500000 166 102 115 0.000000
-0.00738985 -0.02642200 0.18500000 159 97 109 0.000000
-0.00695484 -0.02642200 0.18500000 157 95 107 0.000000
-0.00651984 -0.02642200 0.18500000 159 95 108 0.000000
-0.00608483 -0.02642200 0.18500000 160 96 109 0.000000
-0.00568036 -0.02656483 0.18600000 155 92 107 0.000000
-0.00524300 -0.02656483 0.18600000 153 90 105 0.000000
-0.00480564 -0.02656483 0.18600000 152 89 104 0.000000
-0.00436828 -0.02656483 0.18600000 152 89 104 0.000000
-0.00393092 -0.02656483 0.18600000 157 95 107 0.000000
-0.00351235 -0.02670765 0.18700001 162 100 112 0.000000
-0.00307263 -0.02670765 0.18700001 163 100 106 0.000000
-0.00263292 -0.02670765 0.18700001 153 90 96 0.000000
-0.00220494 -0.02685047 0.18800001 153 87 92 0.000000
-0.00176288 -0.02685047 0.18800001 157 91 96 0.000000
-0.00132082 -0.02685047 0.18800001 160 89 98 0.000000
-0.00088343 -0.02699329 0.18900001 162 87 97 0.000000
-0.00043902 -0.02699329 0.18900001 164 89 99 0.000000
0.00000540 -0.02699329 0.18900001 164 90 95 0.000000
0.00602755 -0.02813586 0.19700001 155 89 94 0.000000
0.00649077 -0.02813586 0.19700001 155 89 94 0.000000
0.00695400 -0.02813586 0.19700001 153 87 92 0.000000
0.00741722 -0.02813586 0.19700001 149 82 92 0.000000
0.00830132 -0.02799304 0.19600001 152 88 97 0.000000
0.00876219 -0.02799304 0.19600001 151 87 96 0.000000
0.00922306 -0.02799304 0.19600001 152 88 99 0.000000
0.00968394 -0.02799304 0.19600001 153 89 100 0.000000
0.01014481 -0.02799304 0.19600001 167 103 112 0.000000
0.01060568 -0.02799304 0.19600001 162 98 107 0.000000
0.01106656 -0.02799304 0.19600001 159 95 104 0.000000
0.01152743 -0.02799304 0.19600001 155 91 100 0.000000
0.01198830 -0.02799304 0.19600001 149 85 94 0.000000
0.01238566 -0.02785022 0.19500001 152 88 97 0.000000
0.01284418 -0.02785022 0.19500001 155 91 100 0.000000
0.01330270 -0.02785022 0.19500001 154 90 99 0.000000
0.01376122 -0.02785022 0.19500001 151 87 96 0.000000
0.01421975 -0.02785022 0.19500001 149 85 94 0.000000
0.01467827 -0.02785022 0.19500001 145 85 83 0.000000
0.01513679 -0.02785022 0.19500001 144 84 82 0.000000
0.01559531 -0.02785022 0.19500001 148 88 84 0.000000
0.01605383 -0.02785022 0.19500001 151 91 87 0.000000
0.01659703 -0.02799304 0.19600001 144 90 82 0.000000
-0.01446531 -0.02542512 0.18100001 182 85 91 0.000000
-0.01403971 -0.02542512 0.18100001 179 82 86 0.000000
-0.01361411 -0.02542512 0.18100001 179 82 86 0.000000
-0.01318850 -0.02542512 0.18100001 183 86 90 0.000000
-0.01276290 -0.02542512 0.18100001 179 82 86 0.000000
-0.01233730 -0.02542512 0.18100001 179 85 93 0.000000
-0.01191170 -0.02542512 0.18100001 187 93 101 0.000000
-0.01154955 -0.02556559 0.18200001 181 92 102 0.000000
-0.01112160 -0.02556559 0.18200001 173 84 94 0.000000
-0.01075240 -0.02570606 0.18300001 176 86 99 0.000000
-0.01032210 -0.02570606 0.18300001 174 84 97 0.000000
-0.00989179 -0.02570606 0.18300001 169 82 94 0.000000
-0.00951319 -0.02584653 0.18400002 172 85 97 0.000000
-0.00908053 -0.02584653 0.18400002 168 92 105 0.000000
-0.00864788 -0.02584653 0.18400002 171 95 108 0.000000
-0.00825987 -0.02598700 0.18500000 161 94 106 0.000000
-0.00782486 -0.02598700 0.18500000 168 101 113 0.000000
-0.00738985 -0.02598700 0.18500000 161 97 108 0.000000
-0.00695484 -0.02598700 0.18500000 159 95 106 0.000000
-0.00651984 -0.02598700 0.18500000 160 96 107 0.000000
-0.00608483 -0.02598700 0.18500000 160 96 107 0.000000
-0.00568036 -0.02612747 0.18600000 154 92 104 0.000000
-0.00524300 -0.02612747 0.18600000 153 91 103 0.000000
-0.00480564 -0.02612747 0.18600000 155 93 105 0.000000
-0.00436828 -0.02612747 0.18600000 157 95 107 0.000000
-0.00393092 -0.02612747 0.18600000 152 88 99 0.000000
-0.00351235 -0.02626794 0.18700001 156 92 103 0.000000
-0.00307263 -0.02626794 0.18700001 162 94 102 0.000000
-0.00263292 -0.02626794 0.18700001 163 95 103 0.000000
-0.00219321 -0.02626794 0.18700001 160 89 96 0.000000
-0.00175350 -0.02626794 0.18700001 159 88 95 0.000000
-0.00132082 -0.02640841 0.18800001 157 82 92 0.000000
-0.00087875 -0.02640841 0.18800001 160 80 90 0.000000
-0.00043669 -0.02640841 0.18800001 162 82 92 0.000000
0.00000537 -0.02640841 0.18800001 164 87 93 0.000000
0.00044743 -0.02640841 0.18800001 165 88 94 0.000000
0.00602755 -0.02767264 0.19700001 160 89 96 0.000000
0.00649077 -0.02767264 0.19700001 159 88 95 0.000000
0.00695400 -0.02767264 0.19700001 157 86 93 0.000000
0.00741722 -0.02767264 0.19700001 157 86 93 0.000000
0.00830132 -0.02753217 0.19600001 156 88 96 0.000000
0.00876219 -0.02753217 0.19600001 156 88 96 0.000000
0.00922306 -0.02753217 0.19600001 156 87 98 0.000000
0.00968394 -0.02753217 0.19600001 155 86 97 0.000000
0.01014481 -0.02753217 0.19600001 158 90 98 0.000000
0.01060568 -0.02753217 0.19600001 152 84 92 0.000000
0.01101009 -0.02739170 0.19500001 156 88 96 0.000000
0.01146862 -0.02739170 0.19500001 157 89 97 0.000000
0.01192714 -0.02739170 0.19500001 157 88 99 0.000000
0.01238566 -0.02739170 0.19500001 155 86 97 0.000000
0.01284418 -0.02739170 0.19500001 156 89 99 0.000000
0.01376122 -0.02739170 0.19500001 152 89 95 0.000000
0.01421975 -0.02739170 0.19500001 151 88 94 0.000000
0.01467827 -0.02739170 0.19500001 148 86 87 0.000000
0.01513679 -0.02739170 0.19500001 146 84 85 0.000000
0.01559531 -0.02739170 0.19500001 147 87 85 0.000000
0.01605383 -0.02739170 0.19500001 147 87 85 0.000000
0.01659703 -0.02753217 0.19600001 144 84 80 0.000000
-0.01497318 -0.02513763 0.18200001 188 91 102 0.000000
-0.01454523 -0.02513763 0.18200001 184 87 98 0.000000
-0.01411728 -0.02513763 0.18200001 184 91 96 0.000000
-0.01368932 -0.02513763 0.18200001 179 86 91 0.000000
-0.01326137 -0.02513763 0.18200001 173 80 83 0.000000
-0.01283341 -0.02513763 0.18200001 175 82 85 0.000000
-0.01197751 -0.02513763 0.18200001 184 94 98 0.000000
-0.01161301 -0.02527575 0.18300001 183 94 100 0.000000
-0.01118271 -0.02527575 0.18300001 180 91 97 0.000000
-0.01075240 -0.02527575 0.18300001 178 89 97 0.000000
-0.01032210 -0.02527575 0.18300001 177 88 96 0.000000
-0.00994585 -0.02541387 0.18400002 172 86 95 0.000000
-0.00951319 -0.02541387 0.18400002 172 86 95 0.000000
-0.00908053 -0.02541387 0.18400002 176 93 104 0.000000
-0.00869487 -0.02555199 0.18500000 174 91 102 0.000000
-0.00825987 -0.02555199 0.18500000 163 95 103 0.000000
-0.00782486 -0.02555199 0.18500000 166 98 106 0.000000
-0.00738985 -0.02555199 0.18500000 163 100 106 0.000000
-0.00695484 -0.02555199 0.18500000 159 96 102 0.000000
-0.00651984 -0.02555199 0.18500000 159 97 105 0.000000
-0.00611772 -0.02569011 0.18600000 158 96 104 0.000000
-0.00568036 -0.02569011 0.18600000 158 94 105 0.000000
-0.00524300 -0.02569011 0.18600000 156 92 103 0.000000
-0.00480564 -0.02569011 0.18600000 155 91 102 0.000000
-0.00436828 -0.02569011 0.18600000 159 95 106 0.000000
-0.00393092 -0.02569011 0.18600000 153 89 98 0.000000
-0.00349356 -0.02569011 0.18600000 156 92 101 0.000000
-0.00305620 -0.02569011 0.18600000 161 90 97 0.000000
-0.00263292 -0.02582823 0.18700001 158 87 94 0.000000
-0.00219321 -0.02582823 0.18700001 154 80 88 0.000000
-0.00175350 -0.02582823 0.18700001 159 85 93 0.000000
-0.00131379 -0.02582823 0.18700001 159 81 90 0.000000
-0.00087408 -0.02582823 0.18700001 156 79 85 0.000000
-0.00043437 -0.02582823 0.18700001 164 87 93 0.000000
0.00000534 -0.02582823 0.18700001 163 86 90 0.000000
0.00737957 -0.02707130 0.19600001 160 87 92 0.000000
0.00830132 -0.02707130 0.19600001 160 86 96 0.000000
0.00876219 -0.02707130 0.19600001 160 86 96 0.000000
0.00922306 -0.02707130 0.19600001 158 87 96 0.000000
0.00963453 -0.02693318 0.19500001 159 88 97 0.000000
0.01009305 -0.02693318 0.19500001 159 88 97 0.000000
0.01146862 -0.02693318 0.19500001 158 87 96 0.000000
0.01284418 -0.02693318 0.19500001 154 85 96 0.000000
0.01330270 -0.02693318 0.19500001 159 90 101 0.000000
0.01376122 -0.02693318 0.19500001 154 90 99 0.000000
0.01421975 -0.02693318 0.19500001 148 84 93 0.000000
0.01467827 -0.02693318 0.19500001 146 83 89 0.000000
0.01513679 -0.02693318 0.19500001 148 85 91 0.000000
0.01559531 -0.02693318 0.19500001 146 85 88 0.000000
0.01605383 -0.02693318 0.19500001 144 83 86 0.000000
0.01659703 -0.02707130 0.19600001 141 81 81 0.000000
-0.01497318 -0.02470968 0.18200001 184 86 97 0.000000
-0.01462515 -0.02484545 0.18300001 184 86 97 0.000000
-0.01419484 -0.02484545 0.18300001 183 86 95 0.000000
-0.01376454 -0.02484545 0.18300001 185 88 97 0.000000
-0.01333423 -0.02484545 0.18300001 184 91 96 0.000000
-0.01290393 -0.02484545 0.18300001 184 91 96 0.000000
-0.01247362 -0.02484545 0.18300001 183 90 95 0.000000
-0.01204332 -0.02484545 0.18300001 183 90 95 0.000000
-0.01161301 -0.02484545 0.18300001 183 90 95 0.000000
-0.01118271 -0.02484545 0.18300001 183 90 95 0.000000
-0.01081116 -0.02498122 0.18400002 179 89 93 0.000000
-0.01037850 -0.02498122 0.18400002 179 89 93 0.000000
-0.00994585 -0.02498122 0.18400002 177 87 91 0.000000
-0.00956489 -0.02511698 0.18500000 175 85 89 0.000000
-0.00912988 -0.02511698 0.18500000 175 90 97 0.000000
-0.00869487 -0.02511698 0.18500000 175 90 97 0.000000
-0.00825987 -0.02511698 0.18500000 165 92 97 0.000000
-0.00782486 -0.02511698 0.18500000 162 89 94 0.000000
-0.00738985 -0.02511698 0.18500000 162 96 101 0.000000
-0.00695484 -0.02511698 0.18500000 164 98 103 0.000000
-0.00651984 -0.02511698 0.18500000 156 93 99 0.000000
-0.00608483 -0.02511698 0.18500000 145 82 88 0.000000
-0.00564982 -0.02511698 0.18500000 159 95 104 0.000000
-0.00521481 -0.02511698 0.18500000 151 87 96 0.000000
-0.00477980 -0.02511698 0.18500000 151 84 94 0.000000
-0.00436828 -0.02525275 0.18600000 161 94 104 0.000000
-0.00393092 -0.02525275 0.18600000 159 88 95 0.000000
-0.00349356 -0.02525275 0.18600000 159 88 95 0.000000
-0.00305620 -0.02525275 0.18600000 160 87 92 0.000000
-0.00261884 -0.02525275 0.18600000 159 86 91 0.000000
-0.00218148 -0.02525275 0.18600000 156 82 87 0.000000
-0.00174412 -0.02525275 0.18600000 168 94 99 0.000000
-0.00086941 -0.02525275 0.18600000 162 88 91 0.000000
0.00737957 -0.02661042 0.19600001 154 80 88 0.000000
0.00784044 -0.02661042 0.19600001 155 81 89 0.000000
0.00825896 -0.02647466 0.19500001 161 87 97 0.000000
0.00871748 -0.02647466 0.19500001 161 87 97 0.000000
0.00917601 -0.02647466 0.19500001 161 86 99 0.000000
0.00963453 -0.02647466 0.19500001 162 87 100 0.000000
0.01009305 -0.02647466 0.19500001 163 88 101 0.000000
0.01055157 -0.02647466 0.19500001 158 83 96 0.000000
0.01101009 -0.02647466 0.19500001 160 85 98 0.000000
0.01192714 -0.02647466 0.19500001 154 82 94 0.000000
0.01238566 -0.02647466 0.19500001 152 80 92 0.000000
0.01284418 -0.02647466 0.19500001 154 82 96 0.000000
0.01330270 -0.02647466 0.19500001 161 89 103 0.000000
0.01376122 -0.02647466 0.19500001 151 84 96 0.000000
0.01421975 -0.02647466 0.19500001 153 86 98 0.000000
0.01467827 -0.02647466 0.19500001 151 87 98 0.000000
0.01513679 -0.02647466 0.19500001 153 89 100 0.000000
0.01559531 -0.02647466 0.19500001 149 86 92 0.000000
0.01605383 -0.02647466 0.19500001 145 82 88 0.000000
0.01659703 -0.02661042 0.19600001 140 79 82 0.000000
-0.01591606 -0.02441514 0.18300001 185 85 92 0.000000
-0.01548576 -0.02441514 0.18300001 185 85 92 0.000000
-0.01505545 -0.02441514 0.18300001 185 88 94 0.000000
-0.01462515 -0.02441514 0.18300001 185 88 94 0.000000
-0.01419484 -0.02441514 0.18300001 185 88 92 0.000000
-0.01376454 -0.02441514 0.18300001 185 88 92 0.000000
-0.01333423 -0.02441514 0.18300001 188 92 96 0.000000
-0.01290393 -0.02441514 0.18300001 183 87 91 0.000000
-0.01254178 -0.02454856 0.18400002 181 85 89 0.000000
-0.01210913 -0.02454856 0.18400002 183 87 91 0.000000
-0.01167647 -0.02454856 0.18400002 183 87 91 0.000000
-0.01124381 -0.02454856 0.18400002 182 86 90 0.000000
-0.01081116 -0.02454856 0.18400002 181 85 89 0.000000
-0.01037850 -0.02454856 0.18400002 181 85 89 0.000000
-0.00999990 -0.02468197 0.18500000 175 85 87 0.000000
-0.00956489 -0.02468197 0.18500000 172 82 84 0.000000
-0.00912988 -0.02468197 0.18500000 170 85 90 0.000000
-0.00869487 -0.02468197 0.18500000 176 91 96 0.000000
-0.00825987 -0.02468197 0.18500000 176 97 102 0.000000
-0.00782486 -0.02468197 0.18500000 166 87 92 0.000000
-0.00738985 -0.02468197 0.18500000 163 89 94 0.000000
-0.00695484 -0.02468197 0.18500000 161 87 92 0.000000
-0.00651984 -0.02468197 0.18500000 152 84 90 0.000000
-0.00608483 -0.02468197 0.18500000 152 84 90 0.000000
-0.00564982 -0.02468197 0.18500000 151 82 93 0.000000
-0.00521481 -0.02468197 0.18500000 151 82 93 0.000000
-0.00477980 -0.02468197 0.18500000 152 81 88 0.000000
-0.00434480 -0.02468197 0.18500000 164 93 100 0.000000
-0.00390979 -0.02468197 0.18500000 161 87 90 0.000000
-0.00347478 -0.02468197 0.18500000 156 82 85 0.000000
-0.00303977 -0.02468197 0.18500000 162 88 91 0.000000
-0.00260476 -0.02468197 0.18500000 162 88 91 0.000000
-0.00216976 -0.02468197 0.18500000 160 86 89 0.000000
-0.00173475 -0.02468197 0.18500000 167 93 96 0.000000
0.00780044 -0.02601613 0.19500001 156 85 94 0.000000
0.00825896 -0.02601613 0.19500001 158 86 102 0.000000
0.00871748 -0.02601613 0.19500001 156 84 100 0.000000
0.00917601 -0.02601613 0.19500001 151 79 95 0.000000
0.01055157 -0.02601613 0.19500001 160 85 100 0.000000
0.01238566 -0.02601613 0.19500001 159 84 97 0.000000
0.01284418 -0.02601613 0.19500001 156 81 94 0.000000
0.01330270 -0.02601613 0.19500001 161 86 99 0.000000
0.01376122 -0.02601613 0.19500001 157 85 99 0.000000
0.01421975 -0.02601613 0.19500001 156 84 98 0.000000
0.01467827 -0.02601613 0.19500001 157 90 102 0.000000
0.01513679 -0.02601613 0.19500001 149 82 94 0.000000
0.01559531 -0.02601613 0.19500001 145 82 88 0.000000
0.01605383 -0.02601613 0.19500001 142 79 85 0.000000
-0.01739503 -0.02424696 0.18500000 184 79 86 0.000000
-0.01686835 -0.02411590 0.18400002 184 79 86 0.000000
-0.01643569 -0.02411590 0.18400002 184 79 86 0.000000
-0.01600304 -0.02411590 0.18400002 189 87 93 0.000000
-0.01557038 -0.02411590 0.18400002 185 83 89 0.000000
-0.01513772 -0.02411590 0.18400002 181 81 88 0.000000
-0.01470507 -0.02411590 0.18400002 182 82 89 0.000000
-0.01427241 -0.02411590 0.18400002 184 84 89 0.000000
-0.01383975 -0.02411590 0.18400002 184 84 89 0.000000
-0.01340710 -0.02411590 0.18400002 185 85 90 0.000000
-0.01297444 -0.02411590 0.18400002 188 88 93 0.000000
-0.01254178 -0.02411590 0.18400002 184 87 91 0.000000
-0.01210913 -0.02411590 0.18400002 183 86 90 0.000000
-0.01167647 -0.02411590 0.18400002 185 85 90 0.000000
-0.01124381 -0.02411590 0.18400002 181 81 86 0.000000
-0.01086991 -0.02424696 0.18500000 183 86 90 0.000000
-0.01043491 -0.02424696 0.18500000 180 83 87 0.000000
-0.00999990 -0.02424696 0.18500000 179 83 87 0.000000
-0.00956489 -0.02424696 0.18500000 177 81 85 0.000000
-0.00912988 -0.02424696 0.18500000 170 85 87 0.000000
-0.00869487 -0.02424696 0.18500000 176 91 93 0.000000
-0.00825987 -0.02424696 0.18500000 176 94 98 0.000000
-0.00782486 -0.02424696 0.18500000 172 90 94 0.000000
-0.00738985 -0.02424696 0.18500000 169 92 96 0.000000
-0.00695484 -0.02424696 0.18500000 168 91 95 0.000000
-0.00651984 -0.02424696 0.18500000 160 87 92 0.000000
-0.00608483 -0.02424696 0.18500000 163 90 95 0.000000
-0.00564982 -0.02424696 0.18500000 161 91 95 0.000000
-0.00521481 -0.02424696 0.18500000 152 82 86 0.000000
-0.00477980 -0.02424696 0.18500000 156 83 88 0.000000
-0.00434480 -0.02424696 0.18500000 158 85 90 0.000000
-0.00390979 -0.02424696 0.18500000 155 81 84 0.000000
-0.00347478 -0.02424696 0.18500000 155 81 84 0.000000
-0.00303977 -0.02424696 0.18500000 162 85 89 0.000000
-0.00259068 -0.02411590 0.18400002 163 86 90 0.000000
-0.00216976 -0.02424696 0.18500000 164 87 91 0.000000
-0.00173475 -0.02424696 0.18500000 160 86 89 0.000000
-0.00129974 -0.02424696 0.18500000 160 86 89 0.000000
-0.00086473 -0.02424696 0.18500000 160 86 89 0.000000
-0.00042972 -0.02424696 0.18500000 160 86 89 0.000000
0.00000528 -0.02424696 0.18500000 163 89 94 0.000000
0.00043791 -0.02411590 0.18400002 159 85 90 0.000000
0.01330270 -0.02555761 0.19500001 159 87 99 0.000000
0.01460300 -0.02542655 0.19400001 151 82 93 0.000000
-0.01652502 -0.02381196 0.18500000 185 84 87 0.000000
-0.01609001 -0.02381196 0.18500000 184 84 89 0.000000
-0.01557038 -0.02368325 0.18400002 187 87 92 0.000000
-0.01513772 -0.02368325 0.18400002 184 84 89 0.000000
-0.01470507 -0.02368325 0.18400002 185 85 90 0.000000
-0.01427241 -0.02368325 0.18400002 185 86 88 0.000000
-0.01383975 -0.02368325 0.18400002 182 83 85 0.000000
-0.01340710 -0.02368325 0.18400002 184 85 87 0.000000
-0.01297444 -0.02368325 0.18400002 184 85 87 0.000000
-0.01260995 -0.02381196 0.18500000 185 86 88 0.000000
-0.01217494 -0.02381196 0.18500000 182 83 85 0.000000
-0.01173993 -0.02381196 0.18500000 179 82 86 0.000000
-0.01130492 -0.02381196 0.18500000 182 85 89 0.000000
-0.01086991 -0.02381196 0.18500000 184 87 91 0.000000
-0.01043491 -0.02381196 0.18500000 178 81 85 0.000000
-0.00999990 -0.02381196 0.18500000 177 81 85 0.000000
-0.00956489 -0.02381196 0.18500000 175 79 83 0.000000
-0.00912988 -0.02381196 0.18500000 174 86 87 0.000000
-0.00874187 -0.02394067 0.18600000 177 89 90 0.000000
