0.00664038 -0.02761171 0.16600001 153 80 76 0.000000
0.00703071 -0.02761171 0.16600001 154 82 75 0.000000
0.00742104 -0.02761171 0.16600001 154 82 75 0.000000
0.00776431 -0.02744537 0.16500001 163 85 85 0.000000
0.00815229 -0.02744537 0.16500001 157 79 79 0.000000
0.00854027 -0.02744537 0.16500001 159 81 92 0.000000
0.00892825 -0.02744537 0.16500001 158 80 91 0.000000
0.00931623 -0.02744537 0.16500001 154 82 98 0.000000
0.00964540 -0.02727904 0.16400000 150 78 94 0.000000
0.01003103 -0.02727904 0.16400000 148 81 95 0.000000
0.01041666 -0.02727904 0.16400000 151 84 98 0.000000
0.01086815 -0.02744537 0.16500001 151 89 99 0.000000
0.01125613 -0.02744537 0.16500001 152 90 100 0.000000
0.01164411 -0.02744537 0.16500001 150 88 96 0.000000
0.01203209 -0.02744537 0.16500001 148 86 94 0.000000
0.01242007 -0.02744537 0.16500001 151 88 94 0.000000
0.02741322 -0.03127109 0.18800001 152 82 84 0.000000
-0.04110646 -0.03050106 0.18600000 120 45 35 0.000000
-0.04066910 -0.03050106 0.18600000 131 56 46 0.000000
-0.04023175 -0.03050106 0.18600000 137 66 59 0.000000
-0.03979439 -0.03050106 0.18600000 142 71 64 0.000000
-0.03935703 -0.03050106 0.18600000 143 75 65 0.000000
-0.03891967 -0.03050106 0.18600000 139 71 61 0.000000
-0.03848230 -0.03050106 0.18600000 136 68 58 0.000000
-0.03804495 -0.03050106 0.18600000 135 67 57 0.000000
-0.03760759 -0.03050106 0.18600000 139 71 61 0.000000
-0.03717023 -0.03050106 0.18600000 139 71 61 0.000000
-0.03673287 -0.03050106 0.18600000 144 76 66 0.000000
-0.03498343 -0.03050106 0.18600000 137 60 62 0.000000
-0.03454607 -0.03050106 0.18600000 133 56 58 0.000000
-0.03410871 -0.03050106 0.18600000 130 49 50 0.000000
-0.03367135 -0.03050106 0.18600000 139 58 59 0.000000
-0.00534442 -0.02869724 0.17500001 163 65 78 0.000000
-0.00493293 -0.02869724 0.17500001 165 67 80 0.000000
-0.00452144 -0.02869724 0.17500001 167 65 82 0.000000
-0.00410994 -0.02869724 0.17500001 165 63 80 0.000000
-0.00369845 -0.02869724 0.17500001 165 66 84 0.000000
-0.00326817 -0.02853325 0.17400001 169 70 88 0.000000
-0.00285903 -0.02853325 0.17400001 171 72 88 0.000000
-0.00244989 -0.02853325 0.17400001 172 73 89 0.000000
-0.00202902 -0.02836927 0.17300001 170 72 85 0.000000
-0.00162222 -0.02836927 0.17300001 171 73 86 0.000000
-0.00121543 -0.02836927 0.17300001 172 76 80 0.000000
-0.00080397 -0.02820528 0.17200001 177 84 89 0.000000
-0.00039953 -0.02820528 0.17200001 177 84 89 0.000000
0.00000488 -0.02804130 0.17100000 172 78 86 0.000000
0.00040697 -0.02804130 0.17100000 172 78 86 0.000000
0.00080433 -0.02787731 0.17000000 174 77 86 0.000000
0.00120407 -0.02787731 0.17000000 168 71 80 0.000000
0.00160380 -0.02787731 0.17000000 168 71 80 0.000000
0.00199175 -0.02771333 0.16900001 167 70 79 0.000000
0.00238914 -0.02771333 0.16900001 167 73 81 0.000000
0.00278653 -0.02771333 0.16900001 169 75 83 0.000000
0.00316507 -0.02754935 0.16800001 168 77 86 0.000000
0.00356011 -0.02754935 0.16800001 171 80 89 0.000000
0.00395514 -0.02754935 0.16800001 175 93 101 0.000000
0.00435017 -0.02754935 0.16800001 171 89 97 0.000000
0.00474521 -0.02754935 0.16800001 161 87 92 0.000000
0.00510965 -0.02738536 0.16700001 157 83 88 0.000000
0.00550233 -0.02738536 0.16700001 155 82 85 0.000000
0.00589501 -0.02738536 0.16700001 158 85 88 0.000000
0.00628769 -0.02738536 0.16700001 156 83 84 0.000000
0.00664038 -0.02722138 0.16600001 153 80 81 0.000000
0.00703071 -0.02722138 0.16600001 152 80 78 0.000000
0.00742104 -0.02722138 0.16600001 155 83 81 0.000000
0.00776431 -0.02705739 0.16500001 154 81 82 0.000000
0.00815229 -0.02705739 0.16500001 152 79 80 0.000000
0.00854027 -0.02705739 0.16500001 153 79 87 0.000000
0.00892825 -0.02705739 0.16500001 152 78 86 0.000000
0.00931623 -0.02705739 0.16500001 152 83 96 0.000000
0.00970421 -0.02705739 0.16500001 150 81 94 0.000000
0.01009219 -0.02705739 0.16500001 141 77 90 0.000000
0.01048017 -0.02705739 0.16500001 148 84 97 0.000000
0.01125613 -0.02705739 0.16500001 151 89 99 0.000000
0.01164411 -0.02705739 0.16500001 149 86 90 0.000000
0.01203209 -0.02705739 0.16500001 152 89 93 0.000000
0.01242007 -0.02705739 0.16500001 153 91 90 0.000000
-0.04066910 -0.03006370 0.18600000 145 70 64 0.000000
-0.04023175 -0.03006370 0.18600000 138 65 68 0.000000
-0.03979439 -0.03006370 0.18600000 142 69 72 0.000000
-0.03935703 -0.03006370 0.18600000 143 73 73 0.000000
-0.03891967 -0.03006370 0.18600000 142 72 72 0.000000
-0.03760759 -0.03006370 0.18600000 136 67 64 0.000000
-0.03498343 -0.03006370 0.18600000 137 64 65 0.000000
-0.03454607 -0.03006370 0.18600000 139 66 67 0.000000
-0.03410871 -0.03006370 0.18600000 142 65 67 0.000000
-0.03367135 -0.03006370 0.18600000 143 66 68 0.000000
-0.03323400 -0.03006370 0.18600000 148 63 65 0.000000
-0.00534442 -0.02828574 0.17500001 169 71 82 0.000000
-0.00493293 -0.02828574 0.17500001 165 67 78 0.000000
-0.00452144 -0.02828574 0.17500001 164 66 79 0.000000
-0.00410994 -0.02828574 0.17500001 164 66 79 0.000000
-0.00367731 -0.02812411 0.17400001 172 74 87 0.000000
-0.00326817 -0.02812411 0.17400001 170 72 85 0.000000
-0.00285903 -0.02812411 0.17400001 172 75 88 0.000000
-0.00244989 -0.02812411 0.17400001 172 75 88 0.000000
-0.00202902 -0.02796247 0.17300001 171 74 85 0.000000
-0.00162222 -0.02796247 0.17300001 169 72 83 0.000000
-0.00121543 -0.02796247 0.17300001 174 79 78 0.000000
-0.00080397 -0.02780084 0.17200001 183 88 85 0.000000
-0.00039953 -0.02780084 0.17200001 182 87 84 0.000000
0.00000488 -0.02763921 0.17100000 170 74 78 0.000000
0.00040697 -0.02763921 0.17100000 171 75 79 0.000000
0.00080433 -0.02747758 0.17000000 173 76 80 0.000000
0.00120407 -0.02747758 0.17000000 170 73 77 0.000000
0.00160380 -0.02747758 0.17000000 165 68 72 0.000000
0.00199175 -0.02731594 0.16900001 164 67 71 0.000000
0.00238914 -0.02731594 0.16900001 165 69 75 0.000000
0.00278653 -0.02731594 0.16900001 168 72 78 0.000000
0.00316507 -0.02715431 0.16800001 166 76 80 0.000000
0.00356011 -0.02715431 0.16800001 168 78 82 0.000000
0.00395514 -0.02715431 0.16800001 169 83 88 0.000000
0.00435017 -0.02715431 0.16800001 171 85 90 0.000000
0.00474521 -0.02715431 0.16800001 163 84 87 0.000000
0.00510965 -0.02699268 0.16700001 159 80 83 0.000000
0.00550233 -0.02699268 0.16700001 154 80 81 0.000000
0.00589501 -0.02699268 0.16700001 156 82 83 0.000000
0.00628769 -0.02699268 0.16700001 155 82 83 0.000000
0.00664038 -0.02683104 0.16600001 154 81 82 0.000000
0.00703071 -0.02683104 0.16600001 152 82 82 0.000000
0.00742104 -0.02683104 0.16600001 154 84 84 0.000000
0.00781137 -0.02683104 0.16600001 153 83 85 0.000000
0.00815229 -0.02666941 0.16500001 152 82 84 0.000000
0.00892825 -0.02666941 0.16500001 147 79 87 0.000000
0.00970421 -0.02666941 0.16500001 149 80 91 0.000000
0.02755895 -0.03006370 0.18600000 152 87 78 0.000000
-0.04110646 -0.02962634 0.18600000 138 64 65 0.000000
-0.04066910 -0.02962634 0.18600000 143 69 70 0.000000
-0.04023175 -0.02962634 0.18600000 144 71 76 0.000000
-0.03979439 -0.02962634 0.18600000 140 67 72 0.000000
-0.03935703 -0.02962634 0.18600000 140 70 72 0.000000
-0.03891967 -0.02962634 0.18600000 143 73 75 0.000000
-0.03848230 -0.02962634 0.18600000 138 65 66 0.000000
-0.03804495 -0.02962634 0.18600000 137 64 65 0.000000
-0.03542079 -0.02962634 0.18600000 143 73 73 0.000000
-0.03498343 -0.02962634 0.18600000 137 67 69 0.000000
-0.03454607 -0.02962634 0.18600000 139 69 71 0.000000
-0.03410871 -0.02962634 0.18600000 146 73 78 0.000000
-0.03367135 -0.02962634 0.18600000 137 64 69 0.000000
-0.03323400 -0.02962634 0.18600000 139 57 61 0.000000
-0.00452144 -0.02787425 0.17500001 166 68 81 0.000000
-0.00408646 -0.02771497 0.17400001 170 72 85 0.000000
-0.00367731 -0.02771497 0.17400001 176 79 92 0.000000
-0.00326817 -0.02771497 0.17400001 171 74 87 0.000000
-0.00285903 -0.02771497 0.17400001 174 77 90 0.000000
-0.00244989 -0.02771497 0.17400001 175 78 91 0.000000
-0.00202902 -0.02755568 0.17300001 175 81 91 0.000000
-0.00162222 -0.02755568 0.17300001 168 74 84 0.000000
-0.00121543 -0.02755568 0.17300001 163 71 69 0.000000
-0.00080864 -0.02755568 0.17300001 176 85 78 0.000000
-0.00039953 -0.02739640 0.17200001 170 79 72 0.000000
0.00000488 -0.02723712 0.17100000 174 79 78 0.000000
0.00040697 -0.02723712 0.17100000 172 77 76 0.000000
0.00080433 -0.02707784 0.17000000 169 73 74 0.000000
0.00120407 -0.02707784 0.17000000 171 75 76 0.000000
0.00160380 -0.02707784 0.17000000 171 76 77 0.000000
0.00199175 -0.02691856 0.16900001 170 75 76 0.000000
0.00238914 -0.02691856 0.16900001 168 73 74 0.000000
0.00278653 -0.02691856 0.16900001 170 75 76 0.000000
0.00316507 -0.02675928 0.16800001 173 80 85 0.000000
0.00356011 -0.02675928 0.16800001 174 81 86 0.000000
0.00395514 -0.02675928 0.16800001 167 77 79 0.000000
0.00435017 -0.02675928 0.16800001 171 81 83 0.000000
0.00474521 -0.02675928 0.16800001 168 84 79 0.000000
0.00510965 -0.02660000 0.16700001 164 80 75 0.000000
0.00550233 -0.02660000 0.16700001 160 80 76 0.000000
0.00589501 -0.02660000 0.16700001 162 82 78 0.000000
0.00628769 -0.02660000 0.16700001 159 81 79 0.000000
0.00664038 -0.02644071 0.16600001 162 84 82 0.000000
0.00703071 -0.02644071 0.16600001 156 84 82 0.000000
0.00742104 -0.02644071 0.16600001 155 83 81 0.000000
0.00781137 -0.02644071 0.16600001 148 81 82 0.000000
0.00820170 -0.02644071 0.16600001 151 84 85 0.000000
0.00854027 -0.02628143 0.16500001 147 84 90 0.000000
0.02449743 -0.02962634 0.18600000 153 85 75 0.000000
0.02493479 -0.02962634 0.18600000 150 82 72 0.000000
0.02523574 -0.02946706 0.18500000 154 86 76 0.000000
0.02580951 -0.02962634 0.18600000 158 90 80 0.000000
0.02610576 -0.02946706 0.18500000 154 86 76 0.000000
0.02668423 -0.02962634 0.18600000 151 86 75 0.000000
0.02712159 -0.02962634 0.18600000 152 87 76 0.000000
0.02755895 -0.02962634 0.18600000 155 90 79 0.000000
0.02799631 -0.02962634 0.18600000 151 86 75 0.000000
-0.04132747 -0.02934591 0.18700001 133 59 62 0.000000
-0.04088775 -0.02934591 0.18700001 139 65 68 0.000000
-0.04023175 -0.02918898 0.18600000 140 70 72 0.000000
-0.03979439 -0.02918898 0.18600000 139 69 71 0.000000
-0.03935703 -0.02918898 0.18600000 139 69 69 0.000000
-0.03891967 -0.02918898 0.18600000 139 69 69 0.000000
-0.03848230 -0.02918898 0.18600000 138 66 64 0.000000
-0.03629551 -0.02918898 0.18600000 142 68 69 0.000000
-0.03585815 -0.02918898 0.18600000 141 74 73 0.000000
-0.03542079 -0.02918898 0.18600000 140 73 72 0.000000
-0.03498343 -0.02918898 0.18600000 138 71 74 0.000000
-0.03454607 -0.02918898 0.18600000 137 70 73 0.000000
-0.03410871 -0.02918898 0.18600000 146 71 79 0.000000
-0.03367135 -0.02918898 0.18600000 146 71 79 0.000000
-0.00449560 -0.02730582 0.17400001 164 67 78 0.000000
-0.00408646 -0.02730582 0.17400001 164 67 78 0.000000
-0.00367731 -0.02730582 0.17400001 165 68 79 0.000000
-0.00326817 -0.02730582 0.17400001 170 73 84 0.000000
-0.00285903 -0.02730582 0.17400001 167 73 83 0.000000
-0.00244989 -0.02730582 0.17400001 163 69 79 0.000000
-0.00202902 -0.02714889 0.17300001 175 84 93 0.000000
-0.00162222 -0.02714889 0.17300001 171 80 89 0.000000
-0.00121543 -0.02714889 0.17300001 164 77 75 0.000000
-0.00080397 -0.02699196 0.17200001 174 86 78 0.000000
-0.00039953 -0.02699196 0.17200001 171 83 75 0.000000
0.00000488 -0.02683503 0.17100000 172 80 76 0.000000
0.00040697 -0.02683503 0.17100000 172 80 76 0.000000
0.00080433 -0.02667810 0.17000000 169 77 75 0.000000
0.00120407 -0.02667810 0.17000000 170 78 76 0.000000
0.00160380 -0.02667810 0.17000000 169 77 75 0.000000
0.00199175 -0.02652117 0.16900001 169 77 75 0.000000
0.00238914 -0.02652117 0.16900001 162 70 70 0.000000
0.00278653 -0.02652117 0.16900001 165 73 73 0.000000
0.00316507 -0.02636424 0.16800001 166 73 76 0.000000
0.00356011 -0.02636424 0.16800001 167 74 77 0.000000
0.00395514 -0.02636424 0.16800001 172 80 80 0.000000
0.00435017 -0.02636424 0.16800001 175 83 83 0.000000
0.00474521 -0.02636424 0.16800001 165 76 73 0.000000
0.00510965 -0.02620731 0.16700001 165 76 73 0.000000
0.00550233 -0.02620731 0.16700001 160 77 74 0.000000
0.00589501 -0.02620731 0.16700001 163 80 77 0.000000
0.00628769 -0.02620731 0.16700001 156 79 74 0.000000
0.00664038 -0.02605038 0.16600001 155 78 73 0.000000
0.00703071 -0.02605038 0.16600001 154 79 73 0.000000
0.00742104 -0.02605038 0.16600001 155 80 74 0.000000
0.00781137 -0.02605038 0.16600001 149 79 79 0.000000
0.00820170 -0.02605038 0.16600001 153 83 83 0.000000
0.00859203 -0.02605038 0.16600001 146 85 90 0.000000
0.00892825 -0.02589345 0.16500001 143 82 87 0.000000
0.00931623 -0.02589345 0.16500001 141 80 85 0.000000
0.00970421 -0.02589345 0.16500001 143 82 87 0.000000
0.01009219 -0.02589345 0.16500001 142 79 85 0.000000
0.01048017 -0.02589345 0.16500001 141 78 84 0.000000
0.01086815 -0.02589345 0.16500001 142 79 85 0.000000
0.01132435 -0.02605038 0.16600001 147 84 90 0.000000
0.01249535 -0.02605038 0.16600001 140 79 82 0.000000
0.02436573 -0.02903205 0.18500000 153 85 75 0.000000
0.02480074 -0.02903205 0.18500000 153 85 75 0.000000
0.02523574 -0.02903205 0.18500000 154 86 76 0.000000
0.02567075 -0.02903205 0.18500000 158 90 80 0.000000
0.02610576 -0.02903205 0.18500000 157 89 79 0.000000
0.02654077 -0.02903205 0.18500000 158 90 80 0.000000
0.02697577 -0.02903205 0.18500000 156 88 78 0.000000
0.02741078 -0.02903205 0.18500000 155 92 82 0.000000
0.02784579 -0.02903205 0.18500000 157 94 84 0.000000
-0.04132747 -0.02890620 0.18700001 133 59 62 0.000000
-0.04088775 -0.02890620 0.18700001 136 62 65 0.000000
-0.04044804 -0.02890620 0.18700001 141 68 71 0.000000
-0.04000833 -0.02890620 0.18700001 145 72 75 0.000000
-0.03956862 -0.02890620 0.18700001 145 73 71 0.000000
-0.03891967 -0.02875162 0.18600000 144 72 70 0.000000
-0.03848230 -0.02875162 0.18600000 148 76 72 0.000000
-0.03804495 -0.02875162 0.18600000 145 73 69 0.000000
-0.03780978 -0.02890620 0.18700001 146 73 71 0.000000
-0.03737007 -0.02890620 0.18700001 136 63 61 0.000000
-0.03693036 -0.02890620 0.18700001 141 65 64 0.000000
-0.03649065 -0.02890620 0.18700001 144 68 67 0.000000
-0.03605094 -0.02890620 0.18700001 145 72 73 0.000000
-0.03561122 -0.02890620 0.18700001 146 73 74 0.000000
-0.03498343 -0.02875162 0.18600000 141 68 69 0.000000
-0.03454607 -0.02875162 0.18600000 141 68 69 0.000000
-0.03410871 -0.02875162 0.18600000 141 67 72 0.000000
-0.00449560 -0.02689668 0.17400001 157 66 73 0.000000
-0.00408646 -0.02689668 0.17400001 157 66 73 0.000000
-0.00367731 -0.02689668 0.17400001 159 65 73 0.000000
-0.00326817 -0.02689668 0.17400001 159 65 73 0.000000
-0.00285903 -0.02689668 0.17400001 155 61 69 0.000000
-0.00243581 -0.02674210 0.17300001 169 75 83 0.000000
-0.00202902 -0.02674210 0.17300001 174 85 91 0.000000
-0.00162222 -0.02674210 0.17300001 166 77 83 0.000000
-0.00121543 -0.02674210 0.17300001 168 83 85 0.000000
-0.00080397 -0.02658752 0.17200001 171 87 84 0.000000
-0.00039953 -0.02658752 0.17200001 168 84 81 0.000000
0.00000488 -0.02643294 0.17100000 166 79 77 0.000000
0.00040697 -0.02643294 0.17100000 165 78 76 0.000000
0.00080433 -0.02627836 0.17000000 165 76 75 0.000000
0.00120407 -0.02627836 0.17000000 166 77 76 0.000000
0.00159437 -0.02612379 0.16900001 167 75 73 0.000000
0.00199175 -0.02612379 0.16900001 165 73 71 0.000000
0.00238914 -0.02612379 0.16900001 163 71 69 0.000000
0.00278653 -0.02612379 0.16900001 165 73 71 0.000000
0.00316507 -0.02596921 0.16800001 166 74 74 0.000000
0.00356011 -0.02596921 0.16800001 165 73 73 0.000000
0.00395514 -0.02596921 0.16800001 166 76 78 0.000000
0.00435017 -0.02596921 0.16800001 167 77 79 0.000000
0.00474521 -0.02596921 0.16800001 163 76 74 0.000000
0.00510965 -0.02581463 0.16700001 162 75 73 0.000000
0.00550233 -0.02581463 0.16700001 157 73 73 0.000000
0.00589501 -0.02581463 0.16700001 156 72 72 0.000000
0.00628769 -0.02581463 0.16700001 149 72 67 0.000000
0.00668038 -0.02581463 0.16700001 150 73 68 0.000000
0.00703071 -0.02566005 0.16600001 152 77 71 0.000000
0.00742104 -0.02566005 0.16600001 154 79 73 0.000000
0.00781137 -0.02566005 0.16600001 151 79 75 0.000000
0.00820170 -0.02566005 0.16600001 149 77 73 0.000000
0.00859203 -0.02566005 0.16600001 140 78 77 0.000000
0.00898236 -0.02566005 0.16600001 142 80 79 0.000000
0.00931623 -0.02550547 0.16500001 140 79 82 0.000000
0.00976303 -0.02566005 0.16600001 139 78 81 0.000000
0.01015336 -0.02566005 0.16600001 139 78 83 0.000000
0.01054369 -0.02566005 0.16600001 134 73 78 0.000000
0.01093402 -0.02566005 0.16600001 137 74 80 0.000000
0.01132435 -0.02566005 0.16600001 144 81 87 0.000000
0.01171468 -0.02566005 0.16600001 144 82 90 0.000000
0.01210502 -0.02566005 0.16600001 144 82 90 0.000000
0.01249535 -0.02566005 0.16600001 141 82 87 0.000000
0.01444700 -0.02566005 0.16600001 141 85 89 0.000000
0.02436573 -0.02859704 0.18500000 152 87 78 0.000000
0.02480074 -0.02859704 0.18500000 154 89 80 0.000000
0.02523574 -0.02859704 0.18500000 156 91 82 0.000000
0.02567075 -0.02859704 0.18500000 154 89 80 0.000000
0.02610576 -0.02859704 0.18500000 155 90 81 0.000000
0.02697577 -0.02859704 0.18500000 154 89 80 0.000000
0.02741078 -0.02859704 0.18500000 154 91 81 0.000000
0.02784579 -0.02859704 0.18500000 150 87 77 0.000000
0.02828080 -0.02859704 0.18500000 135 87 91 0.000000
-0.04132747 -0.02846649 0.18700001 139 66 64 0.000000
-0.04088775 -0.02846649 0.18700001 139 66 64 0.000000
-0.04044804 -0.02846649 0.18700001 140 66 67 0.000000
-0.04000833 -0.02846649 0.18700001 142 68 69 0.000000
-0.03935703 -0.02831426 0.18600000 148 72 69 0.000000
-0.03891967 -0.02831426 0.18600000 147 71 68 0.000000
-0.03848230 -0.02831426 0.18600000 148 73 65 0.000000
-0.03804495 -0.02831426 0.18600000 149 74 66 0.000000
-0.03780978 -0.02846649 0.18700001 145 73 66 0.000000
-0.03737007 -0.02846649 0.18700001 138 66 59 0.000000
-0.03693036 -0.02846649 0.18700001 138 65 61 0.000000
-0.03649065 -0.02846649 0.18700001 141 68 64 0.000000
-0.03605094 -0.02846649 0.18700001 145 73 71 0.000000
-0.03561122 -0.02846649 0.18700001 155 83 81 0.000000
-0.03498343 -0.02831426 0.18600000 142 69 70 0.000000
-0.03454607 -0.02831426 0.18600000 142 69 70 0.000000
-0.03410871 -0.02831426 0.18600000 143 66 68 0.000000
-0.00449560 -0.02648754 0.17400001 155 66 72 0.000000
-0.00408646 -0.02648754 0.17400001 156 67 73 0.000000
-0.00367731 -0.02648754 0.17400001 156 65 72 0.000000
-0.00324939 -0.02633531 0.17300001 159 68 75 0.000000
-0.00284260 -0.02633531 0.17300001 159 68 75 0.000000
-0.00243581 -0.02633531 0.17300001 160 69 76 0.000000
-0.00202902 -0.02633531 0.17300001 155 66 72 0.000000
-0.00162222 -0.02633531 0.17300001 160 71 77 0.000000
-0.00120841 -0.02618308 0.17200001 165 79 84 0.000000
-0.00080397 -0.02618308 0.17200001 168 82 87 0.000000
-0.00039953 -0.02618308 0.17200001 167 81 86 0.000000
0.00000488 -0.02603086 0.17100000 165 79 84 0.000000
0.00040459 -0.02587863 0.17000000 168 82 87 0.000000
0.00080433 -0.02587863 0.17000000 167 79 82 0.000000
0.00120407 -0.02587863 0.17000000 162 74 77 0.000000
0.00159437 -0.02572640 0.16900001 153 61 59 0.000000
0.00199175 -0.02572640 0.16900001 162 70 68 0.000000
0.00238914 -0.02572640 0.16900001 162 70 68 0.000000
0.00277004 -0.02557418 0.16800001 163 71 69 0.000000
0.00316507 -0.02557418 0.16800001 154 64 66 0.000000
0.00356011 -0.02557418 0.16800001 154 64 66 0.000000
0.00395514 -0.02557418 0.16800001 155 67 70 0.000000
0.00435017 -0.02557418 0.16800001 163 75 78 0.000000
0.00474521 -0.02557418 0.16800001 157 72 79 0.000000
0.00510965 -0.02542195 0.16700001 157 72 79 0.000000
0.00550233 -0.02542195 0.16700001 150 71 76 0.000000
0.00589501 -0.02542195 0.16700001 151 72 77 0.000000
0.00628769 -0.02542195 0.16700001 146 72 75 0.000000
0.00668038 -0.02542195 0.16700001 146 72 75 0.000000
0.00703071 -0.02526972 0.16600001 146 74 70 0.000000
0.00742104 -0.02526972 0.16600001 147 75 71 0.000000
0.00781137 -0.02526972 0.16600001 144 76 68 0.000000
0.00815229 -0.02511749 0.16500001 143 75 67 0.000000
0.00854027 -0.02511749 0.16500001 143 77 73 0.000000
0.00892825 -0.02511749 0.16500001 144 78 74 0.000000
0.00931623 -0.02511749 0.16500001 141 79 80 0.000000
0.00964540 -0.02496527 0.16400000 139 77 78 0.000000
0.01003103 -0.02496527 0.16400000 138 75 79 0.000000
0.01041666 -0.02496527 0.16400000 137 74 78 0.000000
0.01080229 -0.02496527 0.16400000 145 82 88 0.000000
0.01118791 -0.02496527 0.16400000 137 74 80 0.000000
0.01157354 -0.02496527 0.16400000 137 77 87 0.000000
0.01203209 -0.02511749 0.16500001 144 84 94 0.000000
0.01242007 -0.02511749 0.16500001 144 87 94 0.000000
0.01280805 -0.02511749 0.16500001 146 89 96 0.000000
0.01358401 -0.02511749 0.16500001 140 85 91 0.000000
0.01397199 -0.02511749 0.16500001 139 84 90 0.000000
0.01435997 -0.02511749 0.16500001 141 86 92 0.000000
0.01483733 -0.02526972 0.16600001 142 87 93 0.000000
0.02393072 -0.02816204 0.18500000 142 80 77 0.000000
0.02436573 -0.02816204 0.18500000 145 83 80 0.000000
0.02480074 -0.02816204 0.18500000 142 80 77 0.000000
0.02523574 -0.02816204 0.18500000 144 82 79 0.000000
0.02567075 -0.02816204 0.18500000 149 84 82 0.000000
0.02610576 -0.02816204 0.18500000 151 86 84 0.000000
0.02654077 -0.02816204 0.18500000 151 87 82 0.000000
0.02697577 -0.02816204 0.18500000 153 89 84 0.000000
0.02741078 -0.02816204 0.18500000 153 92 86 0.000000
0.02784579 -0.02816204 0.18500000 146 85 79 0.000000
0.02843367 -0.02831426 0.18600000 140 89 89 0.000000
-0.04176718 -0.02802678 0.18700001 136 59 50 0.000000
-0.04132747 -0.02802678 0.18700001 144 64 60 0.000000
-0.03935703 -0.02787690 0.18600000 147 64 57 0.000000
-0.03891967 -0.02787690 0.18600000 142 59 52 0.000000
-0.03848230 -0.02787690 0.18600000 144 69 59 0.000000
-0.03804495 -0.02787690 0.18600000 151 76 66 0.000000
-0.03760759 -0.02787690 0.18600000 136 64 57 0.000000
-0.03717023 -0.02787690 0.18600000 140 68 61 0.000000
-0.03693036 -0.02802678 0.18700001 141 70 63 0.000000
-0.03649065 -0.02802678 0.18700001 147 76 69 0.000000
-0.03605094 -0.02802678 0.18700001 145 73 66 0.000000
-0.03561122 -0.02802678 0.18700001 141 69 62 0.000000
-0.03498343 -0.02787690 0.18600000 139 66 62 0.000000
-0.03454607 -0.02787690 0.18600000 145 72 68 0.000000
-0.03410871 -0.02787690 0.18600000 148 70 68 0.000000
-0.03367135 -0.02787690 0.18600000 145 67 65 0.000000
-0.00569014 -0.02592852 0.17300001 154 69 76 0.000000
-0.00406297 -0.02592852 0.17300001 154 68 73 0.000000
-0.00365618 -0.02592852 0.17300001 157 68 74 0.000000
-0.00324939 -0.02592852 0.17300001 158 69 75 0.000000
-0.00284260 -0.02592852 0.17300001 159 70 78 0.000000
-0.00243581 -0.02592852 0.17300001 160 71 79 0.000000
-0.00202902 -0.02592852 0.17300001 158 72 79 0.000000
-0.00161285 -0.02577864 0.17200001 161 75 82 0.000000
-0.00120841 -0.02577864 0.17200001 163 77 84 0.000000
-0.00080397 -0.02577864 0.17200001 162 77 84 0.000000
-0.00039720 -0.02562877 0.17100000 163 78 85 0.000000
0.00000488 -0.02562877 0.17100000 166 81 90 0.000000
0.00040459 -0.02547889 0.17000000 163 78 87 0.000000
0.00080433 -0.02547889 0.17000000 160 75 82 0.000000
0.00119698 -0.02532902 0.16900001 156 71 78 0.000000
0.00159437 -0.02532902 0.16900001 153 65 68 0.000000
0.00199175 -0.02532902 0.16900001 156 68 71 0.000000
0.00237500 -0.02517914 0.16800001 157 69 70 0.000000
0.00277004 -0.02517914 0.16800001 157 69 70 0.000000
0.00316507 -0.02517914 0.16800001 160 72 75 0.000000
0.00356011 -0.02517914 0.16800001 162 74 77 0.000000
0.00395514 -0.02517914 0.16800001 160 75 84 0.000000
0.00435017 -0.02517914 0.16800001 163 78 87 0.000000
0.00471696 -0.02502926 0.16700001 152 72 82 0.000000
0.00510965 -0.02502926 0.16700001 153 73 83 0.000000
0.00550233 -0.02502926 0.16700001 148 74 84 0.000000
0.00589501 -0.02502926 0.16700001 147 73 83 0.000000
0.00628769 -0.02502926 0.16700001 143 72 81 0.000000
0.00668038 -0.02502926 0.16700001 139 68 77 0.000000
0.00703071 -0.02487939 0.16600001 141 76 78 0.000000
0.00742104 -0.02487939 0.16600001 144 79 81 0.000000
0.00776431 -0.02472951 0.16500001 147 82 82 0.000000
0.00815229 -0.02472951 0.16500001 144 79 79 0.000000
0.00854027 -0.02472951 0.16500001 144 79 79 0.000000
0.00887414 -0.02457963 0.16400000 142 77 77 0.000000
0.00925977 -0.02457963 0.16400000 142 77 77 0.000000
0.00964540 -0.02457963 0.16400000 142 77 77 0.000000
0.01003103 -0.02457963 0.16400000 142 76 81 0.000000
0.01035314 -0.02442976 0.16300000 141 75 80 0.000000
0.01073642 -0.02442976 0.16300000 146 82 91 0.000000
0.01111970 -0.02442976 0.16300000 140 76 85 0.000000
0.01157354 -0.02457963 0.16400000 141 79 87 0.000000
0.01195917 -0.02457963 0.16400000 146 84 92 0.000000
0.01234480 -0.02457963 0.16400000 143 83 91 0.000000
0.01273043 -0.02457963 0.16400000 138 78 86 0.000000
0.01311606 -0.02457963 0.16400000 137 80 87 0.000000
0.01358401 -0.02472951 0.16500001 139 82 89 0.000000
0.01397199 -0.02472951 0.16500001 136 81 87 0.000000
0.01435997 -0.02472951 0.16500001 136 81 87 0.000000
0.01474795 -0.02472951 0.16500001 141 86 92 0.000000
0.01513593 -0.02472951 0.16500001 138 83 89 0.000000
0.02306070 -0.02772703 0.18500000 152 89 93 0.000000
0.02349571 -0.02772703 0.18500000 151 88 92 0.000000
0.02393072 -0.02772703 0.18500000 147 85 84 0.000000
0.02436573 -0.02772703 0.18500000 146 84 83 0.000000
0.02480074 -0.02772703 0.18500000 141 79 78 0.000000
0.02523574 -0.02772703 0.18500000 145 83 82 0.000000
0.02567075 -0.02772703 0.18500000 146 84 83 0.000000
0.02610576 -0.02772703 0.18500000 149 87 86 0.000000
0.02654077 -0.02772703 0.18500000 154 89 87 0.000000
0.02712159 -0.02787690 0.18600000 151 86 84 0.000000
0.02755895 -0.02787690 0.18600000 149 88 82 0.000000
0.02799631 -0.02787690 0.18600000 146 85 79 0.000000
0.02843367 -0.02787690 0.18600000 140 92 88 0.000000
-0.04110646 -0.02743954 0.18600000 136 53 48 0.000000
-0.03914543 -0.02729202 0.18500000 144 62 47 0.000000
-0.03891967 -0.02743954 0.18600000 143 61 46 0.000000
-0.03848230 -0.02743954 0.18600000 135 60 50 0.000000
-0.03804495 -0.02743954 0.18600000 149 74 64 0.000000
-0.03760759 -0.02743954 0.18600000 144 73 64 0.000000
-0.03717023 -0.02743954 0.18600000 140 69 60 0.000000
-0.03673287 -0.02743954 0.18600000 146 75 68 0.000000
-0.03629551 -0.02743954 0.18600000 148 77 70 0.000000
-0.03605094 -0.02758707 0.18700001 145 73 64 0.000000
-0.03561122 -0.02758707 0.18700001 146 74 65 0.000000
-0.03517152 -0.02758707 0.18700001 141 69 62 0.000000
-0.03454607 -0.02743954 0.18600000 145 73 66 0.000000
-0.03410871 -0.02743954 0.18600000 149 71 69 0.000000
-0.03349033 -0.02729202 0.18500000 144 66 64 0.000000
-0.02894548 -0.02522668 0.17100000 160 65 62 0.000000
-0.00446976 -0.02552173 0.17300001 154 68 75 0.000000
-0.00406297 -0.02552173 0.17300001 149 63 70 0.000000
-0.00365618 -0.02552173 0.17300001 155 66 76 0.000000
-0.00324939 -0.02552173 0.17300001 156 67 77 0.000000
-0.00284260 -0.02552173 0.17300001 158 69 79 0.000000
-0.00242173 -0.02537420 0.17200001 160 71 81 0.000000
-0.00201729 -0.02537420 0.17200001 160 74 83 0.000000
-0.00161285 -0.02537420 0.17200001 161 75 84 0.000000
-0.00120841 -0.02537420 0.17200001 161 76 85 0.000000
-0.00079929 -0.02522668 0.17100000 162 77 86 0.000000
-0.00039720 -0.02522668 0.17100000 163 78 87 0.000000
0.00000486 -0.02507915 0.17000000 162 79 92 0.000000
0.00040459 -0.02507915 0.17000000 162 79 92 0.000000
0.00079960 -0.02493163 0.16900001 153 70 81 0.000000
0.00119698 -0.02493163 0.16900001 148 65 76 0.000000
0.00159437 -0.02493163 0.16900001 150 64 76 0.000000
0.00197997 -0.02478411 0.16800001 152 66 78 0.000000
0.00237500 -0.02478411 0.16800001 155 70 79 0.000000
0.00277004 -0.02478411 0.16800001 153 68 77 0.000000
0.00316507 -0.02478411 0.16800001 153 67 79 0.000000
0.00356011 -0.02478411 0.16800001 153 67 79 0.000000
0.00395514 -0.02478411 0.16800001 155 75 85 0.000000
0.00432428 -0.02463658 0.16700001 159 79 89 0.000000
0.00471696 -0.02463658 0.16700001 154 79 89 0.000000
0.00510965 -0.02463658 0.16700001 159 84 94 0.000000
0.00550233 -0.02463658 0.16700001 154 79 92 0.000000
0.00589501 -0.02463658 0.16700001 155 80 93 0.000000
0.00628769 -0.02463658 0.16700001 156 87 98 0.000000
0.00664038 -0.02448906 0.16600001 157 88 99 0.000000
0.00703071 -0.02448906 0.16600001 155 91 100 0.000000
0.00742104 -0.02448906 0.16600001 153 89 98 0.000000
0.00776431 -0.02434153 0.16500001 151 88 92 0.000000
0.00810289 -0.02419401 0.16400000 144 81 85 0.000000
0.00848851 -0.02419401 0.16400000 153 91 92 0.000000
0.00887414 -0.02419401 0.16400000 151 89 90 0.000000
0.00920331 -0.02404648 0.16300000 149 87 86 0.000000
0.00958659 -0.02404648 0.16300000 148 86 85 0.000000
0.00996986 -0.02404648 0.16300000 141 78 82 0.000000
0.01028962 -0.02389896 0.16200000 138 75 79 0.000000
0.01073642 -0.02404648 0.16300000 141 79 89 0.000000
0.01111970 -0.02404648 0.16300000 143 81 91 0.000000
0.01150297 -0.02404648 0.16300000 138 76 86 0.000000
0.01188625 -0.02404648 0.16300000 140 78 88 0.000000
0.01226953 -0.02404648 0.16300000 135 75 85 0.000000
0.01265280 -0.02404648 0.16300000 139 79 89 0.000000
0.01311606 -0.02419401 0.16400000 140 84 88 0.000000
0.01350169 -0.02419401 0.16400000 141 85 89 0.000000
0.01388732 -0.02419401 0.16400000 134 78 82 0.000000
0.01427294 -0.02419401 0.16400000 137 81 85 0.000000
0.01474795 -0.02434153 0.16500001 132 76 80 0.000000
0.01513593 -0.02434153 0.16500001 137 81 85 0.000000
0.01552391 -0.02434153 0.16500001 139 83 85 0.000000
0.02262569 -0.02729202 0.18500000 146 86 96 0.000000
0.02306070 -0.02729202 0.18500000 142 82 90 0.000000
0.02349571 -0.02729202 0.18500000 145 85 93 0.000000
0.02393072 -0.02729202 0.18500000 143 85 85 0.000000
0.02436573 -0.02729202 0.18500000 141 83 83 0.000000
0.02480074 -0.02729202 0.18500000 138 78 76 0.000000
0.02523574 -0.02729202 0.18500000 147 87 85 0.000000
0.02567075 -0.02729202 0.18500000 147 85 84 0.000000
0.02610576 -0.02729202 0.18500000 145 83 82 0.000000
0.02712159 -0.02743954 0.18600000 148 83 83 0.000000
0.02755895 -0.02743954 0.18600000 152 90 89 0.000000
0.02799631 -0.02743954 0.18600000 151 89 88 0.000000
0.02843367 -0.02743954 0.18600000 142 93 92 0.000000
0.02887103 -0.02743954 0.18600000 144 95 94 0.000000
-0.05457901 -0.03179290 0.21900001 52 14 18 0.000000
-0.04132047 -0.02685701 0.18500000 130 50 44 0.000000
-0.04088546 -0.02685701 0.18500000 134 50 45 0.000000
-0.03914543 -0.02685701 0.18500000 141 59 44 0.000000
-0.03871042 -0.02685701 0.18500000 144 62 47 0.000000
-0.03827541 -0.02685701 0.18500000 144 70 55 0.000000
-0.03784040 -0.02685701 0.18500000 148 74 59 0.000000
-0.03760759 -0.02700219 0.18600000 147 75 66 0.000000
-0.03717023 -0.02700219 0.18600000 146 74 65 0.000000
-0.03673287 -0.02700219 0.18600000 144 73 62 0.000000
-0.03629551 -0.02700219 0.18600000 141 70 59 0.000000
-0.03585815 -0.02700219 0.18600000 139 69 55 0.000000
-0.03561122 -0.02714736 0.18700001 135 65 51 0.000000
-0.03517152 -0.02714736 0.18700001 139 67 56 0.000000
-0.03454607 -0.02700219 0.18600000 142 70 59 0.000000
-0.03392533 -0.02685701 0.18500000 145 70 62 0.000000
-0.03330930 -0.02671184 0.18400002 141 66 58 0.000000
-0.00525281 -0.02496976 0.17200001 154 69 76 0.000000
-0.00444393 -0.02496976 0.17200001 153 67 74 0.000000
-0.00403949 -0.02496976 0.17200001 144 58 65 0.000000
-0.00363505 -0.02496976 0.17200001 149 63 72 0.000000
-0.00323061 -0.02496976 0.17200001 151 65 74 0.000000
-0.00282617 -0.02496976 0.17200001 156 66 79 0.000000
-0.00242173 -0.02496976 0.17200001 157 67 80 0.000000
-0.00200556 -0.02482459 0.17100000 156 69 81 0.000000
-0.00160347 -0.02482459 0.17100000 162 75 87 0.000000
-0.00120138 -0.02482459 0.17100000 162 79 90 0.000000
-0.00079462 -0.02467942 0.17000000 156 76 86 0.000000
-0.00039488 -0.02467942 0.17000000 149 69 79 0.000000
0.00000486 -0.02467942 0.17000000 148 69 83 0.000000
0.00040221 -0.02453425 0.16900001 149 70 84 0.000000
0.00079960 -0.02453425 0.16900001 145 66 82 0.000000
0.00118990 -0.02438907 0.16800001 142 63 79 0.000000
0.00158494 -0.02438907 0.16800001 144 63 80 0.000000
0.00197997 -0.02438907 0.16800001 150 69 86 0.000000
0.00237500 -0.02438907 0.16800001 148 64 84 0.000000
0.00277004 -0.02438907 0.16800001 148 64 84 0.000000
0.00314623 -0.02424390 0.16700001 152 71 90 0.000000
0.00353892 -0.02424390 0.16700001 152 71 90 0.000000
0.00393160 -0.02424390 0.16700001 161 82 98 0.000000
0.00432428 -0.02424390 0.16700001 159 80 96 0.000000
0.00471696 -0.02424390 0.16700001 155 79 92 0.000000
0.00510965 -0.02424390 0.16700001 160 84 97 0.000000
0.00550233 -0.02424390 0.16700001 161 86 99 0.000000
0.00589501 -0.02424390 0.16700001 163 88 101 0.000000
0.00628769 -0.02424390 0.16700001 159 90 103 0.000000
0.00664038 -0.02409873 0.16600001 159 90 103 0.000000
0.00703071 -0.02409873 0.16600001 156 89 101 0.000000
0.00737633 -0.02395355 0.16500001 162 95 107 0.000000
0.00771726 -0.02380838 0.16400000 165 101 110 0.000000
0.00810289 -0.02380838 0.16400000 156 92 101 0.000000
0.00843675 -0.02366321 0.16300000 156 93 99 0.000000
0.00882003 -0.02366321 0.16300000 158 95 101 0.000000
0.00914685 -0.02351803 0.16200000 155 94 99 0.000000
0.00952777 -0.02351803 0.16200000 151 90 95 0.000000
0.00990870 -0.02351803 0.16200000 150 88 100 0.000000
0.01028962 -0.02351803 0.16200000 146 84 96 0.000000
0.01105148 -0.02351803 0.16200000 144 83 100 0.000000
0.01143240 -0.02351803 0.16200000 136 75 90 0.000000
0.01181333 -0.02351803 0.16200000 138 77 92 0.000000
0.01226953 -0.02366321 0.16300000 139 79 91 0.000000
0.01265280 -0.02366321 0.16300000 138 78 90 0.000000
0.01303608 -0.02366321 0.16300000 139 82 91 0.000000
0.01350169 -0.02380838 0.16400000 142 85 94 0.000000
0.01388732 -0.02380838 0.16400000 131 76 82 0.000000
0.01427294 -0.02380838 0.16400000 136 81 87 0.000000
0.01465857 -0.02380838 0.16400000 131 76 82 0.000000
0.01504420 -0.02380838 0.16400000 136 81 87 0.000000
0.01542983 -0.02380838 0.16400000 139 83 87 0.000000
0.01581546 -0.02380838 0.16400000 142 86 90 0.000000
0.02306070 -0.02685701 0.18500000 140 84 88 0.000000
0.02349571 -0.02685701 0.18500000 141 85 89 0.000000
0.02393072 -0.02685701 0.18500000 141 86 85 0.000000
0.02436573 -0.02685701 0.18500000 140 85 84 0.000000
0.02480074 -0.02685701 0.18500000 138 80 80 0.000000
0.02755895 -0.02700219 0.18600000 151 90 93 0.000000
0.02799631 -0.02700219 0.18600000 151 90 93 0.000000
0.02843367 -0.02700219 0.18600000 144 92 97 0.000000
0.02887103 -0.02700219 0.18600000 144 92 97 0.000000
-0.05457901 -0.03127794 0.21900001 54 13 23 0.000000
-0.04045045 -0.02642200 0.18500000 136 52 45 0.000000
-0.03979915 -0.02627918 0.18400002 141 55 46 0.000000
-0.03958043 -0.02642200 0.18500000 143 57 48 0.000000
-0.03893383 -0.02627918 0.18400002 141 59 44 0.000000
-0.03850118 -0.02627918 0.18400002 144 62 47 0.000000
-0.03827541 -0.02642200 0.18500000 141 70 54 0.000000
-0.03784040 -0.02642200 0.18500000 142 71 55 0.000000
-0.03740539 -0.02642200 0.18500000 143 71 62 0.000000
-0.03697039 -0.02642200 0.18500000 146 74 65 0.000000
-0.03653538 -0.02642200 0.18500000 142 71 62 0.000000
-0.03629551 -0.02656483 0.18600000 142 71 62 0.000000
-0.03585815 -0.02656483 0.18600000 148 78 64 0.000000
-0.03542079 -0.02656483 0.18600000 147 77 63 0.000000
-0.03479535 -0.02642200 0.18500000 144 74 60 0.000000
-0.03417461 -0.02627918 0.18400002 138 68 54 0.000000
-0.02871031 -0.02456532 0.17200001 157 74 71 0.000000
-0.02814130 -0.02442250 0.17100000 161 75 80 0.000000
-0.02773922 -0.02442250 0.17100000 158 72 77 0.000000
-0.02717726 -0.02427968 0.17000000 167 78 84 0.000000
-0.00484837 -0.02456532 0.17200001 149 64 69 0.000000
-0.00444393 -0.02456532 0.17200001 147 63 65 0.000000
-0.00403949 -0.02456532 0.17200001 145 61 63 0.000000
-0.00363505 -0.02456532 0.17200001 146 60 69 0.000000
-0.00321182 -0.02442250 0.17100000 148 62 71 0.000000
-0.00280973 -0.02442250 0.17100000 148 61 73 0.000000
-0.00240765 -0.02442250 0.17100000 154 67 79 0.000000
-0.00199383 -0.02427968 0.17000000 160 73 85 0.000000
-0.00159409 -0.02427968 0.17000000 162 75 87 0.000000
-0.00119436 -0.02427968 0.17000000 162 82 92 0.000000
-0.00078994 -0.02413686 0.16900001 154 80 88 0.000000
-0.00039256 -0.02413686 0.16900001 151 77 85 0.000000
0.00000480 -0.02399404 0.16800001 145 73 87 0.000000
0.00039983 -0.02399404 0.16800001 142 70 84 0.000000
0.00079014 -0.02385122 0.16700001 140 65 82 0.000000
0.00118282 -0.02385122 0.16700001 140 65 82 0.000000
0.00157550 -0.02385122 0.16700001 142 66 83 0.000000
0.00196818 -0.02385122 0.16700001 157 81 98 0.000000
0.00236087 -0.02385122 0.16700001 161 82 100 0.000000
0.00275355 -0.02385122 0.16700001 162 83 101 0.000000
0.00314623 -0.02385122 0.16700001 161 82 100 0.000000
0.00353892 -0.02385122 0.16700001 159 80 98 0.000000
0.00393160 -0.02385122 0.16700001 164 85 103 0.000000
0.00432428 -0.02385122 0.16700001 163 84 102 0.000000
0.00471696 -0.02385122 0.16700001 157 81 96 0.000000
0.00510965 -0.02385122 0.16700001 157 81 96 0.000000
0.00550233 -0.02385122 0.16700001 158 83 98 0.000000
0.00589501 -0.02385122 0.16700001 158 83 98 0.000000
0.00628769 -0.02385122 0.16700001 157 85 99 0.000000
0.00664038 -0.02370839 0.16600001 160 88 102 0.000000
0.00698835 -0.02356557 0.16500001 156 87 100 0.000000
0.00737633 -0.02356557 0.16500001 155 86 99 0.000000
0.00771726 -0.02342275 0.16400000 151 87 98 0.000000
0.00805348 -0.02327993 0.16300000 153 89 100 0.000000
0.00838500 -0.02313711 0.16200000 159 95 104 0.000000
0.00876592 -0.02313711 0.16200000 161 97 106 0.000000
0.00909039 -0.02299429 0.16100001 160 98 108 0.000000
0.00946896 -0.02299429 0.16100001 154 92 102 0.000000
0.00984753 -0.02299429 0.16100001 146 85 100 0.000000
0.01022611 -0.02299429 0.16100001 146 85 100 0.000000
0.01060468 -0.02299429 0.16100001 150 91 113 0.000000
0.01098326 -0.02299429 0.16100001 156 97 119 0.000000
0.01136183 -0.02299429 0.16100001 150 91 111 0.000000
0.01181333 -0.02313711 0.16200000 142 83 103 0.000000
0.01219425 -0.02313711 0.16200000 140 82 96 0.000000
0.01257518 -0.02313711 0.16200000 140 82 96 0.000000
0.01303608 -0.02327993 0.16300000 141 86 96 0.000000
0.01341936 -0.02327993 0.16300000 142 87 97 0.000000
0.01380264 -0.02327993 0.16300000 124 69 75 0.000000
0.01427294 -0.02342275 0.16400000 131 76 82 0.000000
0.01465857 -0.02342275 0.16400000 133 78 84 0.000000
0.01504420 -0.02342275 0.16400000 136 81 87 0.000000
0.01542983 -0.02342275 0.16400000 139 83 87 0.000000
0.01581546 -0.02342275 0.16400000 141 85 89 0.000000
0.01620109 -0.02342275 0.16400000 140 84 88 0.000000
0.02799631 -0.02656483 0.18600000 146 86 94 0.000000
0.02858654 -0.02670765 0.18700001 142 87 95 0.000000
0.02902625 -0.02670765 0.18700001 141 86 94 0.000000
-0.05457901 -0.03076299 0.21900001 60 5 30 0.000000
-0.04023180 -0.02584653 0.18400002 133 50 45 0.000000
-0.03979915 -0.02584653 0.18400002 138 56 46 0.000000
-0.03936649 -0.02584653 0.18400002 143 61 51 0.000000
-0.03872224 -0.02570606 0.18300001 142 66 52 0.000000
-0.03850118 -0.02584653 0.18400002 138 62 48 0.000000
-0.03806852 -0.02584653 0.18400002 145 71 58 0.000000
-0.03763587 -0.02584653 0.18400002 144 70 57 0.000000
-0.03720321 -0.02584653 0.18400002 143 71 62 0.000000
-0.03677055 -0.02584653 0.18400002 145 73 64 0.000000
-0.03633790 -0.02584653 0.18400002 139 67 60 0.000000
-0.03590524 -0.02584653 0.18400002 143 71 64 0.000000
-0.03547258 -0.02584653 0.18400002 142 74 64 0.000000
-0.03503992 -0.02584653 0.18400002 140 72 62 0.000000
-0.03441919 -0.02570606 0.18300001 142 74 64 0.000000
-0.03120970 -0.02486323 0.17700000 145 73 64 0.000000
-0.03044556 -0.02458229 0.17500001 152 72 66 0.000000
-0.02986244 -0.02444183 0.17400001 150 70 64 0.000000
-0.02928402 -0.02430135 0.17300001 153 69 69 0.000000
-0.00444393 -0.02416088 0.17200001 147 63 63 0.000000
-0.00401600 -0.02402041 0.17100000 147 63 63 0.000000
-0.00361391 -0.02402041 0.17100000 150 65 72 0.000000
-0.00319304 -0.02387994 0.17000000 149 64 71 0.000000
-0.00279330 -0.02387994 0.17000000 153 67 81 0.000000
-0.00239357 -0.02387994 0.17000000 156 70 84 0.000000
-0.00198210 -0.02373947 0.16900001 158 75 88 0.000000
-0.00157534 -0.02359900 0.16800001 159 76 89 0.000000
-0.00118030 -0.02359900 0.16800001 163 89 99 0.000000
-0.00078527 -0.02359900 0.16800001 152 83 94 0.000000
-0.00038791 -0.02345853 0.16700001 151 82 93 0.000000
0.00000477 -0.02345853 0.16700001 144 77 91 0.000000
0.00039507 -0.02331806 0.16600001 147 80 94 0.000000
0.00078540 -0.02331806 0.16600001 154 85 98 0.000000
0.00117574 -0.02331806 0.16600001 157 88 101 0.000000
0.00156607 -0.02331806 0.16600001 156 84 98 0.000000
0.00195640 -0.02331806 0.16600001 157 85 99 0.000000
0.00234673 -0.02331806 0.16600001 166 91 106 0.000000
0.00273706 -0.02331806 0.16600001 160 85 100 0.000000
0.00312739 -0.02331806 0.16600001 159 83 100 0.000000
0.00351772 -0.02331806 0.16600001 157 81 98 0.000000
0.00390806 -0.02331806 0.16600001 166 90 105 0.000000
0.00432428 -0.02345853 0.16700001 160 84 99 0.000000
0.00471696 -0.02345853 0.16700001 158 83 98 0.000000
0.00507905 -0.02331806 0.16600001 158 83 98 0.000000
0.00550233 -0.02345853 0.16700001 158 83 98 0.000000
0.00585971 -0.02331806 0.16600001 156 81 96 0.000000
0.00625004 -0.02331806 0.16600001 158 83 98 0.000000
0.00664038 -0.02331806 0.16600001 161 86 101 0.000000
0.00698835 -0.02317759 0.16500001 158 86 100 0.000000
0.00733163 -0.02303712 0.16400000 156 84 98 0.000000
0.00767020 -0.02289665 0.16300000 151 84 96 0.000000
0.00833324 -0.02261571 0.16100001 155 93 105 0.000000
0.00871181 -0.02261571 0.16100001 155 93 105 0.000000
0.00909039 -0.02261571 0.16100001 159 97 109 0.000000
0.00941015 -0.02247524 0.16000001 157 95 107 0.000000
0.00978637 -0.02247524 0.16000001 149 88 103 0.000000
0.01016259 -0.02247524 0.16000001 151 90 105 0.000000
0.01053882 -0.02247524 0.16000001 149 91 107 0.000000
0.01091504 -0.02247524 0.16000001 154 96 112 0.000000
0.01136183 -0.02261571 0.16100001 151 92 112 0.000000
0.01174041 -0.02261571 0.16100001 153 94 114 0.000000
0.01211898 -0.02261571 0.16100001 153 95 111 0.000000
0.01257518 -0.02275618 0.16200000 149 91 107 0.000000
0.01295611 -0.02275618 0.16200000 145 89 104 0.000000
0.01333703 -0.02275618 0.16200000 142 86 101 0.000000
0.01380264 -0.02289665 0.16300000 132 77 85 0.000000
0.01418591 -0.02289665 0.16300000 136 81 89 0.000000
0.01533575 -0.02289665 0.16300000 139 83 87 0.000000
0.01571902 -0.02289665 0.16300000 139 83 87 0.000000
0.02362271 -0.02612747 0.18600000 142 89 83 0.000000
0.02726740 -0.02626794 0.18700001 139 83 87 0.000000
0.02770711 -0.02626794 0.18700001 139 80 85 0.000000
0.02814683 -0.02626794 0.18700001 143 84 89 0.000000
0.02858654 -0.02626794 0.18700001 140 86 89 0.000000
0.02902625 -0.02626794 0.18700001 145 91 94 0.000000
-0.05432979 -0.03010991 0.21800001 48 4 32 0.000000
-0.04044345 -0.02527575 0.18300001 136 56 50 0.000000
-0.04001315 -0.02527575 0.18300001 137 57 51 0.000000
-0.03958285 -0.02527575 0.18300001 140 60 52 0.000000
-0.03915254 -0.02527575 0.18300001 143 63 55 0.000000
-0.03872224 -0.02527575 0.18300001 141 65 51 0.000000
-0.03829193 -0.02527575 0.18300001 142 66 52 0.000000
-0.03786163 -0.02527575 0.18300001 146 70 58 0.000000
-0.03743132 -0.02527575 0.18300001 142 66 54 0.000000
-0.03700101 -0.02527575 0.18300001 148 73 65 0.000000
-0.03657071 -0.02527575 0.18300001 147 72 64 0.000000
-0.03614041 -0.02527575 0.18300001 127 54 50 0.000000
-0.03571010 -0.02527575 0.18300001 136 63 59 0.000000
-0.03527980 -0.02527575 0.18300001 137 68 65 0.000000
-0.03465905 -0.02513763 0.18200001 146 77 74 0.000000
-0.03044556 -0.02417080 0.17500001 150 70 62 0.000000
-0.02986244 -0.02403268 0.17400001 148 68 60 0.000000
-0.02928402 -0.02389456 0.17300001 159 76 71 0.000000
-0.02887723 -0.02389456 0.17300001 159 76 71 0.000000
-0.02733713 -0.02361832 0.17100000 167 82 84 0.000000
-0.02693504 -0.02361832 0.17100000 163 78 80 0.000000
-0.02653295 -0.02361832 0.17100000 168 78 82 0.000000
-0.00441809 -0.02361832 0.17100000 149 65 65 0.000000
-0.00399251 -0.02348020 0.17000000 143 59 59 0.000000
-0.00359278 -0.02348020 0.17000000 148 63 68 0.000000
-0.00317426 -0.02334209 0.16900001 146 61 66 0.000000
-0.00276044 -0.02320397 0.16800001 150 62 79 0.000000
-0.00235133 -0.02306585 0.16700001 156 68 85 0.000000
-0.00195864 -0.02306585 0.16700001 156 75 90 0.000000
-0.00155658 -0.02292773 0.16600001 160 79 94 0.000000
-0.00116625 -0.02292773 0.16600001 159 90 101 0.000000
-0.00077592 -0.02292773 0.16600001 146 82 95 0.000000
-0.00038559 -0.02292773 0.16600001 147 83 96 0.000000
0.00000471 -0.02278961 0.16500001 146 82 93 0.000000
0.00039269 -0.02278961 0.16500001 151 87 98 0.000000
0.00078067 -0.02278961 0.16500001 154 87 99 0.000000
0.00116865 -0.02278961 0.16500001 155 88 100 0.000000
0.00155663 -0.02278961 0.16500001 155 88 100 0.000000
0.00194461 -0.02278961 0.16500001 156 89 101 0.000000
0.00233259 -0.02278961 0.16500001 156 87 100 0.000000
0.00272057 -0.02278961 0.16500001 155 86 99 0.000000
0.00310855 -0.02278961 0.16500001 156 81 96 0.000000
0.00351772 -0.02292773 0.16600001 154 79 94 0.000000
0.00390806 -0.02292773 0.16600001 164 88 103 0.000000
0.00429839 -0.02292773 0.16600001 157 81 96 0.000000
0.00468872 -0.02292773 0.16600001 157 81 96 0.000000
0.00507905 -0.02292773 0.16600001 161 85 100 0.000000
0.00546938 -0.02292773 0.16600001 154 79 94 0.000000
0.00585971 -0.02292773 0.16600001 156 81 96 0.000000
0.00625004 -0.02292773 0.16600001 158 83 96 0.000000
0.00664038 -0.02292773 0.16600001 163 88 101 0.000000
0.00698835 -0.02278961 0.16500001 160 88 100 0.000000
0.00733163 -0.02265149 0.16400000 154 82 94 0.000000
0.00767020 -0.02251337 0.16300000 155 86 97 0.000000
0.00865770 -0.02209902 0.16000001 156 89 99 0.000000
0.00903392 -0.02209902 0.16000001 153 86 96 0.000000
0.00941015 -0.02209902 0.16000001 150 83 93 0.000000
0.00972520 -0.02196090 0.15900001 156 89 101 0.000000
0.01009908 -0.02196090 0.15900001 156 89 101 0.000000
0.01053882 -0.02209902 0.16000001 152 90 102 0.000000
0.01091504 -0.02209902 0.16000001 159 97 109 0.000000
0.01129126 -0.02209902 0.16000001 149 88 103 0.000000
0.01166748 -0.02209902 0.16000001 149 88 103 0.000000
0.01211898 -0.02223714 0.16100001 149 91 105 0.000000
0.01249756 -0.02223714 0.16100001 150 92 106 0.000000
0.01295611 -0.02237525 0.16200000 148 90 104 0.000000
0.01333703 -0.02237525 0.16200000 148 90 104 0.000000
0.01371796 -0.02237525 0.16200000 145 90 100 0.000000
0.01447981 -0.02237525 0.16200000 136 81 89 0.000000
0.01486073 -0.02237525 0.16200000 128 73 81 0.000000
0.01524166 -0.02237525 0.16200000 133 78 84 0.000000
0.01562259 -0.02237525 0.16200000 139 84 90 0.000000
0.01600351 -0.02237525 0.16200000 135 81 84 0.000000
0.01638444 -0.02237525 0.16200000 138 84 87 0.000000
0.02255054 -0.02596634 0.18800001 140 88 95 0.000000
0.02287030 -0.02582823 0.18700001 139 87 94 0.000000
0.02331001 -0.02582823 0.18700001 139 86 82 0.000000
0.02374972 -0.02582823 0.18700001 142 89 85 0.000000
0.02406007 -0.02569011 0.18600000 139 85 75 0.000000
0.02449743 -0.02569011 0.18600000 136 82 72 0.000000
0.02493479 -0.02569011 0.18600000 143 86 79 0.000000
0.02537215 -0.02569011 0.18600000 138 81 74 0.000000
0.02580951 -0.02569011 0.18600000 138 80 78 0.000000
0.02726740 -0.02582823 0.18700001 143 85 85 0.000000
0.02770711 -0.02582823 0.18700001 143 85 85 0.000000
0.02814683 -0.02582823 0.18700001 141 83 83 0.000000
0.02858654 -0.02582823 0.18700001 142 86 88 0.000000
-0.05484240 -0.02959731 0.21800001 23 10 30 0.000000
-0.05432979 -0.02959731 0.21800001 32 5 27 0.000000
-0.04022245 -0.02470968 0.18200001 132 51 50 0.000000
-0.03979450 -0.02470968 0.18200001 133 52 51 0.000000
-0.03936655 -0.02470968 0.18200001 134 57 52 0.000000
-0.03893859 -0.02470968 0.18200001 135 58 53 0.000000
-0.03851064 -0.02470968 0.18200001 137 60 51 0.000000
-0.03808269 -0.02470968 0.18200001 138 61 52 0.000000
-0.03765473 -0.02470968 0.18200001 138 62 50 0.000000
-0.03722678 -0.02470968 0.18200001 144 68 56 0.000000
-0.03679882 -0.02470968 0.18200001 150 73 68 0.000000
-0.03594292 -0.02470968 0.18200001 135 62 60 0.000000
-0.03489422 -0.02457391 0.18100001 146 73 76 0.000000
-0.03144722 -0.02389508 0.17600001 152 75 68 0.000000
-0.03085705 -0.02375931 0.17500001 148 71 64 0.000000
-0.03027158 -0.02362354 0.17400001 150 66 59 0.000000
-0.02969082 -0.02348777 0.17300001 149 65 58 0.000000
-0.02928402 -0.02348777 0.17300001 157 68 65 0.000000
-0.02887723 -0.02348777 0.17300001 158 69 66 0.000000
-0.02830587 -0.02335200 0.17200001 160 71 70 0.000000
