0.05360600 0.03141900 0.01537400 0.729467 -0.101683 -0.676415
0.05358400 0.03121600 0.01539800 0.748389 -0.132947 -0.649799
0.05342200 0.03081600 0.01535300 0.745866 -0.349371 -0.567118
0.05337100 0.03103500 0.01521100 0.649324 -0.149149 -0.745743
0.05330000 0.03081300 0.01521400 0.605723 -0.292473 -0.739973
0.05318200 0.03058800 0.01521000 0.626077 -0.321936 -0.710201
0.05314500 0.03045000 0.01524800 0.656617 -0.376855 -0.653326
0.05296900 0.03021400 0.01523900 0.588136 -0.474195 -0.655160
0.05297000 0.03041200 0.01511800 0.507945 -0.305400 -0.805433
0.05275000 0.03023700 0.01506400 0.428764 -0.384135 -0.817681
0.05280100 0.03038500 0.01502900 0.373363 -0.274399 -0.886174
0.05255000 0.03003200 0.01506600 0.373461 -0.430672 -0.821614
0.05256400 0.03021100 0.01500200 0.312761 -0.330719 -0.890396
0.05238200 0.02997400 0.01503600 0.223259 -0.400683 -0.888599
0.05215500 0.02981700 0.01507600 0.074761 -0.520504 -0.850580
0.05177400 0.02961100 0.01521000 -0.090595 -0.550759 -0.829733
0.05178900 0.02981100 0.01509700 -0.150000 -0.418570 -0.895712
0.05157500 0.02957800 0.01526600 -0.195830 -0.535876 -0.821272
0.05196700 0.02980100 0.01508300 -0.020194 -0.486001 -0.873725
0.05137000 0.02960700 0.01531700 -0.305846 -0.442468 -0.843018
0.05109300 0.02941200 0.01553500 -0.318631 -0.502517 -0.803711
0.05118300 0.02961100 0.01539200 -0.363820 -0.385680 -0.847872
0.05098700 0.02961100 0.01548700 -0.410832 -0.342099 -0.845095
0.05079000 0.02974600 0.01554900 -0.491124 -0.196750 -0.848579
0.05079600 0.02941200 0.01566500 -0.373871 -0.386385 -0.843165
0.05099200 0.02941200 0.01557500 -0.335769 -0.455574 -0.824446
0.05086700 0.02961100 0.01554600 -0.450209 -0.303774 -0.839663
0.05059500 0.02981100 0.01565900 -0.539764 -0.096438 -0.836274
0.05099000 0.02948400 0.01554000 -0.360005 -0.416599 -0.834771
0.05079200 0.02961100 0.01558500 -0.438720 -0.287862 -0.851270
0.05059800 0.02961200 0.01569900 -0.490766 -0.183478 -0.851754
0.04979900 0.02661000 0.01566100 0.701070 0.032444 -0.712354
0.04979900 0.02681000 0.01568200 0.676929 0.155981 -0.719331
0.04979900 0.02641000 0.01566700 0.686785 -0.061911 -0.724220
0.04980200 0.02621000 0.01571500 0.773484 -0.211512 -0.597482
0.04974700 0.02641000 0.01562000 0.650613 -0.061758 -0.756894
0.04974600 0.02661000 0.01561900 0.624266 0.043883 -0.779978
0.04971600 0.02681000 0.01561900 0.555584 0.150440 -0.817737
0.04972000 0.02621000 0.01562200 0.684602 -0.169244 -0.708997
0.04965900 0.02601000 0.01562600 0.687161 -0.244850 -0.684002
0.04959800 0.02585900 0.01563000 0.702612 -0.347230 -0.621102
0.04960000 0.02581000 0.01566800 0.709155 -0.389953 -0.587398
0.04957400 0.02581000 0.01563200 0.696932 -0.368964 -0.614940
0.04944900 0.02560900 0.01563900 0.699092 -0.462168 -0.545592
0.04939500 0.02560900 0.01556900 0.679959 -0.430585 -0.593509
0.04939800 0.02553400 0.01564200 0.696104 -0.462400 -0.549204
0.04927100 0.02560800 0.01544800 0.587595 -0.335075 -0.736517
0.04931200 0.02540900 0.01564700 0.693206 -0.522828 -0.496102
0.04918800 0.02546600 0.01545300 0.616440 -0.398289 -0.679241
0.04919100 0.02540800 0.01549100 0.617604 -0.421169 -0.664215
0.04915300 0.02540800 0.01545500 0.614670 -0.424772 -0.664643
0.04902100 0.02520800 0.01546300 0.604492 -0.453787 -0.654727
0.04898800 0.02520800 0.01543300 0.598344 -0.431674 -0.675012
0.04898900 0.02515800 0.01546500 0.610546 -0.446619 -0.654037
0.04888700 0.02500800 0.01547100 0.575397 -0.474745 -0.665985
0.04878500 0.02500700 0.01539300 0.542305 -0.436166 -0.718098
0.04879000 0.02488200 0.01547700 0.606632 -0.489002 -0.626797
0.04859000 0.02499100 0.01528500 0.423357 -0.357256 -0.832549
0.04858400 0.02480700 0.01537000 0.469359 -0.443192 -0.763730
0.04873200 0.02480800 0.01548000 0.605691 -0.531456 -0.592194
0.04844400 0.02480600 0.01529500 0.396006 -0.389695 -0.831455
0.04847500 0.02470200 0.01537600 0.457693 -0.467536 -0.756259
0.04838000 0.02474400 0.01529800 0.380680 -0.409113 -0.829283
0.04837900 0.02480600 0.01526900 0.374322 -0.383719 -0.844182
0.04838100 0.02470600 0.01531700 0.399987 -0.438540 -0.804794
0.04838500 0.02460700 0.01537700 0.439219 -0.491859 -0.751772
0.04833300 0.02471000 0.01529600 0.378969 -0.417024 -0.826120
0.04828100 0.02465100 0.01530400 0.384135 -0.428764 -0.817681
0.04828200 0.02460600 0.01532600 0.403327 -0.474598 -0.782358
0.04823400 0.02460300 0.01530700 0.368702 -0.451699 -0.812420
0.04808700 0.02470100 0.01520700 0.323853 -0.385247 -0.864120
0.04807700 0.02460500 0.01524200 0.329269 -0.422899 -0.844238
0.04818100 0.02455400 0.01530900 0.361174 -0.456639 -0.813040
0.04797200 0.02460500 0.01519800 0.295500 -0.411863 -0.862003
0.04797300 0.02470500 0.01515800 0.297877 -0.373481 -0.878511
0.04797800 0.02454400 0.01523000 0.294659 -0.436590 -0.850038
0.04787300 0.02460500 0.01516300 0.252147 -0.421251 -0.871189
0.04787500 0.02469700 0.01512300 0.267927 -0.381684 -0.884609
0.04786900 0.02480400 0.01508600 0.280443 -0.339796 -0.897714
0.04776700 0.02461400 0.01513100 0.221119 -0.414042 -0.882993
0.04776900 0.02470400 0.01509300 0.229069 -0.391634 -0.891151
0.04776700 0.02480400 0.01505900 0.229816 -0.339665 -0.912037
0.04767600 0.02480200 0.01503400 0.162925 -0.332813 -0.928812
0.04766900 0.02470500 0.01507900 0.182525 -0.386608 -0.904002
0.04756600 0.02474400 0.01504000 0.118680 -0.350585 -0.928981
0.04756400 0.02480300 0.01500100 0.087791 -0.307922 -0.947352
0.04745300 0.02470100 0.01504700 0.053013 -0.329713 -0.942592
0.04746400 0.02480300 0.01499900 0.013384 -0.271320 -0.962396
0.04736600 0.02466700 0.01505000 0.016117 -0.301270 -0.953403
0.04736800 0.02460300 0.01507500 0.047737 -0.328997 -0.943124
0.04736600 0.02470300 0.01503900 -0.018396 -0.278398 -0.960290
0.04727000 0.02462200 0.01505700 -0.023133 -0.259336 -0.965510
0.04726900 0.02450300 0.01509800 0.047355 -0.313568 -0.948384
0.04716800 0.02450300 0.01509200 -0.018273 -0.266782 -0.963584
0.03073800 0.01917800 0.01536500 -0.692069 -0.358305 -0.626625
0.03019800 0.01935700 0.01605900 -0.875302 -0.225163 -0.427958
0.03011000 0.01938200 0.01626800 -0.919500 -0.213072 -0.330334
0.02744100 0.01997400 0.01528400 0.092842 -0.160364 -0.982682
0.04717100 0.02440300 0.01513100 0.039623 -0.325932 -0.944563
0.03194100 0.01897800 0.01481500 -0.210635 -0.342461 -0.915617
0.03169400 0.01898200 0.01488100 -0.286660 -0.389797 -0.875148
0.03051200 0.01917800 0.01565400 -0.759415 -0.319500 -0.566752
0.03038600 0.01915100 0.01584800 -0.806557 -0.321672 -0.495977
0.03022200 0.01920100 0.01611800 -0.853950 -0.345609 -0.389004
0.03001800 0.01938300 0.01657700 -0.915701 -0.264729 -0.302341
0.04707000 0.02440300 0.01513000 -0.044105 -0.288571 -0.956442
0.03135200 0.01898700 0.01501100 -0.385441 -0.446216 -0.807667
0.03115600 0.01897800 0.01512900 -0.486386 -0.453411 -0.746891
0.03059100 0.01899100 0.01566600 -0.716806 -0.435381 -0.544640
0.02991400 0.01938500 0.01687900 -0.900018 -0.329563 -0.285228
0.02816600 0.01977500 0.01542000 0.166331 -0.376733 -0.911266
0.02748900 0.01977100 0.01534800 0.024415 -0.355943 -0.934189
0.02705100 0.01976900 0.01532900 -0.014206 -0.383568 -0.923404
0.04715000 0.02431800 0.01516000 0.070412 -0.357376 -0.931303
0.03266200 0.01887500 0.01474000 -0.170108 -0.390247 -0.904859
0.03214500 0.01877800 0.01487000 -0.182603 -0.547809 -0.816432
0.03191100 0.01875600 0.01494600 -0.232707 -0.598167 -0.766840
0.03158300 0.01881400 0.01502000 -0.316806 -0.570894 -0.757439
0.03077700 0.01900200 0.01544400 -0.662032 -0.441910 -0.605334
0.03046700 0.01898100 0.01585100 -0.737882 -0.463859 -0.490271
0.03040000 0.01896700 0.01598500 -0.785433 -0.477737 -0.393526
0.02913700 0.01958000 0.01611700 0.735072 -0.558262 -0.384726
0.02899700 0.01957300 0.01591500 0.622527 -0.558419 -0.548296
0.02836900 0.01977600 0.01546500 0.220605 -0.372545 -0.901412
0.02793700 0.01978700 0.01538400 0.093064 -0.357421 -0.929295
0.04707300 0.02429000 0.01516800 0.001241 -0.321435 -0.946931
0.04697000 0.02440300 0.01513200 -0.121737 -0.221689 -0.967488
0.03246400 0.01877800 0.01481100 -0.124271 -0.545329 -0.828959
0.02878400 0.01957700 0.01573400 0.435625 -0.548258 -0.713894
0.02857800 0.01957700 0.01563600 0.295347 -0.525939 -0.797595
0.02837200 0.01958300 0.01556100 0.229819 -0.535217 -0.812851
0.02659600 0.01977800 0.01533900 -0.049525 -0.408246 -0.911527
0.04697300 0.02429400 0.01516700 -0.062167 -0.280384 -0.957873
0.03277200 0.01877800 0.01477900 -0.031793 -0.551546 -0.833539
0.03220500 0.01864900 0.01495900 -0.139708 -0.713562 -0.686521
0.03363200 0.01879300 0.01470500 0.000000 0.000000 0.000000
0.04697400 0.02420300 0.01519700 -0.018820 -0.319933 -0.947253
0.04687400 0.02430000 0.01516900 -0.114384 -0.235194 -0.965194
0.03404800 0.01879400 0.01468100 -0.042589 -0.501448 -0.864139
0.02625600 0.01977100 0.01538100 -0.152533 -0.457600 -0.875977
0.03403500 0.01856800 0.01485500 0.015328 -0.734343 -0.678605
0.03367600 0.01857800 0.01488000 -0.076729 -0.748472 -0.658713
0.02589000 0.01997900 0.01538500 -0.297164 -0.341962 -0.891491
0.02543600 0.02017700 0.01549300 -0.404259 -0.288321 -0.868013
0.04687600 0.02410300 0.01523200 -0.013940 -0.343439 -0.939071
0.04687400 0.02420300 0.01519800 -0.059596 -0.282763 -0.957337
0.03446100 0.01886700 0.01464500 0.022553 -0.439122 -0.898144
0.03460500 0.01878100 0.01469200 0.084746 -0.561622 -0.823042
0.04677400 0.02420300 0.01520400 -0.116700 -0.232118 -0.965662
0.03450600 0.01858800 0.01484600 -0.004159 -0.713999 -0.700135
0.02557400 0.01997800 0.01550100 -0.376983 -0.408530 -0.831256
0.02517200 0.02017100 0.01562200 -0.419495 -0.350364 -0.837418
0.02308800 0.02156900 0.01726900 -0.951908 0.266427 -0.151288
0.02268900 0.02197800 0.01783700 0.718057 0.023888 -0.695574
0.04677500 0.02398600 0.01527500 -0.019298 -0.366659 -0.930155
0.04677600 0.02410300 0.01523300 -0.065676 -0.300050 -0.951660
0.03502900 0.01878700 0.01473500 0.106946 -0.607982 -0.786715
0.03473000 0.01860400 0.01484700 0.104671 -0.747437 -0.656035
0.02537200 0.01997200 0.01561100 -0.430211 -0.452939 -0.780874
0.02477100 0.02036400 0.01573700 -0.402833 -0.337509 -0.850772
0.02458200 0.02037100 0.01582400 -0.421913 -0.386886 -0.819944
0.02497500 0.02017000 0.01572600 -0.422278 -0.448164 -0.787928
0.02435700 0.02035900 0.01595500 -0.479496 -0.489451 -0.728369
0.02417600 0.02055300 0.01596600 -0.528508 -0.423135 -0.735959
0.02384100 0.02059600 0.01622400 -0.673373 -0.402039 -0.620430
0.02361700 0.02077400 0.01640100 -0.744492 -0.348727 -0.569317
0.02339400 0.02095000 0.01660500 -0.797363 -0.326266 -0.507702
0.02311500 0.02137500 0.01701900 -0.958392 -0.001215 -0.285453
0.02301000 0.02137800 0.01762500 -0.993202 0.016462 -0.115233
0.02288700 0.02157900 0.01795100 -0.408393 -0.570427 -0.712621
0.02267700 0.02179800 0.01783700 0.681844 -0.166266 -0.712351
0.02253800 0.02177700 0.01764800 0.798352 -0.278715 -0.533809
0.04667800 0.02400300 0.01527100 -0.072211 -0.329546 -0.941374
0.04667600 0.02410300 0.01523700 -0.119609 -0.269449 -0.955558
0.03549200 0.01880500 0.01481700 0.203329 -0.681385 -0.703115
0.03514600 0.01872600 0.01481000 0.149599 -0.660351 -0.735906
0.02478200 0.02017200 0.01583000 -0.391298 -0.491964 -0.777725
0.02399400 0.02057200 0.01609200 -0.616465 -0.449401 -0.646536
0.02373400 0.02057300 0.01639000 -0.733811 -0.478716 -0.482029
0.02348700 0.02077400 0.01660200 -0.778547 -0.450224 -0.437222
0.02332300 0.02117300 0.01660900 -0.826226 -0.175442 -0.535323
0.02320900 0.02137700 0.01677200 -0.919374 0.009026 -0.393281
0.02305300 0.02137200 0.01729300 -0.981580 0.010405 -0.190766
0.02246800 0.02158800 0.01766300 0.704801 -0.491528 -0.511522
0.04667900 0.02396000 0.01529000 -0.034884 -0.355295 -0.934103
0.03642700 0.01918800 0.01480600 0.243334 -0.436792 -0.866026
0.03591100 0.01899600 0.01477500 0.193994 -0.581982 -0.789724
0.03582400 0.01898300 0.01476900 0.197364 -0.570673 -0.797107
0.02419300 0.02037200 0.01606100 -0.533514 -0.543612 -0.647958
0.02402700 0.02039800 0.01618900 -0.590753 -0.560284 -0.580597
0.02322500 0.02111900 0.01680600 -0.892518 -0.169246 -0.418052
0.02313400 0.02117500 0.01701900 -0.946024 -0.144400 -0.290150
0.02308500 0.02117600 0.01722200 -0.964372 -0.173561 -0.199660
0.02304800 0.02115900 0.01746700 -0.974967 -0.206362 -0.082792
0.02228800 0.02154500 0.01746000 0.679583 -0.427024 -0.596504
0.04658000 0.02400000 0.01528100 -0.117769 -0.284498 -0.951415
0.03614900 0.01898500 0.01485500 0.262429 -0.679135 -0.685497
0.02324900 0.02098500 0.01683100 -0.852325 -0.330684 -0.405204
0.02207700 0.02156800 0.01724600 0.588998 -0.335875 -0.735030
0.04658000 0.02390300 0.01532100 -0.067703 -0.359756 -0.930587
0.03725400 0.01938400 0.01490500 0.175702 -0.375689 -0.909938
0.03687200 0.01918300 0.01491700 0.199249 -0.546032 -0.813725
0.03639800 0.01898200 0.01493900 0.172596 -0.698021 -0.694966
0.02325800 0.02079200 0.01703900 -0.794969 -0.547227 -0.261854
0.02313000 0.02097600 0.01722100 -0.926307 -0.336712 -0.169055
0.02310500 0.02097600 0.01742500 -0.931279 -0.355725 -0.078606
0.02216800 0.02137600 0.01746800 0.577635 -0.664699 -0.473828
0.02202100 0.02138800 0.01727800 0.539095 -0.566135 -0.623593
0.04648000 0.02390300 0.01532700 -0.105532 -0.319267 -0.941770
0.03655300 0.01902800 0.01493600 0.179598 -0.676945 -0.713786
0.03615400 0.01889200 0.01495700 0.251813 -0.698426 -0.669919
0.02318400 0.02097500 0.01701700 -0.915232 -0.303143 -0.265432
0.02184600 0.02137400 0.01717200 0.490000 -0.604501 -0.628075
0.02184100 0.02157400 0.01708400 0.519748 -0.211862 -0.827633
0.04648300 0.02380300 0.01536600 -0.060311 -0.398049 -0.915379
0.04648100 0.02399100 0.01529500 -0.157967 -0.242925 -0.957097
0.03755700 0.01938800 0.01498500 0.304691 -0.425330 -0.852207
0.03715700 0.01918700 0.01498500 0.230359 -0.555026 -0.799300
0.02323300 0.02075500 0.01720200 -0.814164 -0.556271 -0.166431
0.02159200 0.02157300 0.01694400 0.475164 -0.218726 -0.852278
0.04638300 0.02380300 0.01536800 -0.099406 -0.374476 -0.921893
0.03775700 0.01958800 0.01499300 0.363872 -0.216004 -0.906057
0.02120700 0.02157400 0.01675300 0.386937 -0.313526 -0.867168
0.04638100 0.02390300 0.01533400 -0.139527 -0.269752 -0.952768
0.03794300 0.01960400 0.01508300 0.544118 -0.268139 -0.795008
0.03776500 0.01937000 0.01507000 0.438526 -0.432053 -0.788052
0.02141000 0.02139600 0.01691800 0.379794 -0.539535 -0.751437
0.02101900 0.02157000 0.01667200 0.389100 -0.283119 -0.876610
0.03816600 0.01963600 0.01525700 0.714084 -0.258084 -0.650751
0.02122900 0.02137100 0.01685000 0.303339 -0.608282 -0.733470
0.02102000 0.02139200 0.01674300 0.223054 -0.622366 -0.750271
0.02075900 0.02157600 0.01656600 0.281432 -0.444448 -0.850448
0.04628500 0.02371200 0.01541500 -0.110442 -0.418001 -0.901708
0.04628300 0.02380300 0.01537700 -0.133914 -0.352042 -0.926355
0.03797300 0.01934300 0.01524700 0.622326 -0.461293 -0.632391
0.02092100 0.02136400 0.01673500 0.261376 -0.616214 -0.742942
0.02040600 0.02156800 0.01644300 0.283552 -0.424562 -0.859852
0.03817800 0.01939300 0.01546000 0.743238 -0.482858 -0.463082
0.02061700 0.02136900 0.01663500 0.203313 -0.706165 -0.678229
0.02061200 0.02149800 0.01654700 0.314543 -0.544462 -0.777575
0.01999700 0.02152700 0.01634500 0.194924 -0.597051 -0.778161
0.04618500 0.02375100 0.01541600 -0.168775 -0.333366 -0.927568
0.04618400 0.02380300 0.01539800 -0.199745 -0.294729 -0.934471
0.03827600 0.01959100 0.01544500 0.840189 -0.299735 -0.451931
0.02036100 0.02137200 0.01656100 0.136770 -0.710904 -0.689862
0.02020400 0.02157600 0.01637300 0.162447 -0.538011 -0.827137
0.01979800 0.02156600 0.01629000 0.145940 -0.529218 -0.835841
0.04618600 0.02370300 0.01543700 -0.152293 -0.399948 -0.903797
0.02022900 0.02135700 0.01655400 0.175826 -0.720124 -0.671198
0.01980300 0.02144200 0.01638900 0.012516 -0.735652 -0.677244
0.01959200 0.02169400 0.01619800 0.061650 -0.453473 -0.889135
0.04608700 0.02370300 0.01546000 -0.203400 -0.367851 -0.907366
0.04608500 0.02380300 0.01542100 -0.235052 -0.251742 -0.938817
0.01959600 0.02156600 0.01626700 0.029469 -0.646919 -0.761989
0.01939300 0.02164100 0.01620800 -0.006779 -0.543688 -0.839260
0.01919000 0.02176500 0.01615200 -0.131179 -0.471378 -0.872121
0.01898600 0.02196400 0.01610100 -0.095156 -0.288076 -0.952868
0.04598600 0.02380300 0.01544900 -0.260800 -0.252341 -0.931830
0.01939600 0.02156500 0.01626400 0.001374 -0.619822 -0.784741
0.01919300 0.02164500 0.01621900 -0.154514 -0.592554 -0.790572
0.01878500 0.02216400 0.01608000 -0.165360 -0.204421 -0.964815
0.04599300 0.02360400 0.01552700 -0.212688 -0.432812 -0.876035
0.04598800 0.02370300 0.01548600 -0.243673 -0.345811 -0.906112
0.01858400 0.02236300 0.01608500 -0.221000 -0.138286 -0.965420
0.04589900 0.02361600 0.01554700 -0.253562 -0.406599 -0.877715
0.04588700 0.02380300 0.01547500 -0.307899 -0.203860 -0.929322
0.01838500 0.02256300 0.01611300 -0.261202 -0.069401 -0.962786
0.04578900 0.02380300 0.01550200 -0.326788 -0.183730 -0.927067
0.01858700 0.02216400 0.01612400 -0.337114 -0.331067 -0.881334
0.04579300 0.02360300 0.01558500 -0.276941 -0.401035 -0.873198
0.04578900 0.02371100 0.01553700 -0.306346 -0.306346 -0.901279
0.04568900 0.02379900 0.01554100 -0.361405 -0.161718 -0.918278
0.01838700 0.02236300 0.01614000 -0.372463 -0.256718 -0.891834
0.01818800 0.02256300 0.01617700 -0.402368 -0.219608 -0.888748
0.01799100 0.02276300 0.01623200 -0.444221 -0.177395 -0.878179
0.01759800 0.02316300 0.01638600 -0.482047 -0.056630 -0.874314
0.01682200 0.02416200 0.01692900 -0.763681 -0.101140 -0.637622
0.04559300 0.02380300 0.01558700 -0.406617 -0.155513 -0.900265
0.01788500 0.02276300 0.01628100 -0.489083 -0.169923 -0.855526
0.01781200 0.02295400 0.01628800 -0.486338 -0.077085 -0.870364
0.01743800 0.02316000 0.01651500 -0.682518 -0.244319 -0.688823
0.01739700 0.02335400 0.01649900 -0.612439 -0.110151 -0.782806
0.01704200 0.02376200 0.01673400 -0.733477 -0.126977 -0.667748
0.01685300 0.02395500 0.01693800 -0.801669 -0.138321 -0.581545
0.01653600 0.02476600 0.01734100 -0.905309 0.098133 -0.413263
0.04569300 0.02370300 0.01557600 -0.332824 -0.299990 -0.893999
0.01817500 0.02233100 0.01625900 -0.503946 -0.362262 -0.784095
0.01799900 0.02256500 0.01627600 -0.513920 -0.305189 -0.801715
0.01720800 0.02356400 0.01661500 -0.706205 -0.213576 -0.675026
0.01712100 0.02356400 0.01671600 -0.739447 -0.264428 -0.619109
0.01667800 0.02416600 0.01715000 -0.860084 -0.192289 -0.472525
0.01663600 0.02456600 0.01714000 -0.805199 0.040752 -0.591603
0.01652700 0.02456600 0.01734300 -0.922002 -0.032695 -0.385802
0.04563900 0.02360600 0.01564100 -0.346167 -0.367707 -0.863111
0.04559400 0.02370300 0.01561700 -0.383402 -0.272140 -0.882577
0.01779600 0.02276300 0.01634200 -0.568263 -0.248909 -0.784297
0.01729700 0.02316400 0.01670900 -0.781015 -0.370295 -0.502889
0.01701600 0.02356500 0.01689400 -0.826206 -0.342804 -0.447067
0.01692500 0.02376500 0.01692600 -0.828381 -0.225087 -0.512953
0.01678400 0.02388600 0.01713800 -0.868046 -0.332215 -0.368958
0.01664200 0.02436500 0.01714200 -0.821872 -0.031985 -0.568774
0.01646200 0.02476100 0.01754500 -0.940534 0.117062 -0.318893
0.04549500 0.02371000 0.01565400 -0.435651 -0.242698 -0.866779
0.01720700 0.02336300 0.01670500 -0.759690 -0.291453 -0.581314
0.01655800 0.02436600 0.01734200 -0.922811 -0.163837 -0.348680
0.01645500 0.02457800 0.01756400 -0.960852 -0.036047 -0.274707
0.04549800 0.02360400 0.01569500 -0.419031 -0.353116 -0.836494
0.04539900 0.02370300 0.01571100 -0.497907 -0.234399 -0.834952
0.01646400 0.02437800 0.01761600 -0.949984 -0.179727 -0.255401
0.04538600 0.02360300 0.01574700 -0.486998 -0.325194 -0.810606
