-0.02849426 -0.03843747 0.28272825
-0.02849426 -0.03843747 0.28272825
-0.02847308 -0.03849426 0.28264806
-0.02845397 -0.03855693 0.28256640
-0.02847800 -0.03859781 0.28243226
-0.02847063 -0.03862660 0.28239661
-0.02837851 -0.03879071 0.28233075
-0.02837851 -0.03879071 0.28233075
-0.02834241 -0.03889407 0.28227243
-0.02833450 -0.03893283 0.28223771
-0.02831670 -0.03902782 0.28215501
-0.02830357 -0.03907836 0.28212911
-0.02829089 -0.03912199 0.28211278
-0.02830208 -0.03917806 0.28204358
-0.02828329 -0.03924418 0.28202748
-0.02846282 -0.03915964 0.28186214
-0.02823459 -0.03939276 0.28202271
-0.02827143 -0.03939137 0.28194517
-0.02823949 -0.03942997 0.28199032
-0.02827055 -0.03943383 0.28191924
-0.02824691 -0.03947337 0.28195152
-0.02827055 -0.03943383 0.28191924
-0.02828125 -0.03947587 0.28187910
-0.02828125 -0.03947587 0.28187910
-0.02827745 -0.03956531 0.28186041
-0.02857827 -0.03940140 0.28172287
-0.02824884 -0.03961521 0.28189871
-0.02824159 -0.03970644 0.28189993
-0.02827065 -0.03965987 0.28186968
-0.02826665 -0.03976111 0.28187469
-0.02829390 -0.03970667 0.28184167
-0.02829193 -0.03981367 0.28185010
-0.02829193 -0.03981367 0.28185010
-0.02830799 -0.03986822 0.28182894
-0.02830799 -0.03986822 0.28182894
-0.02845856 -0.03980287 0.28170580
-0.02824521 -0.04005066 0.28188413
-0.02824313 -0.04011454 0.28188807
-0.02824313 -0.04011454 0.28188807
-0.02824236 -0.04029350 0.28188741
-0.02827281 -0.04034466 0.28185460
-0.02827281 -0.04034466 0.28185460
-0.02827281 -0.04034466 0.28185460
-0.02830169 -0.04054210 0.28185859
-0.02830169 -0.04054210 0.28185859
-0.02845063 -0.04051998 0.28174788
-0.02822717 -0.04051447 0.28193286
-0.02822717 -0.04051447 0.28193286
-0.02829873 -0.04087624 0.28194028
-0.02830257 -0.04099645 0.28196502
-0.02830257 -0.04099645 0.28196502
-0.02832495 -0.04113272 0.28197643
-0.02832495 -0.04113272 0.28197643
-0.02832495 -0.04113272 0.28197643
-0.02832495 -0.04113272 0.28197643
-0.02844671 -0.04115345 0.28186753
-0.02829381 -0.04127989 0.28205693
-0.02829381 -0.04127989 0.28205693
-0.02831846 -0.04147167 0.28208262
-0.02831846 -0.04147167 0.28208262
-0.02831846 -0.04147167 0.28208262
-0.02833694 -0.04163738 0.28210428
-0.02833694 -0.04163738 0.28210428
-0.02833694 -0.04163738 0.28210428
-0.02833694 -0.04163738 0.28210428
-0.02852419 -0.04182038 0.28201348
-0.02835905 -0.04189746 0.28218335
-0.02830162 -0.04180235 0.28221118
-0.02833459 -0.04196820 0.28223637
-0.02833459 -0.04196820 0.28223637
-0.02833459 -0.04196820 0.28223637
-0.02837086 -0.04212489 0.28226379
-0.02837086 -0.04212489 0.28226379
-0.02837086 -0.04212489 0.28226379
-0.02840507 -0.04227991 0.28229225
-0.02855579 -0.04235539 0.28219220
-0.02838153 -0.04235055 0.28234857
-0.02838153 -0.04235055 0.28234857
-0.02842190 -0.04251328 0.28237772
-0.02842190 -0.04251328 0.28237772
-0.02846112 -0.04267268 0.28240654
-0.02846112 -0.04267268 0.28240654
-0.02849773 -0.04282946 0.28243667
-0.02849773 -0.04282946 0.28243667
-0.02855360 -0.04290328 0.28241417
-0.02872134 -0.04301537 0.28233716
-0.02847426 -0.04290560 0.28249323
-0.02851412 -0.04306497 0.28252199
-0.02851412 -0.04306497 0.28252199
-0.02851412 -0.04306497 0.28252199
-0.02851412 -0.04306497 0.28252199
-0.02854974 -0.04320415 0.28255343
-0.02848936 -0.04313364 0.28257552
-0.02854974 -0.04320415 0.28255343
-0.02854974 -0.04320415 0.28255343
-0.02877457 -0.04330055 0.28245434
-0.02859143 -0.04333339 0.28259334
-0.02856896 -0.04339493 0.28265059
-0.02856896 -0.04339493 0.28265059
-0.02861711 -0.04349932 0.28270754
-0.02861711 -0.04349932 0.28270754
-0.02861711 -0.04349932 0.28270754
-0.02868299 -0.04360036 0.28277883
-0.02868299 -0.04360036 0.28277883
-0.02868299 -0.04360036 0.28277883
-0.02886355 -0.04361464 0.28271136
-0.02864664 -0.04365147 0.28291330
-0.02864664 -0.04365147 0.28291330
-0.02872526 -0.04366812 0.28289425
-0.02872046 -0.04369277 0.28298560
-0.02879829 -0.04371959 0.28299883
-0.02879829 -0.04371959 0.28299883
-0.02879829 -0.04371959 0.28299883
-0.02885030 -0.04376044 0.28309461
-0.02885030 -0.04376044 0.28309461
-0.02906352 -0.04375298 0.28301033
-0.02882650 -0.04371523 0.28296292
-0.02884044 -0.04377089 0.28315827
-0.02884044 -0.04377089 0.28315827
-0.02887923 -0.04377504 0.28312373
-0.02887923 -0.04377504 0.28312373
-0.02888849 -0.04379326 0.28321457
-0.02891947 -0.04378897 0.28316507
-0.02912080 -0.04412396 0.28323478
-0.02909420 -0.04415281 0.28325146
-0.02913384 -0.04380544 0.28320763
-0.02894951 -0.04380649 0.28323382
-0.02897418 -0.04381932 0.28332025
-0.02900965 -0.04382198 0.28330919
-0.02911530 -0.04403608 0.28335080
-0.02909079 -0.04407426 0.28334492
-0.02906284 -0.04410603 0.28336388
-0.02903395 -0.04414007 0.28337598
-0.02897685 -0.04418955 0.28341731
-0.02893608 -0.04424483 0.28343016
-0.02903395 -0.04414007 0.28337598
-0.02889272 -0.04435721 0.28339773
-0.02890282 -0.04437731 0.28335401
-0.02893003 -0.04437442 0.28330639
-0.02893198 -0.04441628 0.28327388
-0.02895394 -0.04442796 0.28323561
-0.02897176 -0.04444840 0.28320670
-0.02901486 -0.04444627 0.28316656
-0.02903199 -0.04446646 0.28314412
-0.02907250 -0.04448364 0.28310615
-0.02926351 -0.04432512 0.28302500
-0.02908573 -0.04458178 0.28307834
-0.02910931 -0.04454410 0.28306901
-0.02914259 -0.04463617 0.28304866
-0.02916993 -0.04465282 0.28303519
-0.02917270 -0.04458412 0.28303254
-0.02922755 -0.04469309 0.28300646
-0.02921693 -0.04464434 0.28300977
-0.02926522 -0.04472056 0.28299043
-0.02929995 -0.04474452 0.28297862
-0.02939582 -0.04463977 0.28291759
-0.02923944 -0.04478996 0.28300509
-0.02921589 -0.04476287 0.28301170
-0.02927133 -0.04485754 0.28300080
-0.02923507 -0.04483273 0.28301206
-0.02932636 -0.04500165 0.28299233
-0.02929423 -0.04496107 0.28300089
-0.02929423 -0.04496107 0.28300089
-0.02932745 -0.04505581 0.28300065
-0.02932745 -0.04505581 0.28300065
-0.02952817 -0.04513470 0.28293774
-0.02936563 -0.04528657 0.28302813
-0.02938697 -0.04536130 0.28303453
-0.02938697 -0.04536130 0.28303453
-0.02933636 -0.04533352 0.28305098
-0.02938357 -0.04541980 0.28304997
-0.02939166 -0.04547013 0.28306028
-0.02934741 -0.04545294 0.28307712
-0.02939166 -0.04547013 0.28306028
-0.02941713 -0.04551232 0.28306052
-0.02957060 -0.04555748 0.28300363
-0.02944381 -0.04564955 0.28308734
-0.02944381 -0.04564955 0.28308734
-0.02946696 -0.04575442 0.28310901
-0.02946696 -0.04575442 0.28310901
-0.02958134 -0.04590470 0.28309801
-0.02958134 -0.04590470 0.28309801
-0.02958134 -0.04590470 0.28309801
-0.02958134 -0.04590470 0.28309801
-0.02961106 -0.04601331 0.28312173
-0.02975088 -0.04604103 0.28306553
-0.02964209 -0.04610797 0.28314200
-0.02965952 -0.04621828 0.28317758
-0.02965952 -0.04621828 0.28317758
-0.02965952 -0.04621828 0.28317758
-0.02977740 -0.04636294 0.28316531
-0.02968786 -0.04632450 0.28320980
-0.02980038 -0.04646660 0.28319573
-0.02980038 -0.04646660 0.28319573
-0.02981989 -0.04655997 0.28323257
-0.02991237 -0.04657045 0.28317887
-0.02983294 -0.04664179 0.28326920
-0.02993914 -0.04675790 0.28326118
-0.02993914 -0.04675790 0.28326118
-0.02993914 -0.04675790 0.28326118
-0.03005051 -0.04686697 0.28325251
-0.03005051 -0.04686697 0.28325251
-0.03009922 -0.04690342 0.28324178
-0.03011449 -0.04698063 0.28327584
-0.03019310 -0.04702406 0.28325161
-0.03036684 -0.04710910 0.28320837
-0.03028576 -0.04720352 0.28330022
-0.03028576 -0.04720352 0.28330022
-0.03034994 -0.04722666 0.28327361
-0.03039181 -0.04731379 0.28329521
-0.03041891 -0.04735169 0.28329983
-0.03048270 -0.04740614 0.28329495
-0.03059678 -0.04752388 0.28329903
-0.03059678 -0.04752388 0.28329903
-0.03070559 -0.04763239 0.28330311
-0.03083060 -0.04759420 0.28323865
-0.03073200 -0.04772967 0.28333732
-0.03073200 -0.04772967 0.28333732
-0.03073200 -0.04772967 0.28333732
-0.03074925 -0.04781790 0.28337640
-0.03085712 -0.04791725 0.28338358
-0.03077104 -0.04790003 0.28341439
-0.03085712 -0.04791725 0.28338358
-0.03087778 -0.04800093 0.28342682
-0.03095834 -0.04801087 0.28339940
-0.03111297 -0.04805112 0.28337693
-0.03090673 -0.04807691 0.28346434
-0.03100684 -0.04817279 0.28349304
-0.03100684 -0.04817279 0.28349304
-0.03100684 -0.04817279 0.28349304
-0.03102608 -0.04824488 0.28354040
-0.03102608 -0.04824488 0.28354040
-0.03102608 -0.04824488 0.28354040
-0.03102608 -0.04824488 0.28354040
-0.03105603 -0.04831526 0.28358310
-0.03119048 -0.04830139 0.28354210
-0.03098774 -0.04837737 0.28366047
-0.03098774 -0.04837737 0.28366047
-0.03093846 -0.04842124 0.28374329
-0.03102424 -0.04847192 0.28378263
-0.03102424 -0.04847192 0.28378263
-0.03103467 -0.04850086 0.28386220
-0.03104614 -0.04852946 0.28394461
-0.03111589 -0.04850302 0.28382894
-0.03112792 -0.04855204 0.28399047
-0.03138415 -0.04854457 0.28403634
-0.03130904 -0.04855974 0.28405070
-0.03138415 -0.04854457 0.28403634
-0.03138415 -0.04854457 0.28403634
-0.03145800 -0.04852566 0.28402215
-0.03146682 -0.04854342 0.28408527
-0.03169657 -0.04869415 0.28417704
-0.03169077 -0.04881421 0.28415635
-0.03169074 -0.04885878 0.28415230
-0.03169866 -0.04893802 0.28416029
-0.03169074 -0.04885878 0.28415230
-0.03163692 -0.04903087 0.28422016
-0.03163269 -0.04908223 0.28420410
-0.03167028 -0.04910102 0.28417209
-0.03169674 -0.04912127 0.28414863
-0.03173784 -0.04912329 0.28410733
-0.03174970 -0.04916783 0.28409654
-0.03179389 -0.04918287 0.28406304
-0.03181672 -0.04918312 0.28404552
-0.03184734 -0.04919319 0.28402257
-0.03195958 -0.04915348 0.28394365
-0.03189735 -0.04938280 0.28402495
-0.03189735 -0.04938280 0.28402495
-0.03195759 -0.04950415 0.28402689
-0.03209761 -0.04969130 0.28402299
-0.03213678 -0.04968069 0.28399432
-0.03224564 -0.04979106 0.28398010
-0.03271234 -0.05049407 0.28401619
-0.03276019 -0.05058616 0.28403062
-0.03284210 -0.05061083 0.28399047
-0.03292317 -0.05079939 0.28403893
-0.03304158 -0.05090957 0.28402141
-0.03304158 -0.05090957 0.28402141
-0.03307976 -0.05099288 0.28404373
-0.03320039 -0.05109079 0.28403014
-0.03336391 -0.05118525 0.28399867
-0.03327031 -0.05125926 0.28409719
-0.03327031 -0.05125926 0.28409719
-0.03332867 -0.05131388 0.28409904
-0.03337801 -0.05133821 0.28408402
-0.03341017 -0.05140282 0.28411108
-0.03345345 -0.05143574 0.28411019
-0.03352229 -0.05145634 0.28408566
-0.03355112 -0.05151285 0.28411156
-0.03365799 -0.05158964 0.28411669
-0.03382744 -0.05159853 0.28405473
-0.03369540 -0.05165939 0.28415522
-0.03369540 -0.05165939 0.28415522
-0.03380935 -0.05173638 0.28415895
-0.03388667 -0.05173073 0.28412127
-0.03392684 -0.05180506 0.28416350
-0.03396081 -0.05187596 0.28420609
-0.03396081 -0.05187596 0.28420609
-0.03407107 -0.05193857 0.28421748
-0.03414614 -0.05193212 0.28419095
-0.03430784 -0.05199770 0.28419784
-0.03433175 -0.05212498 0.28428501
-0.03443294 -0.05217899 0.28429589
-0.03443294 -0.05217899 0.28429589
-0.03443294 -0.05217899 0.28429589
-0.03443294 -0.05217899 0.28429589
-0.03452662 -0.05218205 0.28428194
-0.03452662 -0.05218205 0.28428194
-0.03461164 -0.05222891 0.28433111
-0.03466268 -0.05222761 0.28432855
-0.03480069 -0.05215179 0.28426448
-0.03471377 -0.05225172 0.28435686
-0.03481355 -0.05225455 0.28437778
-0.03481355 -0.05225455 0.28437778
-0.03481355 -0.05225455 0.28437778
-0.03487112 -0.05226655 0.28441283
-0.03487112 -0.05226655 0.28441283
-0.03491665 -0.05226615 0.28442964
-0.03498596 -0.05225094 0.28443840
-0.03498596 -0.05225094 0.28443840
-0.03514174 -0.05217854 0.28439796
-0.03484355 -0.05241636 0.28467041
-0.03491933 -0.05239883 0.28467345
-0.03491933 -0.05239883 0.28467345
-0.03495320 -0.05241285 0.28474441
-0.03495320 -0.05241285 0.28474441
-0.03502379 -0.05239699 0.28476408
-0.03497190 -0.05242766 0.28483856
-0.03505141 -0.05240380 0.28484482
-0.03505141 -0.05240380 0.28484482
-0.03525611 -0.05230496 0.28478014
-0.03510867 -0.05237579 0.28481898
-0.03517703 -0.05234377 0.28480226
-0.03517703 -0.05234377 0.28480226
-0.03517703 -0.05234377 0.28480226
-0.03519203 -0.05235051 0.28489450
-0.03521348 -0.05232309 0.28477368
-0.03522635 -0.05233267 0.28486338
-0.03525611 -0.05230496 0.28478014
-0.03527250 -0.05231189 0.28487217
-0.03547730 -0.05229601 0.28481504
-0.03554526 -0.05239313 0.28483957
-0.03536658 -0.05226887 0.28483653
-0.03555092 -0.05237674 0.28477037
-0.03555429 -0.05235930 0.28470942
-0.03555429 -0.05235930 0.28470942
-0.03556805 -0.05233103 0.28456387
-0.03556805 -0.05233103 0.28456387
-0.03556805 -0.05233103 0.28456387
-0.03557677 -0.05232763 0.28450626
-0.03555873 -0.05216804 0.28443211
-0.03557948 -0.05230328 0.28446358
-0.03559287 -0.05230438 0.28437626
-0.03559287 -0.05230438 0.28437626
-0.03560206 -0.05230475 0.28430119
-0.03560906 -0.05230841 0.28423455
-0.03560906 -0.05230841 0.28423455
-0.03561966 -0.05231509 0.28415293
-0.03562827 -0.05231236 0.28410727
-0.03564487 -0.05229053 0.28405428
-0.03570924 -0.05217358 0.28397697
-0.03563919 -0.05242651 0.28403494
-0.03564977 -0.05244653 0.28398639
-0.03565414 -0.05247642 0.28394908
-0.03566475 -0.05251801 0.28392807
-0.03569612 -0.05256354 0.28390250
-0.03573967 -0.05257208 0.28384900
-0.03574686 -0.05253718 0.28381982
-0.03575931 -0.05251891 0.28380316
-0.03581730 -0.05252345 0.28377005
-0.03599812 -0.05245957 0.28367198
-0.03587844 -0.05256696 0.28376141
-0.03587844 -0.05256696 0.28376141
-0.03598808 -0.05266389 0.28374341
-0.03604734 -0.05271463 0.28372654
-0.03602616 -0.05267349 0.28371799
-0.03613615 -0.05278568 0.28370067
-0.03616584 -0.05280352 0.28369153
-0.03615505 -0.05277178 0.28367016
-0.03618982 -0.05280038 0.28366700
-0.03634218 -0.05283701 0.28358763
-0.03622422 -0.05284928 0.28367704
-0.03622422 -0.05284928 0.28367704
-0.03622422 -0.05284928 0.28367704
-0.03626426 -0.05288750 0.28367439
-0.03626426 -0.05288750 0.28367439
-0.03626426 -0.05288750 0.28367439
-0.03629972 -0.05291076 0.28366625
-0.03629252 -0.05288937 0.28365257
-0.03629252 -0.05288937 0.28365257
-0.03639443 -0.05286679 0.28357860
-0.03629972 -0.05291076 0.28366625
-0.03633213 -0.05294258 0.28367487
-0.03637104 -0.05293681 0.28364459
-0.03647487 -0.05298762 0.28361726
-0.03647487 -0.05298762 0.28361726
-0.03652979 -0.05300989 0.28359929
-0.03661140 -0.05305396 0.28359103
-0.03661140 -0.05305396 0.28359103
-0.03667606 -0.05312504 0.28360957
-0.03682464 -0.05310621 0.28352386
-0.03675191 -0.05314246 0.28358394
-0.03681654 -0.05318890 0.28358316
-0.03691373 -0.05332538 0.28362328
-0.03691373 -0.05332538 0.28362328
-0.03691373 -0.05332538 0.28362328
-0.03700842 -0.05338353 0.28360626
-0.03708994 -0.05341066 0.28357622
-0.03714555 -0.05347760 0.28359780
-0.03714555 -0.05347760 0.28359780
-0.03734817 -0.05352741 0.28351671
-0.03724459 -0.05358547 0.28362453
-0.03735340 -0.05365447 0.28361425
-0.03735340 -0.05365447 0.28361425
-0.03741569 -0.05369870 0.28360981
-0.03748991 -0.05375372 0.28361446
-0.03756503 -0.05380901 0.28361672
-0.03756503 -0.05380901 0.28361672
-0.03769121 -0.05386464 0.28358993
-0.03769121 -0.05386464 0.28358993
-0.03788403 -0.05393563 0.28355837
-0.03785098 -0.05397185 0.28361547
-0.03794451 -0.05404053 0.28363687
-0.03794451 -0.05404053 0.28363687
-0.03802397 -0.05406394 0.28361583
-0.03810434 -0.05410556 0.28361610
-0.03822647 -0.05418145 0.28362659
-0.03822647 -0.05418145 0.28362659
-0.03829309 -0.05422060 0.28362706
-0.03842373 -0.05424349 0.28358856
-0.03853595 -0.05424609 0.28355205
-0.03843918 -0.05430351 0.28364456
-0.03851877 -0.05433766 0.28364906
-0.03851877 -0.05433766 0.28364906
-0.03859812 -0.05436164 0.28364399
-0.03870494 -0.05440454 0.28364703
-0.03870494 -0.05440454 0.28364703
-0.03876796 -0.05442993 0.28365147
-0.03882597 -0.05445289 0.28365704
-0.03887414 -0.05447362 0.28366157
-0.03904421 -0.05443341 0.28356776
-0.03915967 -0.05456187 0.28368071
-0.03920481 -0.05458337 0.28369325
-0.03915572 -0.05460092 0.28373060
-0.03922466 -0.05462844 0.28375605
-0.03936945 -0.05463794 0.28375652
-0.03933063 -0.05464964 0.28378111
-0.03938323 -0.05467395 0.28381553
-0.03944637 -0.05465436 0.28377655
-0.03951678 -0.05468727 0.28383282
-0.03959103 -0.05464370 0.28377262
-0.03955046 -0.05474361 0.28393707
-0.03961257 -0.05475593 0.28397122
-0.03968132 -0.05474370 0.28396136
-0.03974147 -0.05476601 0.28402102
-0.03981449 -0.05475996 0.28403607
-0.03985422 -0.05476967 0.28407848
-0.03991970 -0.05477144 0.28412774
-0.03997755 -0.05477355 0.28418410
-0.04006119 -0.05475258 0.28420439
-0.04017532 -0.05464465 0.28413087
-0.04010363 -0.05474608 0.28424120
-0.04016222 -0.05474668 0.28432566
-0.04020724 -0.05476171 0.28443283
-0.04027565 -0.05472419 0.28443140
-0.04027565 -0.05472419 0.28443140
-0.04032226 -0.05472238 0.28451800
-0.04035893 -0.05472178 0.28459382
-0.04040126 -0.05470586 0.28463063
-0.04043890 -0.05468725 0.28465655
-0.04056522 -0.05458339 0.28468287
-0.04047855 -0.05468280 0.28475934
-0.04051753 -0.05467563 0.28484830
-0.04051198 -0.05466696 0.28479850
-0.04055469 -0.05465621 0.28489643
-0.04059790 -0.05462923 0.28493807
-0.04060950 -0.05462844 0.28499806
-0.04059951 -0.05461007 0.28486249
-0.04063440 -0.05459970 0.28495628
-0.04067870 -0.05457054 0.28502658
-0.04076193 -0.05448122 0.28500387
-0.04067384 -0.05458670 0.28508505
-0.04067384 -0.05458670 0.28508505
-0.04071826 -0.05457429 0.28519115
-0.04074398 -0.05453470 0.28512478
-0.04074398 -0.05453470 0.28512478
-0.04078566 -0.05453425 0.28523880
-0.04078566 -0.05453425 0.28523880
-0.04078566 -0.05453425 0.28523880
-0.04082941 -0.05451337 0.28528509
-0.04089920 -0.05441174 0.28521150
-0.02862804 -0.03726878 0.28700379
-0.02861586 -0.03730908 0.28704005
-0.02858663 -0.03732013 0.28706971
-0.02860060 -0.03738094 0.28713423
-0.02858045 -0.03739092 0.28716281
-0.02858908 -0.03742687 0.28720796
-0.02856877 -0.03744959 0.28724948
-0.02859590 -0.03747858 0.28727946
-0.02855456 -0.03751631 0.28736845
-0.02878847 -0.03757842 0.28736341
-0.02848534 -0.03754067 0.28747371
-0.02846246 -0.03756172 0.28752622
-0.02840372 -0.03757989 0.28758171
-0.02841858 -0.03760098 0.28763381
-0.02844437 -0.03761333 0.28766039
-0.02842011 -0.03762106 0.28769791
-0.02843030 -0.03764660 0.28777403
-0.02841871 -0.03765918 0.28782225
-0.02844500 -0.03767170 0.28786334
-0.02869987 -0.03770805 0.28789073
-0.02836028 -0.03769128 0.28801501
-0.02833366 -0.03770952 0.28808641
-0.02831776 -0.03773483 0.28815830
-0.02831341 -0.03774997 0.28820324
-0.02825860 -0.03777413 0.28827724
-0.02828502 -0.03778817 0.28832048
-0.02826224 -0.03781126 0.28839776
-0.02825748 -0.03782930 0.28845415
-0.02829567 -0.03785149 0.28853619
-0.02876806 -0.03785614 0.28854474
-0.02828671 -0.03786736 0.28861800
-0.02822503 -0.03787671 0.28865913
-0.02819637 -0.03789498 0.28870979
-0.02816135 -0.03791485 0.28874499
-0.02807868 -0.03795376 0.28881270
-0.02807868 -0.03795376 0.28881270
-0.02806056 -0.03798230 0.28892794
-0.02806056 -0.03798230 0.28892794
-0.02804525 -0.03800230 0.28901452
-0.02794654 -0.03799641 0.28902528
-0.02794060 -0.03805302 0.28916615
-0.02794060 -0.03805302 0.28916615
-0.02796264 -0.03809531 0.28925204
-0.02786037 -0.03811271 0.28933826
-0.02785102 -0.03815187 0.28941581
-0.02783590 -0.03818306 0.28947851
-0.02784272 -0.03821566 0.28954583
-0.02783571 -0.03825220 0.28963304
-0.02799702 -0.03830062 0.28965554
-0.02783571 -0.03825220 0.28963304
-0.02785911 -0.03834016 0.28979662
-0.02782794 -0.03836985 0.28988290
-0.02794995 -0.03840034 0.28986073
-0.02796909 -0.03844274 0.28993940
-0.02798834 -0.03848562 0.28999743
-0.02799067 -0.03853532 0.29006612
-0.02803519 -0.03858662 0.29010630
-0.02804564 -0.03862569 0.29015973
-0.02817143 -0.03866313 0.29015934
-0.02817143 -0.03866313 0.29015934
-0.02812148 -0.03867900 0.29019472
-0.02812148 -0.03867900 0.29019472
-0.02812148 -0.03867900 0.29019472
-0.02813193 -0.03870709 0.29021534
-0.02813193 -0.03870709 0.29021534
-0.02813193 -0.03870709 0.29021534
-0.02813193 -0.03870709 0.29021534
-0.02834169 -0.03876439 0.29027128
-0.02826490 -0.03882249 0.29028770
-0.02836339 -0.03883702 0.29033273
-0.02899569 -0.03898828 0.29026535
-0.02831816 -0.03894980 0.29038212
-0.02837221 -0.03900461 0.29042843
-0.02833486 -0.03908445 0.29046157
-0.02826693 -0.03910053 0.29047194
-0.02830870 -0.03914313 0.29049307
-0.02910229 -0.03914108 0.29051641
-0.02907956 -0.03927257 0.29043031
-0.02908881 -0.03937902 0.29041770
-0.02908881 -0.03937902 0.29041770
-0.02908605 -0.03954670 0.29035231
-0.02908605 -0.03954670 0.29035231
-0.02904690 -0.03966865 0.29060540
-0.02904690 -0.03966865 0.29060540
-0.02894992 -0.03979056 0.29060674
-0.02907577 -0.03982064 0.29056743
-0.02916180 -0.03978016 0.29054058
-0.02890497 -0.04004925 0.29056683
-0.02900859 -0.04009077 0.29052579
-0.02900859 -0.04009077 0.29052579
-0.02912816 -0.03994552 0.29022101
-0.02915638 -0.04003828 0.29020411
-0.02914062 -0.04008376 0.29014435
-0.02913075 -0.04012789 0.29009318
-0.02911874 -0.04017185 0.29003406
-0.02910900 -0.04021757 0.28997743
-0.02922408 -0.04034033 0.29006669
-0.02907865 -0.04029870 0.28985342
-0.02909225 -0.04036107 0.28981897
-0.02909628 -0.04040949 0.28977844
-0.02910494 -0.04045072 0.28974944
-0.02909655 -0.04049524 0.28968599
-0.02908257 -0.04053408 0.28961593
-0.02912609 -0.04060576 0.28960669
-0.02913356 -0.04066656 0.28954220
-0.02908420 -0.04063457 0.28950000
-0.02919297 -0.04073505 0.28954697
-0.02904559 -0.04074813 0.28931198
-0.02904615 -0.04079998 0.28925306
-0.02909470 -0.04088336 0.28922647
-0.02909470 -0.04088336 0.28922647
-0.02908590 -0.04095534 0.28912538
-0.02908308 -0.04104299 0.28902027
-0.02913580 -0.04111385 0.28900996
-0.02920356 -0.04120441 0.28898987
-0.02911616 -0.04120880 0.28888106
-0.02930715 -0.04131089 0.28896812
-0.02911229 -0.04131396 0.28875187
-0.02910357 -0.04139380 0.28864175
-0.02913916 -0.04146466 0.28858906
-0.02919357 -0.04156592 0.28850892
-0.02926004 -0.04162012 0.28849399
-0.02932009 -0.04169312 0.28843328
-0.02940821 -0.04175198 0.28840598
-0.02939745 -0.04183033 0.28826550
-0.02945994 -0.04188791 0.28820315
-0.02946356 -0.04197682 0.28804201
-0.02951305 -0.04202023 0.28798282
-0.02967316 -0.04203666 0.28800610
-0.02976265 -0.04207523 0.28793523
-0.02998788 -0.04207351 0.28794271
-0.03008860 -0.04212467 0.28788540
-0.03019581 -0.04217239 0.28787684
-0.03022145 -0.04221081 0.28781995
-0.03028161 -0.04224923 0.28781298
-0.03043016 -0.04236386 0.28782371
-0.03022677 -0.04233858 0.28763613
-0.03031296 -0.04235743 0.28767976
-0.03031296 -0.04235743 0.28767976
-0.03035036 -0.04240857 0.28766206
-0.03040991 -0.04243955 0.28769574
-0.03040991 -0.04243955 0.28769574
-0.03049405 -0.04270449 0.28772697
-0.03048583 -0.04277995 0.28775230
-0.03043951 -0.04283289 0.28772154
-0.03057566 -0.04268183 0.28783178
-0.03038264 -0.04290584 0.28769523
-0.03040506 -0.04294069 0.28778246
-0.03039190 -0.04299510 0.28785810
-0.03039190 -0.04299510 0.28785810
-0.03038458 -0.04303471 0.28795969
-0.03033515 -0.04310496 0.28799605
-0.03030121 -0.04315170 0.28801689
-0.03034340 -0.04310851 0.28806433
-0.03028065 -0.04319080 0.28810146
-0.03036178 -0.04309832 0.28829119
-0.03022862 -0.04332196 0.28828287
-0.03020999 -0.04336654 0.28831241
-0.03023502 -0.04336893 0.28845766
-0.03026206 -0.04337016 0.28859273
-0.03022904 -0.04345787 0.28861651
-0.03025836 -0.04346724 0.28875330
-0.03028648 -0.04346984 0.28886703
-0.03026424 -0.04354432 0.28888592
-0.03031803 -0.04351466 0.28905368
-0.03036739 -0.04339900 0.28920224
-0.03034788 -0.04351956 0.28918111
-0.03035517 -0.04363384 0.28929529
-0.03037699 -0.04363080 0.28936481
-0.03040651 -0.04361824 0.28946581
-0.03039441 -0.04372731 0.28948653
-0.03043324 -0.04364084 0.28959233
-0.03031128 -0.04349259 0.28994253
-0.03049183 -0.04379794 0.28980923
-0.03034419 -0.04355291 0.29009709
-0.03053376 -0.04369050 0.29003561
-0.03044599 -0.04361473 0.29023048
-0.03058334 -0.04392932 0.29006693
-0.03057249 -0.04372602 0.29014632
-0.03063616 -0.04392539 0.29020548
-0.03067023 -0.04393878 0.29029360
-0.03069509 -0.04400579 0.29033175
-0.03074187 -0.04409471 0.29041320
-0.03078587 -0.04414029 0.29050183
-0.03081358 -0.04417711 0.29055682
-0.03083921 -0.04408037 0.29083782
-0.03075859 -0.04410762 0.29098892
-0.03097735 -0.04441968 0.29077655
-0.03095141 -0.04432362 0.29079008
-0.03104495 -0.04454656 0.29082495
-0.03101805 -0.04446009 0.29083392
-0.03106004 -0.04451249 0.29088068
-0.03110566 -0.04456490 0.29093269
-0.03114350 -0.04466193 0.29092130
-0.03126947 -0.04475673 0.29108658
-0.03128184 -0.04491195 0.29093295
-0.03128184 -0.04491195 0.29093295
-0.03132318 -0.04499804 0.29091188
-0.03132318 -0.04499804 0.29091188
-0.03138268 -0.04509146 0.29090703
-0.03138268 -0.04509146 0.29090703
-0.03143517 -0.04518408 0.29088080
-0.03138067 -0.04518107 0.29079890
-0.03138067 -0.04518107 0.29079890
-0.03149604 -0.04526588 0.29089355
-0.03141097 -0.04535243 0.29066315
-0.03149235 -0.04549321 0.29062805
-0.03142911 -0.04543675 0.29059771
-0.03147997 -0.04556713 0.29051879
-0.03142289 -0.04554673 0.29046056
-0.03149560 -0.04565173 0.29043558
-0.03151759 -0.04569337 0.29041231
-0.03147086 -0.04570667 0.29033533
-0.03155267 -0.04582047 0.29028982
-0.03160139 -0.04581116 0.29036292
-0.03144156 -0.04587571 0.29009289
-0.03149712 -0.04594620 0.29007262
-0.03141247 -0.04596356 0.28994417
-0.03143080 -0.04602625 0.28988647
-0.03145468 -0.04609608 0.28982019
-0.03148786 -0.04616887 0.28975326
-0.03144259 -0.04617302 0.28969702
-0.03146546 -0.04625956 0.28960085
-0.03142629 -0.04625462 0.28956470
-0.03155994 -0.04630413 0.28963536
-0.03146687 -0.04639589 0.28939754
-0.03143148 -0.04641924 0.28932244
-0.03146125 -0.04650155 0.28922293
-0.03142757 -0.04654486 0.28911683
-0.03150041 -0.04659397 0.28910878
-0.03147935 -0.04665076 0.28898072
-0.03150249 -0.04669391 0.28892431
-0.03153820 -0.04675031 0.28885785
-0.03153145 -0.04681587 0.28873649
-0.03180211 -0.04681145 0.28891167
-0.03163365 -0.04687691 0.28868592
-0.03163353 -0.04691106 0.28861925
-0.03162945 -0.04694756 0.28854740
-0.03162727 -0.04698008 0.28848487
-0.03162287 -0.04701677 0.28841493
-0.03169913 -0.04704131 0.28839907
-0.03169696 -0.04707016 0.28834137
-0.03170403 -0.04710886 0.28826532
-0.03169241 -0.04713800 0.28820601
-0.03206384 -0.04704748 0.28842592
-0.03189118 -0.04711580 0.28828773
-0.03193525 -0.04708379 0.28835613
-0.03197317 -0.04710900 0.28830168
-0.03209944 -0.04711347 0.28827831
-0.03219086 -0.04709177 0.28829634
-0.03229028 -0.04708043 0.28827113
-0.03239206 -0.04704874 0.28829777
