-0.02887900 -0.03981200 0.28162500
-0.02877200 -0.03934600 0.28166100
-0.02887400 -0.03958500 0.28162900
-0.02880300 -0.04006400 0.28163099
-0.02886100 -0.04030000 0.28165001
-0.02857000 -0.03990400 0.28166801
-0.02871800 -0.03986400 0.28163001
-0.02873500 -0.03995800 0.28163001
-0.02886500 -0.04010700 0.28163701
-0.02868700 -0.04000900 0.28163701
-0.02864500 -0.04028400 0.28165299
-0.02842000 -0.04026900 0.28173900
-0.02835100 -0.04016800 0.28177801
-0.02847500 -0.04031400 0.28171399
-0.02863100 -0.04003200 0.28165001
-0.02831900 -0.04012200 0.28179899
-0.02867300 -0.04013900 0.28164399
-0.02835300 -0.03999100 0.28177699
-0.02850500 -0.04010100 0.28169399
-0.02851000 -0.04024400 0.28169200
-0.02859700 -0.04018900 0.28166100
-0.02852600 -0.04029800 0.28169000
-0.02871300 -0.04008900 0.28163701
-0.02900800 -0.03996000 0.28165600
-0.02896500 -0.04014200 0.28165799
-0.02868100 -0.04018600 0.28164199
-0.02864300 -0.04009100 0.28165001
-0.02880900 -0.04040000 0.28165099
-0.02857900 -0.04036800 0.28168100
-0.02833400 -0.03991000 0.28179699
-0.02856200 -0.03992200 0.28166899
-0.02890800 -0.04025200 0.28165501
-0.02865900 -0.03992800 0.28163999
-0.02882300 -0.04014400 0.28163400
-0.02908600 -0.03958700 0.28165999
-0.02925400 -0.03944700 0.28172001
-0.02914200 -0.03977200 0.28169399
-0.02921000 -0.04019600 0.28178301
-0.02916600 -0.03931000 0.28168800
-0.02929200 -0.03933200 0.28174201
-0.02933700 -0.03960000 0.28178599
-0.02940500 -0.03938200 0.28180701
-0.02909600 -0.03991600 0.28168601
-0.02906100 -0.03971400 0.28165600
-0.02854400 -0.04050300 0.28170401
-0.02897500 -0.04076800 0.28172699
-0.02847900 -0.04057000 0.28173900
-0.02839500 -0.04061900 0.28180099
-0.02898500 -0.04055200 0.28171399
-0.02868200 -0.04052100 0.28167000
-0.02861600 -0.04092700 0.28173500
-0.02869500 -0.04108000 0.28174099
-0.02874800 -0.04123300 0.28177300
-0.02868000 -0.04103000 0.28173000
-0.02845300 -0.04057400 0.28175399
-0.02840800 -0.04050600 0.28176999
-0.02847100 -0.04090500 0.28179899
-0.02845600 -0.04070800 0.28176901
-0.02850000 -0.04084300 0.28177300
-0.02856400 -0.04065900 0.28171200
-0.02844700 -0.04047600 0.28174600
-0.02854400 -0.04048700 0.28170401
-0.02885900 -0.04056000 0.28167900
-0.02877300 -0.04050400 0.28166300
-0.02902300 -0.04047500 0.28171900
-0.02845400 -0.04080900 0.28179401
-0.02847800 -0.04084100 0.28178501
-0.02876800 -0.04057100 0.28167099
-0.02852200 -0.04099400 0.28178599
-0.02852600 -0.04096700 0.28177899
-0.02859000 -0.04086700 0.28173500
-0.02855700 -0.04107600 0.28178301
-0.02853600 -0.04112100 0.28180200
-0.02865000 -0.04095600 0.28172800
-0.02872500 -0.04096600 0.28171501
-0.02876600 -0.04130200 0.28178999
-0.02838300 -0.04048100 0.28178400
-0.02854300 -0.04117500 0.28180599
-0.02868300 -0.04114800 0.28175601
-0.02840900 -0.04074700 0.28180900
-0.02894300 -0.04117500 0.28178501
-0.02882100 -0.04097300 0.28172201
-0.02909500 -0.04086700 0.28179500
-0.02857600 -0.04068700 0.28171301
-0.02870800 -0.04058900 0.28167400
-0.02855600 -0.04046000 0.28169799
-0.02959900 -0.04664100 0.28411299
-0.02906500 -0.04560900 0.28368101
-0.02892000 -0.04523300 0.28378400
-0.02905100 -0.04551900 0.28346801
-0.02915800 -0.04579900 0.28387699
-0.02899500 -0.04543200 0.28359300
-0.02912700 -0.04570100 0.28355199
-0.02894400 -0.04530800 0.28371200
-0.02925500 -0.04597400 0.28400299
-0.02891700 -0.04520200 0.28387800
-0.02905700 -0.04558800 0.28375301
-0.02896600 -0.04535000 0.28385100
-0.02892800 -0.04526600 0.28368801
-0.02923700 -0.04594800 0.28359801
-0.02915700 -0.04581000 0.28373301
-0.02919700 -0.04551500 0.28320301
-0.02930900 -0.04566100 0.28317699
-0.02928400 -0.04594800 0.28342101
-0.02924500 -0.04568400 0.28325501
-0.02905500 -0.04530500 0.28325900
-0.02924700 -0.04544100 0.28313300
-0.02944400 -0.04565000 0.28308699
-0.02895100 -0.04522200 0.28338900
-0.02903200 -0.04534100 0.28331000
-0.02916600 -0.04570500 0.28341201
-0.02909500 -0.04551500 0.28333300
-0.02917500 -0.04543400 0.28318700
-0.02923200 -0.04538400 0.28312099
-0.02931300 -0.04576600 0.28323099
-0.02939200 -0.04602800 0.28330600
-0.02983800 -0.04535900 0.28290799
-0.02994200 -0.04595000 0.28297901
-0.02952200 -0.04565800 0.28305101
-0.02977500 -0.04523900 0.28289899
-0.02973600 -0.04558900 0.28295800
-0.02974700 -0.04592300 0.28303501
-0.02979700 -0.04591400 0.28301200
-0.02993200 -0.04568700 0.28294301
-0.02990700 -0.04632700 0.28309101
-0.02966000 -0.04621800 0.28317800
-0.02944200 -0.04618900 0.28336999
-0.03003100 -0.04651000 0.28310299
-0.02942100 -0.04625700 0.28350300
-0.02966200 -0.04677700 0.28393501
-0.02933800 -0.04616000 0.28391001
-0.02957700 -0.04618500 0.28321400
-0.02976200 -0.04659300 0.28330001
-0.02989900 -0.04622400 0.28306499
-0.02993900 -0.04675800 0.28326100
-0.02928500 -0.04606300 0.28379801
-0.02961800 -0.04649600 0.28338099
-0.02933500 -0.04607200 0.28344399
-0.02969700 -0.04680600 0.28369299
-0.02947300 -0.04639100 0.28359199
-0.02949600 -0.04636300 0.28346500
-0.02951800 -0.04646100 0.28357801
-0.02949000 -0.04645100 0.28396699
-0.02958100 -0.04661000 0.28373799
-0.02966400 -0.04677200 0.28383401
-0.02965700 -0.04673300 0.28368500
-0.02943400 -0.04608400 0.28329101
-0.02979200 -0.04684500 0.28349701
-0.02971500 -0.04671000 0.28345701
-0.03002000 -0.04657300 0.28313100
-0.03002000 -0.04646900 0.28309199
-0.03059100 -0.04544700 0.28321800
-0.03023200 -0.04567000 0.28296801
-0.03019900 -0.04524400 0.28297201
-0.03106600 -0.04523100 0.28387800
-0.03101200 -0.04552300 0.28367600
-0.03017500 -0.04603900 0.28297201
-0.03049800 -0.04587900 0.28305599
-0.03032600 -0.04563100 0.28300700
-0.03014300 -0.04549300 0.28294501
-0.03037800 -0.04532500 0.28307399
-0.03096700 -0.04581200 0.28346500
-0.03083900 -0.04549000 0.28347000
-0.03084000 -0.04558800 0.28342801
-0.03102700 -0.04582400 0.28353101
-0.03113900 -0.04574300 0.28371599
-0.03118100 -0.04543900 0.28392401
-0.03100600 -0.04522400 0.28380701
-0.03009700 -0.04565300 0.28294101
-0.03009200 -0.04669100 0.28314400
-0.03018900 -0.04652500 0.28305200
-0.03009000 -0.04638200 0.28304201
-0.03009000 -0.04634200 0.28303200
-0.03028700 -0.04616000 0.28298900
-0.03015500 -0.04671300 0.28312701
-0.03041500 -0.04645800 0.28301701
-0.03012000 -0.04646200 0.28305399
-0.03012000 -0.04654400 0.28307900
-0.03014300 -0.04669400 0.28312501
-0.03017600 -0.04661900 0.28308699
-0.03022000 -0.04664700 0.28308401
-0.03031500 -0.04675300 0.28309101
-0.03020600 -0.04637700 0.28301600
-0.03045900 -0.04614000 0.28301799
-0.03046700 -0.04675400 0.28306001
-0.03022500 -0.04644300 0.28302699
-0.03013100 -0.04659400 0.28309500
-0.03040000 -0.04675800 0.28306901
-0.03041300 -0.04687200 0.28310001
-0.03011000 -0.04656900 0.28309399
-0.03011400 -0.04610900 0.28298301
-0.03061300 -0.04688000 0.28307399
-0.03033700 -0.04689400 0.28312701
-0.03054500 -0.04652600 0.28303599
-0.03083200 -0.04636100 0.28314099
-0.03076500 -0.04625000 0.28312600
-0.03105700 -0.04665100 0.28319699
-0.03109500 -0.04675700 0.28319401
-0.03105000 -0.04653100 0.28322801
-0.03077000 -0.04616100 0.28315100
-0.03117700 -0.04623800 0.28347200
-0.03115900 -0.04666100 0.28325999
-0.03112300 -0.04653000 0.28328300
-0.03101500 -0.04655300 0.28319800
-0.03103700 -0.04618000 0.28335801
-0.02995200 -0.04726000 0.28426400
-0.02987000 -0.04707000 0.28438199
-0.02990000 -0.04718700 0.28411901
-0.03000100 -0.04732600 0.28436700
-0.03020900 -0.04770600 0.28441101
-0.03019100 -0.04771800 0.28410599
-0.03009800 -0.04751200 0.28435901
-0.03043100 -0.04809500 0.28425699
-0.03091700 -0.04853300 0.28426600
-0.03025500 -0.04782800 0.28410301
-0.03074200 -0.04842800 0.28425401
-0.03111300 -0.04856600 0.28450400
-0.03084600 -0.04848100 0.28444901
-0.03025700 -0.04777800 0.28445500
-0.03049600 -0.04816400 0.28440601
-0.03046400 -0.04813000 0.28410801
-0.03033000 -0.04794900 0.28414601
-0.03056500 -0.04825100 0.28411201
-0.03090900 -0.04850600 0.28449601
-0.03079300 -0.04844800 0.28445601
-0.03069200 -0.04835000 0.28454399
-0.03094700 -0.04853200 0.28444400
-0.03061000 -0.04830200 0.28411499
-0.02999200 -0.04731100 0.28380701
-0.03003200 -0.04731500 0.28369099
-0.02974400 -0.04692200 0.28389299
-0.02985800 -0.04697700 0.28355300
-0.02987500 -0.04712100 0.28380600
-0.02996100 -0.04729400 0.28398499
-0.02981800 -0.04692300 0.28356099
-0.02979700 -0.04688400 0.28354701
-0.03001900 -0.04702500 0.28337801
-0.03016800 -0.04749000 0.28364900
-0.03014700 -0.04760800 0.28394899
-0.03006700 -0.04741300 0.28376999
-0.03024200 -0.04759400 0.28365099
-0.03007100 -0.04743800 0.28380999
-0.03010700 -0.04755400 0.28399801
-0.03026500 -0.04765800 0.28368801
-0.03044000 -0.04696000 0.28311801
-0.03037500 -0.04699200 0.28314900
-0.03033300 -0.04710500 0.28322101
-0.03038000 -0.04704100 0.28316799
-0.03021400 -0.04699200 0.28322399
-0.03051100 -0.04689100 0.28308401
-0.03055800 -0.04723500 0.28317899
-0.03049200 -0.04713800 0.28316301
-0.03011400 -0.04698100 0.28327599
-0.03049900 -0.04728800 0.28322601
-0.03020900 -0.04710900 0.28329301
-0.03038700 -0.04720400 0.28324199
-0.03034700 -0.04745000 0.28341100
-0.03053000 -0.04734400 0.28323799
-0.03040900 -0.04695000 0.28312200
-0.03062500 -0.04724900 0.28316101
-0.03044300 -0.04709500 0.28316399
-0.03098500 -0.04713000 0.28312099
-0.03078600 -0.04723000 0.28312901
-0.03063000 -0.04717300 0.28313801
-0.03061800 -0.04715800 0.28313699
-0.03073600 -0.04746000 0.28321099
-0.03079800 -0.04753400 0.28322601
-0.03093700 -0.04764600 0.28322801
-0.03067700 -0.04753200 0.28326800
-0.03102800 -0.04758500 0.28318900
-0.03072700 -0.04733300 0.28316301
-0.03098900 -0.04753700 0.28318101
-0.03084700 -0.04848700 0.28404701
-0.03096300 -0.04830500 0.28361201
-0.03070900 -0.04796300 0.28349099
-0.03060500 -0.04826700 0.28397501
-0.03059200 -0.04823900 0.28393301
-0.03033300 -0.04792100 0.28397301
-0.03038900 -0.04799800 0.28393799
-0.03024500 -0.04779100 0.28400999
-0.03027800 -0.04782000 0.28393200
-0.03104300 -0.04808100 0.28341600
-0.03025000 -0.04775000 0.28387100
-0.03034600 -0.04792000 0.28391299
-0.03044500 -0.04808600 0.28401801
-0.03048400 -0.04803600 0.28377301
-0.03053800 -0.04820700 0.28405699
-0.03065000 -0.04824600 0.28379700
-0.03111600 -0.04850300 0.28382900
-0.03068700 -0.04836300 0.28397799
-0.03097800 -0.04853900 0.28406599
-0.03117400 -0.04846200 0.28374499
-0.03105900 -0.04811400 0.28343201
-0.03124800 -0.04607700 0.28365400
-0.03155700 -0.04586300 0.28412801
-0.03164500 -0.04604900 0.28411201
-0.03154800 -0.04626900 0.28387299
-0.03180300 -0.04625200 0.28413600
-0.03154800 -0.04637700 0.28379801
-0.03129600 -0.04622600 0.28361401
-0.03127600 -0.04612500 0.28365701
-0.03119100 -0.04574600 0.28378099
-0.03161100 -0.04577900 0.28422701
-0.03216100 -0.04638900 0.28434399
-0.03141700 -0.04636100 0.28366300
-0.03153600 -0.04568200 0.28420299
-0.03161600 -0.04633700 0.28389901
-0.03122800 -0.04544000 0.28397900
-0.03177600 -0.04606600 0.28422701
-0.03128000 -0.04564800 0.28393799
-0.03234200 -0.04688800 0.28413099
-0.03236800 -0.04698200 0.28409100
-0.03208500 -0.04651600 0.28419101
-0.03231100 -0.04678500 0.28417599
-0.03235100 -0.04676100 0.28422701
-0.03234800 -0.04670600 0.28426501
-0.03150000 -0.04705400 0.28332999
-0.03213300 -0.04677200 0.28403199
-0.03190900 -0.04749700 0.28343901
-0.03207600 -0.04722400 0.28368199
-0.03206900 -0.04732400 0.28363299
-0.03184200 -0.04737400 0.28342500
-0.03180200 -0.04732000 0.28341401
-0.03130800 -0.04655800 0.28342599
-0.03137500 -0.04683300 0.28334200
-0.03231700 -0.04726300 0.28390300
-0.03139900 -0.04649200 0.28355700
-0.03236000 -0.04740000 0.28391299
-0.03230900 -0.04739100 0.28385699
-0.03225300 -0.04731200 0.28382099
-0.03229700 -0.04755400 0.28382099
-0.03235700 -0.04749900 0.28389800
-0.03209500 -0.04697600 0.28385001
-0.03220300 -0.04686500 0.28402099
-0.03217400 -0.04696200 0.28392801
-0.03215200 -0.04749100 0.28366500
-0.03194500 -0.04721000 0.28357399
-0.03212400 -0.04719700 0.28373900
-0.03236600 -0.04724100 0.28396001
-0.03200400 -0.04747100 0.28352600
-0.03206800 -0.04741900 0.28359801
-0.03204600 -0.04733600 0.28360501
-0.03221200 -0.04735900 0.28376299
-0.03198400 -0.04727800 0.28357199
-0.03206800 -0.04717400 0.28369901
-0.03190000 -0.04709700 0.28360000
-0.03212000 -0.04705800 0.28381699
-0.03222600 -0.04710800 0.28388101
-0.03234700 -0.04717300 0.28396699
-0.03188400 -0.04743400 0.28343800
-0.03194000 -0.04742900 0.28348300
-0.03188800 -0.04728200 0.28349200
-0.03151500 -0.04724600 0.28327101
-0.03173000 -0.04742400 0.28333199
-0.03226700 -0.04701300 0.28397900
-0.03138100 -0.04737400 0.28318501
-0.03148000 -0.04692000 0.28337499
-0.03134900 -0.04707800 0.28323999
-0.03122800 -0.04679000 0.28326201
-0.03144000 -0.04646400 0.28362000
-0.03180800 -0.04700000 0.28358701
-0.03174100 -0.04712600 0.28345799
-0.03174000 -0.04687400 0.28361201
-0.03200200 -0.04695700 0.28378099
-0.03204800 -0.04693400 0.28383899
-0.03208900 -0.04667000 0.28407499
-0.03177800 -0.04647000 0.28396100
-0.03197100 -0.04661200 0.28401899
-0.03199900 -0.04690600 0.28381601
-0.03169300 -0.04696600 0.28350899
-0.03153500 -0.04677700 0.28349701
-0.03135100 -0.04637900 0.28357801
-0.03156000 -0.04753700 0.28322101
-0.03161600 -0.04754900 0.28324300
-0.03125900 -0.04704800 0.28320301
-0.03142400 -0.04719300 0.28324401
-0.03186700 -0.04711300 0.28356400
-0.03250800 -0.04684700 0.28430900
-0.03253700 -0.04693700 0.28428701
-0.03243500 -0.04689400 0.28421301
-0.03263300 -0.04727100 0.28427801
-0.03248400 -0.04712800 0.28413999
-0.03261400 -0.04744200 0.28424999
-0.03267500 -0.04749700 0.28438300
-0.03272700 -0.04746100 0.28446299
-0.03271200 -0.04717800 0.28441200
-0.03276600 -0.04738900 0.28449801
-0.03265900 -0.04753800 0.28438100
-0.03264200 -0.04758600 0.28438601
-0.03251700 -0.04744100 0.28410199
-0.03242700 -0.04741500 0.28399199
-0.03249400 -0.04749100 0.28407499
-0.03244200 -0.04754300 0.28401101
-0.03230500 -0.04797500 0.28411499
-0.03229200 -0.04798800 0.28410700
-0.03230900 -0.04799700 0.28418601
-0.03221100 -0.04808000 0.28410101
-0.03216000 -0.04814000 0.28414801
-0.03140000 -0.04858900 0.28446800
-0.03130400 -0.04857700 0.28457800
-0.03139800 -0.04858800 0.28437099
-0.03141100 -0.04857600 0.28421199
-0.03173600 -0.04871000 0.28415099
-0.03167500 -0.04876500 0.28421801
-0.03235100 -0.04840200 0.28409299
-0.03149400 -0.04789200 0.28323999
-0.03125800 -0.04804400 0.28333700
-0.03136400 -0.04765500 0.28318301
-0.03119200 -0.04809300 0.28338501
-0.03135400 -0.04795600 0.28325999
-0.03126700 -0.04774400 0.28319499
-0.03175900 -0.04810500 0.28344399
-0.03198600 -0.04767900 0.28347400
-0.03229600 -0.04777600 0.28386900
-0.03219100 -0.04791400 0.28377900
-0.03188900 -0.04812400 0.28356400
-0.03192000 -0.04761300 0.28342199
-0.03231300 -0.04781200 0.28391701
-0.03213300 -0.04806100 0.28385201
-0.03205800 -0.04798800 0.28363600
-0.03215700 -0.04807000 0.28392100
-0.03220600 -0.04758900 0.28371301
-0.03133900 -0.04832600 0.28358299
-0.03130000 -0.04839100 0.28365800
-0.03143900 -0.04836200 0.28365901
-0.03125100 -0.04844200 0.28372800
-0.03143500 -0.04847100 0.28384700
-0.03159900 -0.04846200 0.28397700
-0.03166300 -0.04837900 0.28382301
-0.03155700 -0.04824800 0.28354201
-0.03158500 -0.04836500 0.28373900
-0.03156100 -0.04835400 0.28370300
-0.03144800 -0.04849100 0.28390199
-0.03142200 -0.04818600 0.28344101
-0.03225100 -0.04844600 0.28406999
-0.03223400 -0.04844900 0.28407201
-0.03195200 -0.04864200 0.28404799
-0.03201700 -0.04869500 0.28398901
-0.03206500 -0.04860700 0.28400901
-0.03196200 -0.04858100 0.28406501
-0.03195700 -0.04876300 0.28400001
-0.03215600 -0.04864700 0.28393799
-0.03208300 -0.04872800 0.28393000
-0.03218800 -0.04867100 0.28391299
-0.03224500 -0.04848200 0.28403801
-0.03231500 -0.04876300 0.28386000
-0.03213000 -0.04855800 0.28400901
-0.03224200 -0.04877100 0.28385800
-0.03216200 -0.04860100 0.28396499
-0.03217200 -0.04873000 0.28388700
-0.03264300 -0.04768600 0.28454000
-0.03259400 -0.04773500 0.28447199
-0.03246500 -0.04784700 0.28429601
-0.03249500 -0.04771800 0.28419399
-0.03250100 -0.04782000 0.28433999
-0.03247800 -0.04764100 0.28409699
-0.03254900 -0.04768200 0.28426999
-0.03251900 -0.04758200 0.28414300
-0.03251600 -0.04812400 0.28445399
-0.03265200 -0.04811000 0.28445801
-0.03260600 -0.04807600 0.28447300
-0.03250900 -0.04815500 0.28442001
-0.03239800 -0.04790600 0.28422901
-0.03282000 -0.04810400 0.28452301
-0.03286800 -0.04810800 0.28453699
-0.03274400 -0.04805400 0.28454900
-0.03282800 -0.04817000 0.28444201
-0.03314000 -0.04814200 0.28460199
-0.03297600 -0.04806300 0.28460401
-0.03264200 -0.04823700 0.28428599
-0.03318100 -0.04854200 0.28437799
-0.03311000 -0.04838400 0.28442001
-0.03299900 -0.04869800 0.28416100
-0.03272900 -0.04833100 0.28423300
-0.03331500 -0.04836400 0.28456700
-0.03327600 -0.04870800 0.28436300
-0.03337600 -0.04844500 0.28457400
-0.03271900 -0.04841300 0.28416699
-0.03274400 -0.04820400 0.28437400
-0.03240900 -0.04841400 0.28408301
-0.03250600 -0.04821300 0.28433999
-0.03300100 -0.04847900 0.28429100
-0.03336200 -0.04866100 0.28445601
-0.03321700 -0.04862700 0.28435901
-0.03278400 -0.04852400 0.28413099
-0.03318600 -0.04819500 0.28458700
-0.03237200 -0.04841600 0.28408101
-0.03242900 -0.04822800 0.28428900
-0.03240000 -0.04776000 0.28403300
-0.03245200 -0.04759000 0.28403500
-0.03255700 -0.04865400 0.28396001
-0.03286600 -0.04871100 0.28407100
-0.03265900 -0.04860300 0.28402299
-0.03278600 -0.04865400 0.28405699
-0.03250800 -0.04859500 0.28397399
-0.03143600 -0.04935200 0.28470701
-0.03166400 -0.04921900 0.28416499
-0.03143700 -0.04920800 0.28457001
-0.03164700 -0.04934100 0.28419599
-0.03146100 -0.04931900 0.28447300
-0.03145200 -0.04911700 0.28454900
-0.03167800 -0.04892300 0.28418100
-0.03146200 -0.04892600 0.28463301
-0.03169800 -0.04883100 0.28413999
-0.03164000 -0.04885000 0.28420299
-0.03167300 -0.04901400 0.28418401
-0.03156900 -0.04881000 0.28441700
-0.03167500 -0.04903700 0.28417599
-0.03156100 -0.04886400 0.28437400
-0.03148600 -0.04896600 0.28453001
-0.03156400 -0.04898300 0.28432599
-0.03151800 -0.04907200 0.28437200
-0.03145300 -0.04905000 0.28458801
-0.03155100 -0.04915600 0.28427801
-0.03159400 -0.04906200 0.28425801
-0.03142500 -0.04926000 0.28465399
-0.03152200 -0.04909000 0.28435099
-0.03169100 -0.04891500 0.28416499
-0.03163600 -0.04880700 0.28430000
-0.03149000 -0.04921800 0.28438100
-0.03169900 -0.04937200 0.28416401
-0.03176900 -0.04908200 0.28407699
-0.03164900 -0.04976500 0.28479400
-0.03150800 -0.04954100 0.28472701
-0.03150700 -0.04954600 0.28476799
-0.03158000 -0.04965600 0.28471199
-0.03168400 -0.04979000 0.28468001
-0.03154700 -0.04957300 0.28460801
-0.03169000 -0.04948200 0.28421399
-0.03159500 -0.04956900 0.28442100
-0.03157100 -0.04954000 0.28441599
-0.03151000 -0.04938500 0.28437200
-0.03173000 -0.04945400 0.28416800
-0.03168200 -0.04963400 0.28435400
-0.03176300 -0.04980400 0.28444299
-0.03162400 -0.04970300 0.28464800
-0.03148400 -0.04944700 0.28455499
-0.03147600 -0.04939300 0.28448799
-0.03158700 -0.04940400 0.28427601
-0.03165800 -0.04974900 0.28465900
-0.03176500 -0.04988200 0.28464600
-0.03185100 -0.04968400 0.28420201
-0.03184200 -0.04990800 0.28446499
-0.03191900 -0.04966700 0.28413299
-0.03204900 -0.04975800 0.28409299
-0.03186600 -0.04997500 0.28457299
-0.03186900 -0.04977600 0.28425601
-0.03182400 -0.04993500 0.28459099
-0.03180800 -0.04948300 0.28412101
-0.03184800 -0.04945200 0.28408200
-0.03188900 -0.04957700 0.28410900
-0.03232100 -0.04899500 0.28380001
-0.03216100 -0.04886400 0.28384101
-0.03196100 -0.04901800 0.28393501
-0.03221500 -0.04907000 0.28381199
-0.03195900 -0.04897200 0.28394201
-0.03186000 -0.04900200 0.28400499
-0.03196000 -0.04892500 0.28395000
-0.03185000 -0.04895800 0.28402299
-0.03199100 -0.04899000 0.28391799
-0.03196700 -0.04912700 0.28393599
-0.03203400 -0.04921600 0.28390700
-0.03203600 -0.04913900 0.28389099
-0.03189100 -0.04917300 0.28398699
-0.03203100 -0.04933400 0.28392601
-0.03179400 -0.04918300 0.28406301
-0.03194600 -0.04910700 0.28394699
-0.03201300 -0.04925700 0.28392500
-0.03199100 -0.04928900 0.28394201
-0.03208900 -0.04922000 0.28387800
-0.03230700 -0.04907900 0.28378999
-0.03227900 -0.04930300 0.28381801
-0.03213000 -0.04928000 0.28387201
-0.03222000 -0.04933400 0.28384799
-0.03191800 -0.04950300 0.28405401
-0.03198600 -0.04939400 0.28396699
-0.03205300 -0.04967800 0.28404799
-0.03214900 -0.04959700 0.28395501
-0.03221800 -0.04986800 0.28403500
-0.03205500 -0.04947100 0.28395200
-0.03237600 -0.04962700 0.28386599
-0.03330200 -0.04879600 0.28433901
-0.03334400 -0.04905000 0.28424501
-0.03317900 -0.04887800 0.28420100
-0.03344900 -0.04881100 0.28445500
-0.03313100 -0.04884100 0.28418100
-0.03277200 -0.04920400 0.28383401
-0.03278300 -0.04884600 0.28395900
-0.03295200 -0.04917100 0.28391600
-0.03305100 -0.04896200 0.28406700
-0.03277600 -0.04932100 0.28381100
-0.03259200 -0.04915700 0.28379899
-0.03260400 -0.04886600 0.28388000
-0.03272900 -0.04885700 0.28392899
-0.03295000 -0.04930800 0.28387800
-0.03278500 -0.04903900 0.28388399
-0.03292700 -0.04877500 0.28407499
-0.03255600 -0.04910000 0.28380799
-0.03239700 -0.04938100 0.28379601
-0.03277600 -0.04957300 0.28379199
-0.03289800 -0.04955200 0.28381601
-0.03251500 -0.04991900 0.28389901
-0.03260700 -0.04978300 0.28382000
-0.03248400 -0.04970000 0.28384599
-0.03263200 -0.04991500 0.28385600
-0.03270400 -0.04979500 0.28380600
-0.03271000 -0.04996600 0.28384399
-0.03327600 -0.04940400 0.28402799
-0.03306800 -0.04964200 0.28384501
-0.03298700 -0.04963800 0.28382301
-0.03340200 -0.04982100 0.28393501
-0.03299800 -0.04980300 0.28380501
-0.03445400 -0.04972100 0.28475001
-0.03459400 -0.04970400 0.28486699
-0.03369900 -0.04981900 0.28411099
-0.03393500 -0.04968100 0.28436300
-0.03394000 -0.04956000 0.28443301
-0.03466800 -0.04994800 0.28476501
-0.03482100 -0.04992900 0.28488499
-0.03433700 -0.04956900 0.28474599
-0.03373800 -0.04898600 0.28459799
-0.03385400 -0.04921400 0.28456399
-0.03404000 -0.04926600 0.28467700
-0.03401500 -0.04944000 0.28455999
-0.03383500 -0.04906900 0.28463000
-0.03366800 -0.04964600 0.28417599
-0.03385300 -0.04935800 0.28447899
-0.03381300 -0.04901300 0.28464299
-0.03361700 -0.04880800 0.28458899
-0.03358400 -0.04921600 0.28435099
-0.03359600 -0.04964700 0.28412601
-0.03389100 -0.04903600 0.28469300
-0.03438700 -0.04998100 0.28453699
-0.03424700 -0.04974600 0.28457001
-0.03197200 -0.05019200 0.28486499
-0.03203600 -0.05020400 0.28460100
-0.03218500 -0.05034100 0.28445399
-0.03201200 -0.05016300 0.28458700
-0.03185100 -0.04999200 0.28466001
-0.03205400 -0.05008000 0.28436199
-0.03225500 -0.05012900 0.28416300
-0.03225700 -0.05045600 0.28447899
-0.03211100 -0.05036400 0.28477401
-0.03234700 -0.05065300 0.28461000
-0.03220900 -0.05050800 0.28487501
-0.03185300 -0.05001600 0.28474301
-0.03231700 -0.05059100 0.28457201
-0.03257400 -0.05070000 0.28426600
-0.03265700 -0.05096900 0.28443199
-0.03253100 -0.05084000 0.28447101
-0.03249600 -0.05083100 0.28453299
-0.03265200 -0.05106100 0.28469199
-0.03280400 -0.05115800 0.28444800
-0.03259100 -0.05095200 0.28455400
-0.03258000 -0.05098700 0.28476000
-0.03263400 -0.05104200 0.28498501
-0.03247800 -0.05082800 0.28457800
-0.03240000 -0.05048400 0.28429300
-0.03240200 -0.05075600 0.28470001
-0.03241200 -0.05033400 0.28415900
-0.03270500 -0.05110000 0.28459501
-0.03329000 -0.05031400 0.28380600
-0.03282000 -0.05015500 0.28385401
-0.03298600 -0.05021900 0.28382599
-0.03323000 -0.05078100 0.28387699
-0.03322900 -0.05085400 0.28389701
-0.03347400 -0.05048600 0.28382000
-0.03296800 -0.05073400 0.28397599
-0.03320000 -0.05109100 0.28402999
-0.03251100 -0.05018300 0.28399801
-0.03275500 -0.05022400 0.28389299
-0.03277600 -0.05049500 0.28397501
-0.03304700 -0.05052500 0.28386700
-0.03316500 -0.05066900 0.28386801
-0.03322200 -0.05064600 0.28384599
-0.03329800 -0.05054200 0.28381699
-0.03327200 -0.05090300 0.28389499
-0.03279800 -0.05011400 0.28385001
-0.03353700 -0.05024300 0.28386399
-0.03323200 -0.05117100 0.28406200
-0.03294100 -0.05033800 0.28386199
-0.03350400 -0.05113800 0.28392100
-0.03347300 -0.05079500 0.28382799
-0.03335300 -0.05093600 0.28388101
-0.03238500 -0.05007600 0.28403100
-0.03270600 -0.05010500 0.28387699
-0.03306000 -0.05046100 0.28385001
-0.03334000 -0.05140400 0.28415701
-0.03327700 -0.05167700 0.28467500
-0.03319900 -0.05155100 0.28448099
-0.03332900 -0.05131400 0.28409901
-0.03348400 -0.05169500 0.28433800
-0.03304900 -0.05147500 0.28487501
-0.03290200 -0.05131700 0.28501800
-0.03300900 -0.05141100 0.28457400
-0.03302800 -0.05145500 0.28473100
-0.03315200 -0.05145800 0.28437901
-0.03345300 -0.05143600 0.28411001
-0.03274900 -0.05118000 0.28490201
-0.03290400 -0.05134200 0.28483200
-0.03319300 -0.05158000 0.28458101
-0.03309100 -0.05151400 0.28485399
-0.03317300 -0.05155700 0.28508800
-0.03349000 -0.05186200 0.28488100
-0.03341500 -0.05179500 0.28492799
-0.03334500 -0.05172500 0.28502101
-0.03283700 -0.05127100 0.28470701
-0.03355300 -0.05188900 0.28465399
-0.03327300 -0.05163600 0.28452101
-0.03310500 -0.05136800 0.28430700
-0.03348800 -0.05128100 0.28399301
-0.03352100 -0.05123500 0.28395700
-0.03423900 -0.05049300 0.28411499
-0.03429600 -0.05016000 0.28435600
-0.03455900 -0.05055300 0.28429899
-0.03465700 -0.05062500 0.28431499
-0.03464900 -0.05079300 0.28420100
-0.03397600 -0.05015000 0.28412601
-0.03411700 -0.05014600 0.28422800
-0.03446300 -0.05048000 0.28427899
-0.03424900 -0.05026200 0.28425801
-0.03435800 -0.05065300 0.28410599
-0.03434200 -0.05007000 0.28444701
-0.03418000 -0.05000500 0.28436300
-0.03394000 -0.05043400 0.28397501
-0.03388800 -0.05050400 0.28392300
-0.03359600 -0.05010200 0.28392801
-0.03361600 -0.05024500 0.28389201
-0.03422400 -0.05071100 0.28400099
-0.03385400 -0.05108000 0.28384501
-0.03383700 -0.05115900 0.28386101
-0.03382900 -0.05066700 0.28385901
-0.03384200 -0.05091300 0.28383499
-0.03415400 -0.05084800 0.28391999
-0.03425300 -0.05096300 0.28392801
-0.03431800 -0.05107800 0.28392199
-0.03457400 -0.05114700 0.28399101
-0.03374900 -0.05098900 0.28384301
-0.03450200 -0.05090400 0.28406101
-0.03544700 -0.05111200 0.28443500
-0.03517200 -0.05048000 0.28470701
-0.03519600 -0.05062100 0.28461999
-0.03480400 -0.05060900 0.28441200
-0.03508300 -0.05039000 0.28472200
-0.03565600 -0.05113600 0.28459600
-0.03588900 -0.05104000 0.28487101
-0.03590300 -0.05113100 0.28486300
-0.03560300 -0.05108100 0.28457201
-0.03551600 -0.05098500 0.28455600
-0.03531600 -0.05068400 0.28464001
-0.03498500 -0.05092500 0.28429499
-0.03495900 -0.05084500 0.28433400
-0.03499600 -0.05050200 0.28459999
-0.03491500 -0.05025400 0.28472400
-0.03572000 -0.05104400 0.28468800
-0.03565000 -0.05078000 0.28478301
-0.03564800 -0.05095700 0.28467000
-0.03559400 -0.05062200 0.28485200
-0.03580300 -0.05056800 0.28502399
-0.03510600 -0.05057000 0.28461000
-0.03524000 -0.05047900 0.28474399
-0.03490300 -0.04999700 0.28489399
-0.03538000 -0.05051200 0.28479999
-0.03527900 -0.05088000 0.28448501
-0.03477000 -0.05027100 0.28462499
-0.03398400 -0.05223900 0.28497601
-0.03368100 -0.05179000 0.28428900
-0.03410100 -0.05200400 0.28426400
-0.03440800 -0.05190300 0.28411001
-0.03395200 -0.05218100 0.28459799
-0.03451200 -0.05205700 0.28418100
-0.03377700 -0.05206200 0.28517899
-0.03420200 -0.05237100 0.28489801
-0.03358200 -0.05193900 0.28478599
-0.03383500 -0.05167500 0.28410000
-0.03387700 -0.05165800 0.28407401
-0.03448200 -0.05212500 0.28423700
-0.03452700 -0.05218200 0.28428200
-0.03465500 -0.05199900 0.28412601
-0.03457800 -0.05209500 0.28419799
-0.03463800 -0.05217700 0.28427500
-0.03365800 -0.05193700 0.28454700
-0.03401500 -0.05217500 0.28452000
-0.03380600 -0.05212200 0.28488600
-0.03379600 -0.05202400 0.28449401
-0.03392200 -0.05219900 0.28476000
-0.03394700 -0.05220600 0.28507099
-0.03414600 -0.05230400 0.28466100
-0.03406500 -0.05227900 0.28471500
-0.03419500 -0.05236500 0.28495601
-0.03418000 -0.05234800 0.28505301
-0.03391100 -0.05194000 0.28428799
-0.03397100 -0.05173400 0.28409299
-0.03411300 -0.05230500 0.28471401
-0.03439400 -0.05210400 0.28424501
-0.03441600 -0.05197900 0.28415501
-0.03471600 -0.05136400 0.28397599
-0.03429500 -0.05166300 0.28398600
-0.03368600 -0.05142600 0.28400099
-0.03437800 -0.05135100 0.28390300
-0.03457400 -0.05156300 0.28393999
-0.03421600 -0.05173200 0.28404400
-0.03393200 -0.05149900 0.28396499
-0.03396100 -0.05160100 0.28401801
-0.03372900 -0.05140600 0.28397599
-0.03385500 -0.05128400 0.28388599
-0.03437600 -0.05153100 0.28392601
-0.03412500 -0.05150500 0.28393701
-0.03399000 -0.05156700 0.28399500
-0.03415800 -0.05164500 0.28400001
-0.03429200 -0.05144500 0.28390399
-0.03440600 -0.05178900 0.28403899
-0.03467200 -0.05154700 0.28394899
-0.03452900 -0.05185400 0.28404400
-0.03364000 -0.05120100 0.28391400
-0.03370300 -0.05132800 0.28394601
-0.03467800 -0.05162700 0.28395900
-0.03411600 -0.05125500 0.28387201
-0.03459700 -0.05121600 0.28397599
-0.03521900 -0.05169000 0.28410801
-0.03517400 -0.05132600 0.28416899
-0.03519700 -0.05153800 0.28410700
-0.03580400 -0.05120800 0.28473201
-0.03584800 -0.05134400 0.28474399
-0.03546700 -0.05134400 0.28433499
-0.03557300 -0.05127700 0.28444901
-0.03560000 -0.05126500 0.28448099
-0.03557800 -0.05144000 0.28440300
-0.03546400 -0.05127700 0.28436100
-0.03559200 -0.05118200 0.28451499
-0.03560200 -0.05144500 0.28441599
-0.03554600 -0.05128200 0.28442401
-0.03552100 -0.05130400 0.28439099
-0.03571200 -0.05141900 0.28456399
-0.03554600 -0.05158600 0.28433201
-0.03552200 -0.05158300 0.28431201
-0.03547600 -0.05158200 0.28427601
-0.03539700 -0.05149500 0.28423700
-0.03549900 -0.05165000 0.28429800
-0.03544600 -0.05165700 0.28425899
-0.03574800 -0.05151700 0.28459099
-0.03579000 -0.05157700 0.28459999
-0.03576800 -0.05163800 0.28457600
-0.03584800 -0.05171400 0.28439301
-0.03590000 -0.05165100 0.28439301
-0.03589000 -0.05169300 0.28426999
-0.03584300 -0.05172300 0.28436801
-0.03522600 -0.05233300 0.28486300
-0.03521300 -0.05232300 0.28477401
-0.03524500 -0.05231200 0.28522700
-0.03527500 -0.05229800 0.28522900
-0.03530000 -0.05226400 0.28469601
-0.03485700 -0.05201300 0.28413299
-0.03522000 -0.05202200 0.28419399
-0.03519300 -0.05189100 0.28410700
-0.03526000 -0.05179900 0.28413501
-0.03505700 -0.05198600 0.28411499
-0.03495200 -0.05211100 0.28425500
-0.03490800 -0.05208000 0.28420800
-0.03528600 -0.05225400 0.28465301
-0.03480100 -0.05215200 0.28426400
-0.03500100 -0.05231100 0.28453401
-0.03502100 -0.05216200 0.28433600
-0.03527900 -0.05213100 0.28439099
-0.03529000 -0.05215100 0.28442699
-0.03491700 -0.05226600 0.28443000
-0.03519900 -0.05228000 0.28462699
-0.03526600 -0.05223100 0.28457201
-0.03477300 -0.05218700 0.28429601
-0.03529800 -0.05222300 0.28458101
-0.03531700 -0.05218100 0.28448799
-0.03540600 -0.05226700 0.28503701
-0.03538800 -0.05226800 0.28492901
-0.03538300 -0.05223800 0.28471899
-0.03550100 -0.05229900 0.28475401
-0.03558100 -0.05189400 0.28446499
-0.03549000 -0.05185900 0.28429201
-0.03543000 -0.05178800 0.28424999
-0.03542100 -0.05198400 0.28429401
-0.03571000 -0.05203200 0.28412199
-0.03542400 -0.05218800 0.28458199
-0.03541200 -0.05214400 0.28447101
-0.03552100 -0.05224200 0.28461200
-0.03559300 -0.05230400 0.28437600
-0.03560600 -0.05225700 0.28424600
-0.03558300 -0.05215100 0.28435099
-0.03560800 -0.05234100 0.28429300
-0.03562400 -0.05210100 0.28423399
-0.03507500 -0.05150000 0.28406599
-0.03481300 -0.05143600 0.28399101
-0.03481400 -0.05162300 0.28397799
-0.03483100 -0.05118700 0.28407499
-0.03497000 -0.05194400 0.28408101
-0.03588400 -0.05204000 0.28381500
-0.03580500 -0.05192600 0.28402299
-0.03594200 -0.05177900 0.28398600
-0.03586900 -0.05229800 0.28376999
-0.03570100 -0.05221900 0.28395501
-0.03583500 -0.05208800 0.28384301
-0.03577800 -0.05230100 0.28381100
-0.03573400 -0.05215000 0.28395101
-0.03565800 -0.05224000 0.28402299
-0.03566000 -0.05229200 0.28400600
-0.03580000 -0.05278500 0.28527099
-0.03468200 -0.05242600 0.28465700
-0.03472200 -0.05246600 0.28483000
-0.03485900 -0.05244500 0.28522101
-0.03447600 -0.05246100 0.28483799
-0.03495300 -0.05241300 0.28474399
-0.03492200 -0.05244500 0.28507599
-0.03490700 -0.05245200 0.28496999
-0.03465800 -0.05247800 0.28496400
-0.03428000 -0.05240200 0.28498399
-0.03484400 -0.05241600 0.28467000
-0.03558600 -0.05246300 0.28479600
-0.03573300 -0.05277400 0.28489500
-0.03577300 -0.05283800 0.28479201
-0.03563800 -0.05258400 0.28499600
-0.03564400 -0.05255700 0.28512800
-0.03561300 -0.05246000 0.28518301
-0.03561900 -0.05252800 0.28505200
-0.03572800 -0.05271200 0.28512901
-0.03557600 -0.05246400 0.28491101
-0.03566300 -0.05261100 0.28508100
-0.03564300 -0.05261600 0.28486899
-0.03562900 -0.05259000 0.28477299
-0.03570100 -0.05265000 0.28517699
-0.03569900 -0.05273600 0.28472900
-0.03581300 -0.05287200 0.28492901
-0.03581800 -0.05286000 0.28503501
-0.03580500 -0.05283800 0.28506401
-0.03576700 -0.05282000 0.28489199
-0.03581500 -0.05288900 0.28479099
-0.03564100 -0.05262100 0.28471801
-0.03585000 -0.05293200 0.28468299
-0.03563200 -0.05243700 0.28426701
-0.03561300 -0.05247800 0.28449801
-0.03579200 -0.05273000 0.28414500
-0.03593600 -0.05297200 0.28433600
-0.03564900 -0.05253800 0.28438500
-0.03558600 -0.05236500 0.28449801
-0.03573700 -0.05276400 0.28444901
-0.03568700 -0.05261300 0.28426600
-0.03583000 -0.05285500 0.28431299
-0.03572300 -0.05272400 0.28437400
-0.03566700 -0.05261600 0.28443900
-0.03578900 -0.05284900 0.28452301
-0.03588100 -0.05296600 0.28462899
-0.03568400 -0.05265000 0.28441399
-0.03561200 -0.05252400 0.28464699
-0.03568500 -0.05261700 0.28430799
-0.03566200 -0.05254600 0.28410301
-0.03595000 -0.05303100 0.28454900
-0.03581000 -0.05287900 0.28452599
-0.03564800 -0.05238700 0.28400999
-0.03571900 -0.05262600 0.28404900
-0.03572500 -0.05261700 0.28390700
-0.03579000 -0.05241900 0.28378800
-0.03587800 -0.05256700 0.28376099
-0.03584000 -0.05256300 0.28377500
-0.03577300 -0.05256800 0.28381300
-0.03588200 -0.05238600 0.28373200
-0.03592700 -0.05238600 0.28370401
-0.03579800 -0.05258400 0.28380701
-0.03589700 -0.05281800 0.28402600
-0.03578700 -0.05269900 0.28399599
-0.03579700 -0.05269400 0.28394201
-0.03640900 -0.05108300 0.28507501
-0.03652000 -0.05106200 0.28495499
-0.03629800 -0.05116100 0.28506699
-0.03641400 -0.05113100 0.28491101
-0.03641500 -0.05116200 0.28482699
-0.03671900 -0.05109700 0.28478301
-0.03677900 -0.05100500 0.28493300
-0.03690500 -0.05100400 0.28493500
-0.03663000 -0.05101200 0.28496900
-0.03711100 -0.05101000 0.28496999
-0.03654000 -0.05107800 0.28489900
-0.03725100 -0.05112700 0.28490099
-0.03613100 -0.05137300 0.28474301
-0.03628500 -0.05125900 0.28475699
-0.03637400 -0.05117800 0.28483999
-0.03629500 -0.05123800 0.28481001
-0.03621900 -0.05142200 0.28437501
-0.03631600 -0.05150700 0.28412899
-0.03631600 -0.05135500 0.28443801
-0.03642800 -0.05140700 0.28427500
-0.03653900 -0.05134600 0.28437400
-0.03620200 -0.05149200 0.28422001
-0.03626700 -0.05142600 0.28431401
-0.03607400 -0.05146100 0.28453299
-0.03631500 -0.05127400 0.28465101
-0.03652600 -0.05120100 0.28463700
-0.03625300 -0.05137200 0.28446001
-0.03611300 -0.05141600 0.28461000
-0.03610300 -0.05144400 0.28451201
-0.03706800 -0.05160500 0.28427601
-0.03665800 -0.05137700 0.28434399
-0.03706600 -0.05150700 0.28439501
-0.03694500 -0.05171100 0.28408301
-0.03666800 -0.05129700 0.28445700
-0.03707200 -0.05131200 0.28459901
-0.03685800 -0.05136600 0.28442800
-0.03690600 -0.05156600 0.28421900
-0.03686000 -0.05164700 0.28410301
-0.03658100 -0.05146400 0.28420901
-0.03629100 -0.05169300 0.28387401
-0.03618300 -0.05165300 0.28394601
-0.03637200 -0.05173100 0.28382900
-0.03630300 -0.05176200 0.28379300
-0.03619200 -0.05169200 0.28389099
-0.03656700 -0.05160900 0.28401700
-0.03687100 -0.05175800 0.28398201
-0.03599500 -0.05173200 0.28397799
-0.03606500 -0.05234200 0.28362900
-0.03645200 -0.05202200 0.28355700
-0.03627800 -0.05205900 0.28352901
-0.03630600 -0.05236700 0.28347701
-0.03601000 -0.05187100 0.28378999
-0.03652600 -0.05202900 0.28356701
-0.03646600 -0.05190200 0.28365701
-0.03642500 -0.05229700 0.28343800
-0.03623800 -0.05236100 0.28351700
-0.03626900 -0.05191700 0.28363001
-0.03594500 -0.05231400 0.28370899
-0.03645900 -0.05183600 0.28371999
-0.03630000 -0.05189200 0.28365201
-0.03614100 -0.05200700 0.28360099
-0.03628600 -0.05208900 0.28350899
-0.03596000 -0.05183700 0.28387499
-0.03601200 -0.05235700 0.28366300
-0.03674000 -0.05221500 0.28350601
-0.03660900 -0.05201900 0.28359699
-0.03672800 -0.05196500 0.28368601
-0.03690700 -0.05179600 0.28396201
-0.03687800 -0.05216900 0.28358299
-0.03662500 -0.05217300 0.28350300
-0.03665700 -0.05217600 0.28350899
-0.03686200 -0.05212800 0.28360799
-0.03700000 -0.05188200 0.28392500
-0.03682700 -0.05189400 0.28380701
-0.03680600 -0.05237200 0.28345400
-0.03671800 -0.05199800 0.28365400
-0.03654700 -0.05234300 0.28342500
-0.03826800 -0.05230600 0.28431299
-0.03735300 -0.05225000 0.28376999
-0.03732900 -0.05215400 0.28385299
-0.03721500 -0.05171200 0.28426600
-0.03813000 -0.05223400 0.28430700
-0.03829100 -0.05213000 0.28454000
-0.03789800 -0.05214500 0.28425699
-0.03778200 -0.05233300 0.28394601
-0.03768500 -0.05181600 0.28448799
-0.03725500 -0.05216200 0.28379899
-0.03740400 -0.05198800 0.28409499
-0.03727300 -0.05212400 0.28385001
-0.03809900 -0.05210600 0.28443700
-0.03806300 -0.05201300 0.28452101
-0.03804300 -0.05190900 0.28462499
-0.03787200 -0.05176400 0.28467301
-0.03769700 -0.05170500 0.28461900
-0.03735600 -0.05167300 0.28441000
-0.03756700 -0.05142300 0.28480601
-0.03729600 -0.05140100 0.28465199
-0.03726800 -0.05131400 0.28472200
-0.03765900 -0.05149900 0.28479800
-0.03814100 -0.05226700 0.28427500
-0.03801900 -0.05213200 0.28435600
-0.03736300 -0.05163700 0.28445300
-0.03723600 -0.05143400 0.28457499
-0.03740600 -0.05222800 0.28382501
-0.03832400 -0.05218800 0.28449500
-0.03648100 -0.05336200 0.28540900
-0.03777400 -0.05424700 0.28537801
-0.03599500 -0.05298700 0.28534001
-0.03616000 -0.05313900 0.28527600
-0.03797200 -0.05436000 0.28531501
-0.03650400 -0.05340200 0.28526300
-0.03632000 -0.05325600 0.28532600
-0.03622900 -0.05326300 0.28451201
-0.03620100 -0.05312800 0.28410000
-0.03600800 -0.05306600 0.28492099
-0.03633100 -0.05333700 0.28477401
-0.03609400 -0.05316100 0.28453800
-0.03648100 -0.05340200 0.28514200
-0.03605200 -0.05307200 0.28510699
-0.03601000 -0.05304300 0.28430301
-0.03602700 -0.05309900 0.28450599
-0.03633100 -0.05329300 0.28428799
-0.03639700 -0.05328600 0.28413501
-0.03666700 -0.05356000 0.28433901
-0.03645000 -0.05333000 0.28413099
-0.03638300 -0.05338000 0.28456599
-0.03621300 -0.05324700 0.28484899
-0.03651700 -0.05345700 0.28492701
-0.03633800 -0.05330700 0.28507999
-0.03625700 -0.05323500 0.28514400
-0.03603100 -0.05311000 0.28476000
-0.03616500 -0.05318400 0.28502601
-0.03600700 -0.05307500 0.28446800
-0.03636400 -0.05333300 0.28503799
-0.03610200 -0.05313600 0.28435200
-0.03658500 -0.05350500 0.28491899
-0.03651200 -0.05340000 0.28419200
-0.03631900 -0.05333200 0.28458300
-0.03664300 -0.05351900 0.28425199
-0.03645200 -0.05280100 0.28352001
-0.03610600 -0.05263700 0.28364301
-0.03600300 -0.05270800 0.28376400
-0.03626700 -0.05254600 0.28352699
-0.03637000 -0.05261500 0.28349999
-0.03628200 -0.05278900 0.28359601
-0.03610400 -0.05261400 0.28363600
-0.03602400 -0.05263400 0.28369999
-0.03600200 -0.05249500 0.28367400
-0.03597300 -0.05243700 0.28368500
-0.03607300 -0.05253900 0.28363401
-0.03613600 -0.05252700 0.28359300
-0.03635400 -0.05266900 0.28351399
-0.03635900 -0.05263700 0.28350800
-0.03641700 -0.05277200 0.28352100
-0.03619200 -0.05260600 0.28357601
-0.03598400 -0.05254100 0.28368899
-0.03616600 -0.05268800 0.28361601
-0.03622800 -0.05279700 0.28363600
-0.03599500 -0.05264100 0.28372401
-0.03617500 -0.05275800 0.28364399
-0.03613900 -0.05262900 0.28361800
-0.03605400 -0.05286300 0.28387499
-0.03622400 -0.05284900 0.28367701
-0.03613900 -0.05239600 0.28357801
-0.03607900 -0.05243200 0.28361699
-0.03618800 -0.05261600 0.28358001
-0.03637100 -0.05293700 0.28364500
-0.03648900 -0.05293800 0.28357300
-0.03627000 -0.05262900 0.28354099
-0.03647800 -0.05278800 0.28350499
-0.03641300 -0.05262800 0.28348801
-0.03640000 -0.05239900 0.28344300
-0.03641300 -0.05242900 0.28344199
-0.03643100 -0.05249600 0.28344700
-0.03648800 -0.05266700 0.28347501
-0.03658000 -0.05258500 0.28342801
-0.03669600 -0.05249500 0.28341001
-0.03712400 -0.05270800 0.28339100
-0.03679800 -0.05285800 0.28342801
-0.03677300 -0.05294700 0.28346401
-0.03662900 -0.05248800 0.28341299
-0.03669000 -0.05282400 0.28345299
-0.03675600 -0.05277300 0.28341901
-0.03686300 -0.05297400 0.28344899
-0.03669500 -0.05262500 0.28340900
-0.03687000 -0.05276100 0.28339100
-0.03698600 -0.05301800 0.28343299
-0.03707200 -0.05317200 0.28345400
-0.03686600 -0.05306300 0.28348401
-0.03652400 -0.05328700 0.28394201
-0.03636300 -0.05300700 0.28371900
-0.03642200 -0.05299800 0.28366399
-0.03675200 -0.05314200 0.28358400
-0.03697100 -0.05308600 0.28346500
-0.03675900 -0.05335900 0.28379300
-0.03691900 -0.05350500 0.28383499
-0.03656300 -0.05331400 0.28394201
-0.03619000 -0.05307900 0.28400701
-0.03622600 -0.05299800 0.28385100
-0.03628500 -0.05315600 0.28402701
-0.03645800 -0.05319900 0.28388101
-0.03656000 -0.05297600 0.28355899
-0.03691500 -0.05308500 0.28347799
-0.03670300 -0.05343800 0.28396800
-0.03713600 -0.05334400 0.28350499
-0.03677400 -0.05341100 0.28385100
-0.03823700 -0.05239100 0.28419000
-0.03747000 -0.05254500 0.28355199
-0.03764700 -0.05274000 0.28347901
-0.03748200 -0.05295100 0.28336000
-0.03728800 -0.05291500 0.28336000
-0.03770000 -0.05259800 0.28361300
-0.03760500 -0.05288000 0.28339499
-0.03717500 -0.05261500 0.28343001
-0.03743500 -0.05246600 0.28360501
-0.03804600 -0.05249100 0.28393599
-0.03789400 -0.05278000 0.28354600
-0.03807500 -0.05280300 0.28361601
-0.03829700 -0.05289400 0.28365099
-0.03830900 -0.05265200 0.28392401
-0.03773200 -0.05282700 0.28345099
-0.03728500 -0.05306400 0.28336400
-0.03747000 -0.05327600 0.28338400
-0.03773600 -0.05346000 0.28336301
-0.03728800 -0.05336700 0.28345901
-0.03713600 -0.05340000 0.28354201
-0.03754500 -0.05309000 0.28333601
-0.03744100 -0.05332900 0.28341299
-0.03742000 -0.05336300 0.28342599
-0.03745000 -0.05344800 0.28344101
-0.03758700 -0.05350000 0.28341299
-0.03724600 -0.05322100 0.28341201
-0.03723300 -0.05301700 0.28336799
-0.03770300 -0.05327400 0.28333199
-0.03824800 -0.05299100 0.28354201
-0.03794900 -0.05317400 0.28335300
-0.03788700 -0.05335600 0.28332499
-0.03808200 -0.05346500 0.28332901
-0.03785000 -0.05305300 0.28337100
-0.03799800 -0.05346600 0.28333300
-0.03807400 -0.05342200 0.28332901
-0.03775600 -0.05322400 0.28332701
-0.03811700 -0.05304800 0.28345001
-0.03680400 -0.05367400 0.28471100
-0.03690700 -0.05357500 0.28394699
-0.03691700 -0.05375100 0.28458199
-0.03707900 -0.05376100 0.28403899
-0.03710500 -0.05361300 0.28376701
-0.03700400 -0.05380200 0.28475001
-0.03691600 -0.05372500 0.28496200
-0.03672300 -0.05360100 0.28436100
-0.03689800 -0.05372300 0.28486499
-0.03713500 -0.05388200 0.28485200
-0.03808500 -0.05443400 0.28423101
-0.03718700 -0.05387200 0.28416100
-0.03800800 -0.05441700 0.28439200
-0.03823700 -0.05450600 0.28499100
-0.03767000 -0.05420500 0.28422001
-0.03720300 -0.05391200 0.28425699
-0.03733900 -0.05403300 0.28446099
-0.03733500 -0.05399600 0.28422201
-0.03763700 -0.05420800 0.28431901
-0.03733700 -0.05396900 0.28413901
-0.03822300 -0.05451200 0.28436801
-0.03805300 -0.05441000 0.28419000
-0.03721200 -0.05394700 0.28465301
-0.03757600 -0.05416500 0.28496200
-0.03754200 -0.05416500 0.28456500
-0.03779700 -0.05431000 0.28476799
-0.03773700 -0.05424800 0.28517699
-0.03794600 -0.05439600 0.28453201
-0.03810800 -0.05447000 0.28466699
-0.03828400 -0.05453700 0.28482801
-0.03804000 -0.05442700 0.28486899
-0.03792300 -0.05436200 0.28501400
-0.03810200 -0.05445700 0.28484300
-0.03813300 -0.05447600 0.28476301
-0.03740800 -0.05400100 0.28410000
-0.03793100 -0.05434200 0.28419200
-0.03777400 -0.05365500 0.28341600
-0.03770800 -0.05393300 0.28365600
-0.03765700 -0.05359700 0.28342301
-0.03829600 -0.05370500 0.28335300
-0.03804700 -0.05430700 0.28393000
-0.03825400 -0.05403000 0.28347999
-0.03716300 -0.05374000 0.28388101
-0.03748200 -0.05400900 0.28400201
-0.03741600 -0.05369900 0.28360999
-0.03769100 -0.05386500 0.28358999
-0.03801700 -0.05375800 0.28339601
-0.03799100 -0.05383800 0.28344601
-0.03823500 -0.05357000 0.28333801
-0.03832200 -0.05383600 0.28337699
-0.03827800 -0.05391000 0.28340799
-0.03746800 -0.05392700 0.28385600
-0.03733400 -0.05390500 0.28398201
-0.03768200 -0.05415100 0.28403300
-0.03776300 -0.05404800 0.28376299
-0.03781300 -0.05417000 0.28392199
-0.03826300 -0.05428900 0.28372699
-0.03809900 -0.05435400 0.28396800
-0.03791100 -0.05422200 0.28391200
-0.03781400 -0.05388100 0.28354001
-0.03829000 -0.05443300 0.28393501
-0.03794800 -0.05362600 0.28337201
-0.03798000 -0.05358000 0.28335699
-0.03828200 -0.05415400 0.28356999
-0.03807900 -0.05385700 0.28342900
-0.03862700 -0.05461400 0.28536600
-0.03869200 -0.05464300 0.28531301
-0.03874100 -0.05466800 0.28524601
-0.03899900 -0.05335600 0.28360900
-0.03915100 -0.05333200 0.28371400
-0.03923500 -0.05343700 0.28366300
-0.03905900 -0.05345300 0.28355801
-0.03911000 -0.05316600 0.28388500
-0.03857200 -0.05265800 0.28411800
-0.03902900 -0.05355200 0.28348699
-0.03952100 -0.05347000 0.28378600
-0.03942500 -0.05334900 0.28386599
-0.03913600 -0.05299800 0.28414401
-0.03895700 -0.05320400 0.28372800
-0.03888600 -0.05322800 0.28366199
-0.03876200 -0.05339400 0.28348601
-0.03846100 -0.05350300 0.28336999
-0.03862900 -0.05302900 0.28371301
-0.03874900 -0.05282300 0.28405300
-0.03865400 -0.05291900 0.28385401
-0.03843700 -0.05285100 0.28377801
-0.03851500 -0.05264800 0.28408599
-0.03862700 -0.05276900 0.28401801
-0.03870700 -0.05244800 0.28448600
-0.03895700 -0.05297900 0.28402299
-0.03889600 -0.05269700 0.28434700
-0.03859300 -0.05285900 0.28387901
-0.03838100 -0.05239500 0.28428900
-0.03916600 -0.05345400 0.28361100
-0.03886800 -0.05307900 0.28381100
-0.03989400 -0.05348200 0.28398001
-0.03896800 -0.05316200 0.28378099
-0.03867100 -0.05469600 0.28467101
-0.03848900 -0.05460100 0.28419399
-0.03849200 -0.05462300 0.28474000
-0.03875100 -0.05471600 0.28430799
-0.03879200 -0.05469500 0.28412300
-0.03863500 -0.05468200 0.28436801
-0.03880500 -0.05474300 0.28467399
-0.03877200 -0.05471200 0.28494799
-0.03833300 -0.05454800 0.28424999
-0.03837500 -0.05457100 0.28430700
-0.03861900 -0.05462400 0.28526101
-0.03867100 -0.05400300 0.28338099
-0.03842400 -0.05381600 0.28336200
-0.03841400 -0.05385600 0.28336999
-0.03837700 -0.05393400 0.28339800
-0.03833200 -0.05363100 0.28334501
-0.03860200 -0.05393200 0.28336701
-0.03857900 -0.05384100 0.28335199
-0.03871700 -0.05410700 0.28342700
-0.03872600 -0.05406300 0.28340399
-0.03876200 -0.05396600 0.28336900
-0.03868900 -0.05391100 0.28335801
-0.03890800 -0.05404600 0.28338900
-0.03929800 -0.05365000 0.28352100
-0.03922900 -0.05414500 0.28339699
-0.03915500 -0.05408100 0.28338599
-0.03894800 -0.05405200 0.28338900
-0.03920100 -0.05406500 0.28338599
-0.03943900 -0.05380700 0.28348401
-0.03948100 -0.05399100 0.28343701
-0.03936600 -0.05402000 0.28340501
-0.03914300 -0.05360800 0.28349301
-0.03936600 -0.05361900 0.28357199
-0.03925700 -0.05436800 0.28348500
-0.03895800 -0.05458000 0.28375801
-0.03915400 -0.05421200 0.28342399
-0.03939600 -0.05421500 0.28342500
-0.03920300 -0.05425300 0.28343999
-0.03909600 -0.05446300 0.28357899
-0.03844800 -0.05455100 0.28405699
-0.03867700 -0.05458200 0.28392100
-0.03856700 -0.05432500 0.28361800
-0.03880600 -0.05430000 0.28352299
-0.03879000 -0.05419700 0.28346401
-0.03847100 -0.05444200 0.28381100
-0.03934400 -0.05424900 0.28343299
-0.03847700 -0.05435600 0.28368801
-0.03876100 -0.05453900 0.28379399
-0.03870300 -0.05444000 0.28368899
-0.03897500 -0.05446700 0.28361899
-0.03897300 -0.05471900 0.28404900
-0.03908800 -0.05428700 0.28346601
-0.03904000 -0.05433100 0.28349501
-0.03934700 -0.05453100 0.28360999
-0.03942800 -0.05458500 0.28366899
-0.03920500 -0.05466700 0.28381199
-0.03905300 -0.05471200 0.28397000
-0.03860300 -0.05418300 0.28348601
-0.03862700 -0.05422400 0.28351101
-0.03935400 -0.05456600 0.28365201
-0.03885900 -0.05421200 0.28345901
-0.03950100 -0.05423100 0.28343901
-0.04057800 -0.05395500 0.28416300
-0.04065100 -0.05404800 0.28423399
