-0.03142900 -0.02035300 0.28534499
-0.03173500 -0.02037400 0.28488100
-0.03147800 -0.02106000 0.28508699
-0.03259400 -0.02040300 0.28462401
-0.03338800 -0.01825700 0.28249300
-0.03310000 -0.01806300 0.28421000
-0.03314200 -0.01828900 0.28304300
-0.03311200 -0.01805500 0.28403300
-0.03289100 -0.01839700 0.28391799
-0.03287600 -0.01847100 0.28366899
-0.03291700 -0.01863900 0.28307301
-0.03436500 -0.01657100 0.28430000
-0.03424600 -0.01709000 0.28440401
-0.03367900 -0.01755500 0.28382701
-0.03393800 -0.01753100 0.28319201
-0.03479100 -0.01653400 0.28392601
-0.03522400 -0.01653300 0.28359300
-0.03424400 -0.01754200 0.28260601
-0.03462500 -0.01761600 0.28197101
-0.03558400 -0.01699500 0.28259501
-0.03575700 -0.01701300 0.28240800
-0.03547200 -0.01730700 0.28185001
-0.03391100 -0.01808900 0.28190199
-0.03250200 -0.01952200 0.28373599
-0.03266300 -0.01917500 0.28319100
-0.03256800 -0.01918000 0.28417200
-0.03255000 -0.02056300 0.28408900
-0.03260800 -0.02088900 0.28398800
-0.03246100 -0.02025300 0.28336999
-0.03269400 -0.02032300 0.28193301
-0.03261800 -0.02120700 0.28282800
-0.03270600 -0.01972500 0.28228900
-0.03270200 -0.02101200 0.28202599
-0.03253500 -0.02022700 0.28273299
-0.03305000 -0.01895500 0.28210101
-0.03644400 -0.01661900 0.28278399
-0.03650900 -0.01692500 0.28242600
-0.03666400 -0.01657900 0.28268701
-0.03181500 -0.02209000 0.28458300
-0.03123400 -0.02204000 0.28519899
-0.03155200 -0.02250400 0.28510699
-0.03135400 -0.02257300 0.28536901
-0.03158100 -0.02246300 0.28503600
-0.03176600 -0.02211100 0.28463700
-0.03170900 -0.02259800 0.28497601
-0.03196600 -0.02264500 0.28467500
-0.03203200 -0.02198800 0.28440800
-0.03282600 -0.02141000 0.28414601
-0.03286200 -0.02214700 0.28415301
-0.03305200 -0.02230300 0.28409100
-0.03268900 -0.02147300 0.28329301
-0.03263600 -0.02133600 0.28328800
-0.03224000 -0.02268800 0.28442299
-0.03148600 -0.02308200 0.28363499
-0.03149700 -0.02314500 0.28340900
-0.03267900 -0.02251300 0.28420299
-0.03310300 -0.02285700 0.28401399
-0.03296400 -0.02247500 0.28223601
-0.03278900 -0.02172200 0.28211200
-0.03290000 -0.02228700 0.28222099
-0.03298000 -0.02248200 0.28236300
-0.03208500 -0.02335600 0.28247800
-0.03206800 -0.02321500 0.28287199
-0.03142500 -0.02338400 0.28278700
-0.03317300 -0.02272200 0.28268099
-0.03289800 -0.02317300 0.28282499
-0.03316200 -0.02294300 0.28209800
-0.03283000 -0.02332600 0.28221399
-0.03236500 -0.02338100 0.28226599
-0.03312300 -0.02343900 0.28189600
-0.03577000 -0.02525700 0.28333899
-0.03516200 -0.02451500 0.28188601
-0.03564400 -0.02464500 0.28205499
-0.03572400 -0.02544900 0.28263801
-0.03532600 -0.02524900 0.28195101
-0.03509200 -0.02491800 0.28185299
-0.03537100 -0.02531000 0.28197801
-0.03574200 -0.02577300 0.28228101
-0.04037700 -0.02294500 0.28451300
-0.04011400 -0.02349400 0.28488001
-0.04033100 -0.02357800 0.28492701
-0.04066000 -0.02357300 0.28500500
-0.03814900 -0.02456600 0.28448001
-0.03821700 -0.02553800 0.28463101
-0.04041700 -0.02456600 0.28595299
-0.04022200 -0.02474100 0.28597200
-0.03919600 -0.02413400 0.28475299
-0.03842300 -0.02438900 0.28452599
-0.03891000 -0.02454600 0.28470001
-0.03944600 -0.02442700 0.28484800
-0.04069800 -0.02395400 0.28539801
-0.03992600 -0.02466300 0.28525600
-0.03968200 -0.02426300 0.28488401
-0.03981000 -0.02369200 0.28485301
-0.04054500 -0.02377000 0.28505200
-0.03841100 -0.02510900 0.28456199
-0.03895400 -0.02591200 0.28559801
-0.03876100 -0.02572600 0.28517300
-0.03912600 -0.02499000 0.28484699
-0.03975600 -0.02493300 0.28546399
-0.03838600 -0.02492300 0.28454500
-0.04022600 -0.02362700 0.28268999
-0.04037100 -0.02325500 0.28369901
-0.04021900 -0.02356100 0.28199199
-0.03617000 -0.02440400 0.28399199
-0.03629100 -0.02463300 0.28401199
-0.03654900 -0.02447300 0.28405100
-0.03710800 -0.02476800 0.28411701
-0.03675900 -0.02446400 0.28361499
-0.03756200 -0.02456100 0.28424501
-0.03755100 -0.02450100 0.28399301
-0.03811600 -0.02445600 0.28441301
-0.03735100 -0.02462600 0.28345099
-0.03631400 -0.02510400 0.28414199
-0.03630100 -0.02496400 0.28408900
-0.03699800 -0.02533600 0.28418699
-0.03619600 -0.02559600 0.28436300
-0.03691400 -0.02564400 0.28427500
-0.03603700 -0.02560900 0.28369001
-0.03729100 -0.02518800 0.28420901
-0.03773400 -0.02510600 0.28432101
-0.03749100 -0.02494700 0.28424099
-0.03700500 -0.02478500 0.28293300
-0.03696100 -0.02491900 0.28249499
-0.03628200 -0.02491100 0.28198999
-0.03670200 -0.02495800 0.28224000
-0.03755500 -0.02496000 0.28251001
-0.03785400 -0.02491100 0.28265199
-0.03843700 -0.02481600 0.28258500
-0.03918800 -0.02452300 0.28260601
-0.03852100 -0.02484600 0.28229001
-0.03909600 -0.02456400 0.28264701
-0.03992000 -0.02389300 0.28188801
-0.03945400 -0.02435700 0.28214201
-0.03967500 -0.02413500 0.28305700
-0.03912600 -0.02458100 0.28213099
-0.03790500 -0.01153100 0.27935001
-0.03822400 -0.01133200 0.27886599
-0.03835500 -0.01135800 0.27860701
-0.03896000 -0.01139700 0.27764100
-0.03935000 -0.01092500 0.27727899
-0.03891400 -0.01115700 0.27779001
-0.03954100 -0.01132200 0.27696499
-0.03980200 -0.01072400 0.27688301
-0.03975700 -0.01167000 0.27685499
-0.03630400 -0.01295500 0.28052601
-0.03603200 -0.01262000 0.28179201
-0.03611500 -0.01274400 0.28126100
-0.03613600 -0.01336200 0.28076401
-0.03606300 -0.01323200 0.28109801
-0.03666100 -0.01203300 0.28063101
-0.03703700 -0.01289000 0.27922300
-0.03742900 -0.01219300 0.27932701
-0.03658100 -0.01242600 0.28039199
-0.03629600 -0.01356000 0.28019699
-0.03650500 -0.01319300 0.27990699
-0.03609600 -0.01473100 0.28143299
-0.03621000 -0.01507800 0.28154901
-0.03620000 -0.01510800 0.28120300
-0.03718500 -0.01644600 0.28142300
-0.03681100 -0.01626500 0.28095201
-0.03684400 -0.01629400 0.28097799
-0.03677100 -0.01611800 0.28114799
-0.03657100 -0.01597800 0.27936000
-0.03631800 -0.01473400 0.27987599
-0.03634700 -0.01555600 0.28045401
-0.03638400 -0.01423300 0.27969199
-0.03712600 -0.01368700 0.27844501
-0.03807100 -0.01174700 0.27892801
-0.03827500 -0.01214000 0.27843401
-0.03801100 -0.01207600 0.27876499
-0.03710900 -0.01355900 0.27856299
-0.03670600 -0.01369200 0.27914700
-0.03787900 -0.01273600 0.27834201
-0.03790600 -0.01411300 0.27772599
-0.03856600 -0.01175200 0.27815500
-0.04063100 -0.01376800 0.27813599
-0.03937100 -0.01211300 0.27728900
-0.04034100 -0.01269200 0.27720499
-0.04060400 -0.01232100 0.27696601
-0.03916200 -0.01400900 0.27761200
-0.03949600 -0.01348000 0.27758500
-0.04056200 -0.01302200 0.27751100
-0.03684700 -0.01522100 0.27835900
-0.03663100 -0.01508300 0.27864799
-0.03726200 -0.01497700 0.27805001
-0.03713900 -0.01438700 0.27809301
-0.03738600 -0.01513300 0.27803200
-0.03703500 -0.01568000 0.27831599
-0.03672800 -0.01627600 0.27915600
-0.03717800 -0.01623000 0.27844000
-0.03726200 -0.01621100 0.27838200
-0.03813200 -0.01636100 0.27829900
-0.03815000 -0.01467700 0.27771401
-0.04016300 -0.01582800 0.27863899
-0.03930300 -0.01447900 0.27777401
-0.03943200 -0.01596500 0.27841100
-0.04029900 -0.01585800 0.27873400
-0.04042500 -0.01577500 0.27878401
-0.04003900 -0.01435600 0.27801701
-0.03964900 -0.01467400 0.27797300
-0.03077300 -0.02481900 0.28070900
-0.03112300 -0.02466700 0.28068799
-0.03048000 -0.02438400 0.28170300
-0.03001300 -0.02488400 0.28148001
-0.02957100 -0.02582700 0.28095800
-0.02987200 -0.02554100 0.28072801
-0.02946900 -0.02599300 0.28100899
-0.02964500 -0.02562800 0.28102899
-0.03115000 -0.02526600 0.28015399
-0.03037300 -0.02555500 0.28019199
-0.03349500 -0.01882900 0.28124100
-0.03528800 -0.01762000 0.28127900
-0.03562000 -0.01729700 0.28175601
-0.03582800 -0.01784200 0.28036800
-0.03556700 -0.01743400 0.28147501
-0.03496100 -0.01829500 0.28026700
-0.03475800 -0.01780900 0.28141400
-0.03373100 -0.01851100 0.28138700
-0.03404300 -0.01890800 0.28022999
-0.03590700 -0.01798500 0.28007099
-0.03548000 -0.01832200 0.27985901
-0.03324800 -0.02035400 0.28028101
-0.03338800 -0.02033800 0.27995899
-0.03287700 -0.02070300 0.28118101
-0.03350400 -0.01917600 0.28070000
-0.03315700 -0.01929100 0.28137499
-0.03298700 -0.01950000 0.28161299
-0.03273200 -0.02034700 0.28178501
-0.03333700 -0.02091500 0.27994600
-0.03289700 -0.02054000 0.28114599
-0.03309400 -0.02115800 0.28049600
-0.03323300 -0.01991500 0.28055301
-0.03365300 -0.01923700 0.28034699
-0.03433800 -0.01895400 0.27985001
-0.03446000 -0.01893200 0.27977601
-0.03382000 -0.01945200 0.27979299
-0.03508000 -0.01930000 0.27923301
-0.03553700 -0.01943800 0.27915800
-0.03532800 -0.01969900 0.27905399
-0.03363900 -0.02037200 0.27952999
-0.03379400 -0.02043500 0.27933899
-0.03367900 -0.02086400 0.27943701
-0.03439600 -0.02056100 0.27892199
-0.03521700 -0.02019400 0.27889600
-0.03476900 -0.02044800 0.27884501
-0.03653200 -0.01718900 0.28140399
-0.03606800 -0.01729200 0.28143701
-0.03700300 -0.01678600 0.28014100
-0.03683100 -0.01731000 0.28090101
-0.03669900 -0.01735300 0.28084499
-0.03727900 -0.01710700 0.28015199
-0.03714900 -0.01742400 0.28046599
-0.03700600 -0.01681100 0.28003901
-0.03736100 -0.01725100 0.27992699
-0.03733100 -0.01768900 0.28003499
-0.03768000 -0.01757000 0.27988401
-0.03787600 -0.01660900 0.27838400
-0.03719500 -0.01664700 0.27868000
-0.03762300 -0.01673700 0.27848601
-0.03815600 -0.01741100 0.27882001
-0.03743700 -0.01670700 0.27854699
-0.03607100 -0.01814100 0.27980500
-0.03603600 -0.01827100 0.27970901
-0.03623300 -0.01839300 0.27960500
-0.03802600 -0.01818300 0.27986601
-0.03826800 -0.01775800 0.27912101
-0.03876700 -0.01861800 0.28014201
-0.03956200 -0.01862400 0.28012899
-0.03977200 -0.01759000 0.27911499
-0.04053100 -0.01761600 0.27934200
-0.03995600 -0.01703700 0.27917701
-0.04064000 -0.01711000 0.27947900
-0.03843800 -0.01801000 0.27943799
-0.03895700 -0.01800700 0.27923200
-0.03947700 -0.01857000 0.27998200
-0.03865300 -0.01789000 0.27916801
-0.03974900 -0.01809800 0.27928501
-0.04052200 -0.01812500 0.27928999
-0.04006400 -0.01853300 0.27948201
-0.04061700 -0.01850900 0.27928200
-0.04024100 -0.01878500 0.27955499
-0.03743800 -0.01941900 0.28019601
-0.03819300 -0.01910700 0.28009701
-0.03809100 -0.02036200 0.28078699
-0.03797000 -0.02113700 0.28076100
-0.03624600 -0.01955300 0.27939099
-0.03694000 -0.01942800 0.27989101
-0.03692000 -0.02104300 0.28001401
-0.03677600 -0.02057400 0.27989200
-0.03882600 -0.01952300 0.28031501
-0.03975000 -0.01896000 0.28054500
-0.04009000 -0.01929700 0.28060901
-0.03968000 -0.01903300 0.28048101
-0.04028100 -0.01938600 0.28070900
-0.04043500 -0.01918400 0.28037301
-0.04049900 -0.01985800 0.28060201
-0.04052900 -0.02002200 0.28052199
-0.03867600 -0.02115800 0.28055200
-0.03861000 -0.02123800 0.28060299
-0.04055800 -0.02010400 0.28050300
-0.04066900 -0.02123100 0.28056401
-0.04067700 -0.01902500 0.27942199
-0.03301600 -0.02167500 0.28086501
-0.03295000 -0.02187600 0.28122699
-0.03290000 -0.02183500 0.28148901
-0.03319600 -0.02228500 0.28046399
-0.03304300 -0.02251100 0.28112701
-0.03280200 -0.02357200 0.28164700
-0.03325300 -0.02322700 0.28139499
-0.03301300 -0.02351200 0.28171101
-0.03333100 -0.02335600 0.28124201
-0.03352100 -0.02358900 0.28113300
-0.03321100 -0.02291500 0.28077400
-0.03341300 -0.02206000 0.28002399
-0.03373900 -0.02299800 0.28009099
-0.03404200 -0.02362900 0.28039601
-0.03401300 -0.02350000 0.28030401
-0.03579800 -0.02293200 0.28068799
-0.03551400 -0.02265600 0.28038901
-0.03428100 -0.02204200 0.27958801
-0.03378800 -0.02226700 0.27979299
-0.03427000 -0.02218100 0.27966499
-0.03511100 -0.02233800 0.27996701
-0.03591400 -0.02205300 0.27977201
-0.03393200 -0.02264300 0.27987000
-0.03401400 -0.02249300 0.27980900
-0.03165200 -0.02431300 0.28087899
-0.03176300 -0.02462400 0.28052700
-0.03168500 -0.02379500 0.28170899
-0.03149500 -0.02443000 0.28079900
-0.03327200 -0.02370700 0.28138500
-0.03350500 -0.02406600 0.28104401
-0.03291200 -0.02409000 0.28088099
-0.03197600 -0.02545000 0.28010300
-0.03280800 -0.02563200 0.28054801
-0.03306200 -0.02501000 0.28062901
-0.03120000 -0.02579800 0.27988699
-0.04836800 -0.01166800 0.28051299
-0.03400300 -0.02397400 0.28093299
-0.03442300 -0.02411500 0.28081501
-0.03357200 -0.02477100 0.28096300
-0.03578700 -0.02480600 0.28159299
-0.03553100 -0.02463900 0.28114799
-0.03533300 -0.02410600 0.28077501
-0.03571500 -0.02443600 0.28090400
-0.03510900 -0.02450900 0.28107700
-0.03580800 -0.02430900 0.28083599
-0.03406500 -0.02582500 0.28180599
-0.03490500 -0.02499700 0.28167599
-0.03703300 -0.02174400 0.28011701
-0.03830400 -0.02180200 0.28060800
-0.03772000 -0.02171800 0.28048599
-0.03597500 -0.02302600 0.28073901
-0.03618400 -0.02165400 0.27955401
-0.03597900 -0.02198300 0.27971601
-0.03814500 -0.02290500 0.27991399
-0.03830000 -0.02285900 0.27997899
-0.03949300 -0.02140600 0.28030100
-0.03908600 -0.02214600 0.28050101
-0.04033600 -0.02239900 0.28097600
-0.03999600 -0.02190800 0.28047499
-0.04018600 -0.02203900 0.28063399
-0.04022000 -0.02132500 0.28024501
-0.03912900 -0.02271800 0.28033900
-0.04047700 -0.02254400 0.28129700
-0.03999400 -0.02341900 0.28121001
-0.04029800 -0.02315200 0.28149700
-0.03984700 -0.02339100 0.28097001
-0.03967700 -0.02360900 0.28093201
-0.04011700 -0.02267600 0.28088799
-0.03594900 -0.02465000 0.28098500
-0.03612600 -0.02463800 0.28090900
-0.03669900 -0.02447300 0.28059900
-0.03639600 -0.02461800 0.28079101
-0.03701900 -0.02474600 0.28059599
-0.03721400 -0.02460900 0.28039500
-0.03819300 -0.02449400 0.28014600
-0.03644400 -0.02497700 0.28118399
-0.03620100 -0.02492300 0.28137699
-0.03696400 -0.02509500 0.28156000
-0.03803500 -0.02490900 0.28061399
-0.03729500 -0.02511600 0.28120300
-0.03778900 -0.02509800 0.28159699
-0.03732100 -0.02507600 0.28095099
-0.03743300 -0.02393700 0.27994901
-0.03871900 -0.02465700 0.28103900
-0.03853100 -0.02485100 0.28135699
-0.03923800 -0.02438700 0.28141400
-0.03908100 -0.02389300 0.28048199
-0.03907000 -0.02420900 0.28074801
-0.03847300 -0.02461800 0.28054699
-0.03837200 -0.02441700 0.28021500
-0.03988600 -0.02383600 0.28160599
-0.03986800 -0.02368500 0.28130701
-0.04995600 -0.01408400 0.28374499
-0.05001900 -0.01347500 0.28318799
-0.04850600 -0.01297800 0.28222099
-0.04867700 -0.01261900 0.28199801
-0.04947300 -0.01258700 0.28202400
-0.04963800 -0.01235700 0.28194699
-0.04857200 -0.01342400 0.28252900
-0.04832000 -0.01391000 0.28283301
-0.04855300 -0.01366300 0.28264299
-0.04858100 -0.01396100 0.28275999
-0.04816100 -0.01410800 0.28200099
-0.04936500 -0.01318600 0.28241500
-0.04795700 -0.01477400 0.28322601
-0.04680200 -0.01574500 0.28379500
-0.04639700 -0.01643500 0.28332600
-0.04701400 -0.01646300 0.28381699
-0.04713000 -0.01550000 0.28334001
-0.04768100 -0.01553000 0.28348801
-0.04778700 -0.01560200 0.28346801
-0.04729400 -0.01605300 0.28369400
-0.04704200 -0.01606900 0.28378299
-0.04761200 -0.01501300 0.28256401
-0.04679400 -0.01606000 0.28297001
-0.04696100 -0.01583200 0.28305301
-0.04739100 -0.01551100 0.28198999
-0.04897700 -0.01457100 0.28314799
-0.04962100 -0.01440300 0.28361800
-0.04941900 -0.01494000 0.28386500
-0.04950400 -0.01430500 0.28338701
-0.04844000 -0.01643600 0.28433999
-0.04839900 -0.01615500 0.28399700
-0.04870200 -0.01615700 0.28431001
-0.04806800 -0.01632800 0.28393501
-0.04927100 -0.01536600 0.28420001
-0.04920200 -0.01431600 0.28312799
-0.05488900 -0.00921800 0.28191099
-0.05236300 -0.01085100 0.28197300
-0.05091300 -0.01157300 0.28192201
-0.05186900 -0.01140100 0.28264099
-0.05245400 -0.01127900 0.28338301
-0.05232400 -0.01079300 0.28183499
-0.05320000 -0.01045600 0.28237599
-0.05334100 -0.01034600 0.28233999
-0.05469500 -0.00938600 0.28224301
-0.05386000 -0.01011100 0.28311700
-0.05355100 -0.01033600 0.28316000
-0.05264300 -0.01095200 0.28284800
-0.05700500 -0.00766100 0.28193700
-0.05716400 -0.00752700 0.28183699
-0.05592400 -0.00848500 0.28257400
-0.05543700 -0.00884700 0.28195801
-0.05533100 -0.00893400 0.28189200
-0.05624100 -0.00822500 0.28244501
-0.05752500 -0.00747900 0.28244701
-0.05800000 -0.00707600 0.28201500
-0.05090300 -0.01246600 0.28312200
-0.05072400 -0.01268400 0.28319299
-0.05095600 -0.01244200 0.28315100
-0.05102000 -0.01186000 0.28248501
-0.05086800 -0.01221200 0.28283799
-0.05171000 -0.01183600 0.28334400
-0.04417500 -0.02016500 0.28519100
-0.04403400 -0.02032100 0.28532699
-0.04428700 -0.01987200 0.28472200
-0.04288600 -0.02105600 0.28503999
-0.04366400 -0.02032600 0.28488001
-0.04496100 -0.01952200 0.28477100
-0.04332900 -0.02053100 0.28488401
-0.04307600 -0.01867300 0.28384000
-0.04195200 -0.01884600 0.28332901
-0.04226400 -0.01883000 0.28346300
-0.04124700 -0.01880600 0.28309599
-0.04542000 -0.01702600 0.28418899
-0.04433000 -0.01763900 0.28444600
-0.04535200 -0.01748300 0.28333601
-0.04348900 -0.01880700 0.28393701
-0.04349700 -0.01872900 0.28395799
-0.04381100 -0.01884400 0.28403899
-0.04337100 -0.01850300 0.28365701
-0.04500700 -0.01811300 0.28419200
-0.04430500 -0.01853700 0.28414601
-0.04436600 -0.01878800 0.28417400
-0.04450600 -0.01859300 0.28415799
-0.04473900 -0.01786800 0.28363499
-0.04442700 -0.01875400 0.28196901
-0.04423100 -0.01854300 0.28289700
-0.04521500 -0.01813800 0.28179801
-0.04460800 -0.01838500 0.28270400
-0.04177700 -0.01906400 0.28324100
-0.04145000 -0.01904100 0.28316000
-0.04172700 -0.02001600 0.28340700
-0.04210100 -0.01917700 0.28336501
-0.04252100 -0.02003400 0.28371701
-0.04246800 -0.01929600 0.28349400
-0.04212600 -0.01896900 0.28337601
-0.04270500 -0.01897000 0.28362599
-0.04118000 -0.02126400 0.28412801
-0.04169000 -0.02124700 0.28413200
-0.04137500 -0.02036800 0.28361201
-0.04112600 -0.02096100 0.28365099
-0.04237600 -0.02040400 0.28391099
-0.04279100 -0.02054500 0.28436700
-0.04133500 -0.01907100 0.28313300
-0.04108200 -0.02009800 0.28226301
-0.04119800 -0.02112300 0.28217399
-0.04119700 -0.02086600 0.28294501
-0.04118900 -0.02068300 0.28294799
-0.04109700 -0.02011300 0.28257000
-0.04369100 -0.01958200 0.28407499
-0.04414900 -0.01907400 0.28413600
-0.04312800 -0.01897000 0.28378499
-0.04448900 -0.01958000 0.28444600
-0.04462900 -0.01937700 0.28436899
-0.04374200 -0.01890400 0.28401399
-0.04354600 -0.01891200 0.28254300
-0.04621000 -0.01854900 0.28468499
-0.04684200 -0.01794400 0.28452799
-0.04770200 -0.01725500 0.28451100
-0.04825000 -0.01674400 0.28452000
-0.04564900 -0.01905800 0.28475201
-0.04564600 -0.01679300 0.28429401
-0.04557600 -0.01705700 0.28385201
-0.04582200 -0.01752400 0.28415599
-0.04643900 -0.01684400 0.28401399
-0.04627800 -0.01742500 0.28410101
-0.04620100 -0.01668900 0.28321499
-0.04612100 -0.01673300 0.28333199
-0.04607700 -0.01797000 0.28424701
-0.04564700 -0.01838100 0.28430200
-0.04594800 -0.01769100 0.28415599
-0.04737100 -0.01657900 0.28387800
-0.04697600 -0.01774600 0.28443101
-0.04645800 -0.01659100 0.28254899
-0.04623600 -0.01673900 0.28292599
-0.04101800 -0.02215000 0.28454199
-0.04099700 -0.02244700 0.28465000
-0.04207000 -0.02203500 0.28493801
-0.04181800 -0.02238500 0.28496301
-0.04226400 -0.02188900 0.28512299
-0.04116200 -0.02349800 0.28554800
-0.04089600 -0.02309900 0.28483999
-0.04141400 -0.02276300 0.28489101
-0.04128000 -0.02257600 0.28472701
-0.04190600 -0.02268300 0.28558999
-0.04229300 -0.02155300 0.28477100
-0.04104400 -0.02150700 0.28393701
-0.04119700 -0.02155700 0.28427699
-0.04104900 -0.02165800 0.28373501
-0.04072400 -0.02284100 0.28325799
-0.04117200 -0.02149800 0.28245500
-0.04089600 -0.02246900 0.28266400
-0.04109900 -0.02177900 0.28233200
-0.04116500 -0.02144800 0.28221300
-0.04483200 -0.00715100 0.27951601
-0.04478000 -0.00744100 0.27917901
-0.04289700 -0.00919500 0.27656299
-0.04281400 -0.00853100 0.27717099
-0.04384000 -0.00774400 0.27801099
-0.04500700 -0.00693600 0.27831301
-0.04361000 -0.00795300 0.27758199
-0.04408200 -0.00800500 0.27748901
-0.04490300 -0.00740700 0.27764401
-0.04497100 -0.00797400 0.27725399
-0.04470300 -0.00742900 0.27705199
-0.04472600 -0.00780900 0.27669299
-0.04345700 -0.00846200 0.27687600
-0.04436000 -0.00817100 0.27727601
-0.04463800 -0.00833200 0.27712801
-0.04500500 -0.00841200 0.27666500
-0.04500500 -0.00843500 0.27658299
-0.04478800 -0.00880800 0.27670899
-0.04491100 -0.00915600 0.27661401
-0.04163400 -0.00996200 0.27676401
-0.04205100 -0.01006700 0.27672100
-0.04303200 -0.01043700 0.27675101
-0.04085600 -0.01069000 0.27654999
-0.04284300 -0.01063200 0.27690199
-0.04297600 -0.01160700 0.27776101
-0.04333100 -0.01040300 0.27672899
-0.04311100 -0.01010500 0.27654499
-0.04431200 -0.00998100 0.27656299
-0.04407700 -0.01098800 0.27717200
-0.04415300 -0.01063900 0.27693301
-0.04511700 -0.01066000 0.27722901
-0.04884100 -0.01041300 0.28055999
-0.04885100 -0.01084900 0.28069299
-0.04915700 -0.01040200 0.28064001
-0.04824000 -0.01130100 0.28060701
-0.04831700 -0.01148900 0.28062999
-0.04912700 -0.01131000 0.28094900
-0.04930200 -0.01048800 0.28073001
-0.04949600 -0.01059300 0.28081101
-0.05002600 -0.01044900 0.28100201
-0.04992700 -0.01075800 0.28103700
-0.04981900 -0.01054800 0.28093499
-0.04925600 -0.01148600 0.28109500
-0.04977300 -0.01160900 0.28141201
-0.04936100 -0.01111400 0.28093401
-0.04832400 -0.01168100 0.27969399
-0.04775000 -0.01125500 0.27830300
-0.04620600 -0.00974400 0.27723801
-0.04554300 -0.00940500 0.27691099
-0.04627600 -0.00946600 0.27670500
-0.04724100 -0.01022000 0.27719900
-0.04664400 -0.00954900 0.27670401
-0.04742100 -0.01016600 0.27706501
-0.04774400 -0.00945200 0.27685100
-0.04618200 -0.01109400 0.27764100
-0.04734700 -0.01053600 0.27752900
-0.04771100 -0.01070200 0.27724001
-0.04768800 -0.01058500 0.27717900
-0.04794100 -0.01160500 0.27839100
-0.04870500 -0.00967400 0.27659199
-0.04859500 -0.00991800 0.27671400
-0.04787800 -0.01110800 0.27781001
-0.04797000 -0.01116800 0.27779499
-0.04824100 -0.01131600 0.27746800
-0.04882200 -0.01119600 0.27685800
-0.04803900 -0.01075100 0.27706099
-0.04885800 -0.01091200 0.27673000
-0.04812700 -0.01062300 0.27696699
-0.04939800 -0.01147500 0.27659699
-0.04938900 -0.01168100 0.27688301
-0.04275200 -0.01428700 0.27931100
-0.04263800 -0.01494900 0.27931300
-0.04349000 -0.01465300 0.27924001
-0.04240700 -0.01267600 0.27798200
-0.04081600 -0.01376600 0.27824599
-0.04252400 -0.01395100 0.27896699
-0.04110100 -0.01304600 0.27773499
-0.04105400 -0.01282100 0.27751899
-0.04087900 -0.01271200 0.27735800
-0.04308900 -0.01177600 0.27795401
-0.04433800 -0.01199700 0.27802801
-0.04534700 -0.01200800 0.27822801
-0.04520500 -0.01273700 0.27786601
-0.04336200 -0.01357300 0.27882400
-0.04392300 -0.01396100 0.27842301
-0.04502800 -0.01380400 0.27757600
-0.04481400 -0.01370000 0.27773601
-0.04110100 -0.01498200 0.27875799
-0.04076100 -0.01451500 0.27843601
-0.04178600 -0.01610800 0.27889699
-0.04292400 -0.01599200 0.27870101
-0.04262400 -0.01602400 0.27872699
-0.04353600 -0.01433600 0.27904201
-0.04435800 -0.01485800 0.27853501
-0.04326600 -0.01563900 0.27887499
-0.04382300 -0.01603300 0.27883300
-0.04492000 -0.01558800 0.27855799
-0.04430300 -0.01596000 0.27887300
-0.04492200 -0.01424100 0.27764601
-0.04913100 -0.01205400 0.28149301
-0.04850800 -0.01246700 0.28089401
-0.04946800 -0.01198900 0.28156200
-0.04832200 -0.01386200 0.28137001
-0.04841700 -0.01367500 0.28058201
-0.04849600 -0.01301500 0.28150699
-0.04850500 -0.01252800 0.28025800
-0.04842000 -0.01372500 0.28025699
-0.04848200 -0.01339900 0.27926499
-0.04840400 -0.01195300 0.27959600
-0.04842000 -0.01190700 0.28015900
-0.04848900 -0.01326100 0.27930301
-0.04777300 -0.01555600 0.27937901
-0.04691000 -0.01648900 0.28089601
-0.04739400 -0.01570800 0.28134900
-0.04754300 -0.01536300 0.28172201
-0.04756700 -0.01584900 0.27982301
-0.04797500 -0.01504800 0.28033701
-0.04810600 -0.01494900 0.27967900
-0.04803200 -0.01461300 0.28123900
-0.04817900 -0.01419700 0.28153601
-0.04600700 -0.01186100 0.27791101
-0.04640300 -0.01255500 0.27765501
-0.04615500 -0.01267600 0.27767000
-0.04767600 -0.01286300 0.27743700
-0.04668900 -0.01222600 0.27766901
-0.04634500 -0.01398100 0.27695701
-0.04587800 -0.01334400 0.27735001
-0.04713900 -0.01365900 0.27708799
-0.04773600 -0.01333600 0.27736899
-0.04828300 -0.01198800 0.27874699
-0.04839800 -0.01229000 0.27889499
-0.04811500 -0.01215800 0.27820799
-0.04819700 -0.01217400 0.27832699
-0.04821700 -0.01239700 0.27822900
-0.04952800 -0.01177400 0.27796701
-0.04837000 -0.01334600 0.27819899
-0.04837500 -0.01387000 0.27838400
-0.04839300 -0.01351100 0.27830800
-0.04845400 -0.01293800 0.27878201
-0.04792700 -0.01282300 0.27764001
-0.04992500 -0.01183500 0.27776700
-0.04997800 -0.01186700 0.27738899
-0.04977000 -0.01178500 0.27686799
-0.04811300 -0.01406500 0.27781701
-0.04586900 -0.01615100 0.27823699
-0.04624600 -0.01637700 0.27843601
-0.04733800 -0.01601700 0.27899101
-0.04776800 -0.01547000 0.27875501
-0.04708900 -0.01579800 0.27806699
-0.04726100 -0.01560600 0.27798000
-0.04695100 -0.01594000 0.27815101
-0.04566900 -0.01516700 0.27775100
-0.04650800 -0.01413100 0.27692899
-0.04720900 -0.01491200 0.27733499
-0.04738800 -0.01473100 0.27734700
-0.04745200 -0.01468100 0.27737001
-0.04702400 -0.01562500 0.27779001
-0.04834200 -0.01428900 0.27911901
-0.04790600 -0.01516700 0.27846000
-0.04822100 -0.01467900 0.27884400
-0.04800700 -0.01414500 0.27769700
-0.04529700 -0.00729900 0.27495000
-0.04535100 -0.00716900 0.27485001
-0.04458200 -0.00750100 0.27638200
-0.04522000 -0.00798100 0.27544299
-0.04533100 -0.00759300 0.27509999
-0.04371900 -0.00883400 0.27650499
-0.04495900 -0.00825200 0.27601299
-0.04545300 -0.00828100 0.27562800
-0.04337300 -0.00973900 0.27637199
-0.04267900 -0.00971100 0.27652001
-0.04655000 -0.00748600 0.27468699
-0.04616000 -0.00728000 0.27457801
-0.04713400 -0.00789900 0.27514800
-0.04726100 -0.00700100 0.27441001
-0.04565100 -0.00828400 0.27559999
-0.04600700 -0.00904600 0.27632600
-0.04608700 -0.00896600 0.27621901
-0.04648100 -0.00924500 0.27643999
-0.04680400 -0.00898600 0.27632001
-0.04723900 -0.00873900 0.27635300
-0.04791900 -0.00750500 0.27501601
-0.04818300 -0.00789600 0.27552301
-0.04786200 -0.00798600 0.27550101
-0.04952200 -0.00750000 0.27593100
-0.04932200 -0.00777300 0.27597299
-0.04869400 -0.00827900 0.27619299
-0.04954400 -0.00819700 0.27605799
-0.04921400 -0.00850000 0.27610901
-0.04990900 -0.00963200 0.27571699
-0.05011800 -0.00988900 0.27563101
-0.04897800 -0.01040000 0.27650601
-0.04964500 -0.01054000 0.27581999
-0.05015200 -0.01137200 0.27599901
-0.05002100 -0.01113800 0.27586901
-0.05397900 -0.00798200 0.28073999
-0.05313500 -0.00850900 0.28110600
-0.05380400 -0.00814600 0.28062201
-0.05373200 -0.00905900 0.28100100
-0.05476800 -0.00914700 0.28135201
-0.05464000 -0.00845200 0.28063399
-0.05494200 -0.00863100 0.28072599
-0.05386700 -0.00890700 0.28094700
-0.05385500 -0.00911500 0.28099701
-0.05413600 -0.00879000 0.28081900
-0.05493300 -0.00875500 0.28084499
-0.05449800 -0.00781700 0.28000200
-0.05484300 -0.00785000 0.27927899
-0.05316300 -0.00925500 0.27994999
-0.05335100 -0.00926600 0.27960899
-0.05430400 -0.00846700 0.27931100
-0.05424900 -0.00839700 0.27954999
-0.05053500 -0.01052100 0.28117999
-0.05113600 -0.01028300 0.28132901
-0.05034600 -0.01042300 0.28110200
-0.05207300 -0.01010300 0.28138301
-0.05227400 -0.01016800 0.28137800
-0.05239700 -0.01012800 0.28138000
-0.05243700 -0.01005000 0.28136700
-0.05181400 -0.01012100 0.28140199
-0.05046500 -0.01098200 0.28132001
-0.05046400 -0.01161100 0.28173301
-0.05067100 -0.01112600 0.28145000
-0.05132800 -0.01115400 0.28167701
-0.05174800 -0.01089100 0.28163299
-0.05183800 -0.01080600 0.28160700
-0.05141000 -0.01056700 0.27982301
-0.05209200 -0.01017900 0.27984801
-0.05249700 -0.01011600 0.27942100
-0.05164000 -0.01061300 0.27951100
-0.05280800 -0.00978400 0.28127301
-0.05261300 -0.00992900 0.28133401
-0.05341400 -0.00953000 0.28117800
-0.05316700 -0.00996300 0.28141499
-0.05266100 -0.01036300 0.28154999
-0.05342800 -0.00938000 0.28112599
-0.05393200 -0.00972300 0.28153801
-0.05425800 -0.00959700 0.28180501
-0.05304700 -0.00944900 0.27980500
-0.05270900 -0.00968000 0.27994299
-0.05395000 -0.00919600 0.27837700
-0.05493400 -0.00823200 0.27824801
-0.05451900 -0.00887500 0.27739200
-0.05426200 -0.00858900 0.27913901
-0.05460700 -0.00845700 0.27860799
-0.05452300 -0.00890900 0.27685401
-0.05084600 -0.01123000 0.27900600
-0.05064500 -0.01134100 0.27891201
-0.05166500 -0.01106300 0.27846700
-0.05165200 -0.01112100 0.27827600
-0.05187200 -0.01066600 0.27913100
-0.05237200 -0.01067200 0.27809900
-0.05247200 -0.01040700 0.27882200
-0.05197400 -0.01094800 0.27812001
-0.05250700 -0.01048800 0.27690399
-0.05137100 -0.01139300 0.27735800
-0.05113300 -0.01152300 0.27722999
-0.05084000 -0.01164100 0.27692899
-0.05219500 -0.01070900 0.27670199
-0.05171100 -0.01116400 0.27706000
-0.05188900 -0.01105700 0.27763301
-0.05225600 -0.01079100 0.27768701
-0.05184600 -0.01096900 0.27664301
-0.05273400 -0.01008100 0.27904901
-0.05314600 -0.00984700 0.27870399
-0.05305100 -0.00977800 0.27908900
-0.05288700 -0.01024500 0.27734399
-0.05262800 -0.01049200 0.27761799
-0.05329600 -0.00977500 0.27682200
-0.05334000 -0.00974500 0.27685899
-0.05272600 -0.01022600 0.27678901
-0.05391600 -0.00937200 0.27744600
-0.05543200 -0.00875900 0.28123501
-0.05577000 -0.00858300 0.28177601
-0.05605000 -0.00809000 0.28057900
-0.05573800 -0.00846600 0.28099599
-0.05597600 -0.00828200 0.28105101
-0.05641300 -0.00792000 0.28124899
-0.05714600 -0.00747200 0.28163800
-0.05639200 -0.00789600 0.28098601
-0.05682600 -0.00747200 0.28083500
-0.05531000 -0.00789000 0.28019100
-0.05543200 -0.00777900 0.28009099
-0.05578100 -0.00733100 0.27982199
-0.05618300 -0.00751600 0.27988201
-0.05588300 -0.00713600 0.27966601
-0.05601200 -0.00732300 0.27975500
-0.05519900 -0.00812400 0.28035501
-0.05673200 -0.00731300 0.28010100
-0.05623700 -0.00760700 0.27999100
-0.05692100 -0.00717600 0.28009301
-0.05663600 -0.00715500 0.27970201
-0.05762100 -0.00707300 0.28126299
-0.05574200 -0.00739100 0.27682501
-0.05507600 -0.00830500 0.27729201
-0.05539500 -0.00788400 0.27752000
-0.05564000 -0.00741400 0.27769399
-0.05541400 -0.00791200 0.27717501
-0.05059600 -0.01175000 0.27699101
-0.05092600 -0.00714100 0.27593401
-0.05058900 -0.00773500 0.27601200
-0.05145000 -0.00703100 0.27527401
-0.05095900 -0.00921500 0.27578500
-0.05049600 -0.00854700 0.27583200
-0.05171200 -0.00898100 0.27609000
-0.05250800 -0.00838700 0.27543899
-0.05186800 -0.00765600 0.27520299
-0.05290900 -0.00892400 0.27551600
-0.05349000 -0.00890200 0.27522999
-0.05390300 -0.00905200 0.27555701
-0.05410200 -0.00917000 0.27648801
-0.05465600 -0.00868500 0.27611801
-0.05352200 -0.00712300 0.27396399
-0.05364900 -0.00700700 0.27393100
-0.05466200 -0.00781900 0.27415401
-0.05458400 -0.00771800 0.27401599
-0.05314000 -0.00864700 0.27516499
-0.05411300 -0.00872900 0.27503201
-0.05452000 -0.00848300 0.27493101
-0.05399300 -0.00826800 0.27446601
-0.05225800 -0.01046500 0.27647799
-0.05197300 -0.01009300 0.27618900
-0.05247400 -0.01023200 0.27647299
-0.05200700 -0.00985400 0.27617601
-0.05027600 -0.00943500 0.27567601
-0.05096900 -0.01108700 0.27602500
-0.05063600 -0.01137800 0.27604699
-0.05032500 -0.01155100 0.27619100
-0.05088200 -0.01140600 0.27625999
-0.05193100 -0.01072500 0.27641001
-0.05165200 -0.01092100 0.27635601
-0.05306900 -0.00969200 0.27641100
-0.05334900 -0.00945300 0.27610201
-0.05401400 -0.00743100 0.27381700
-0.05514100 -0.00784600 0.27493501
-0.05517500 -0.00764100 0.27467999
-0.05501000 -0.00837900 0.27595699
-0.05560100 -0.00765700 0.27638200
-0.05569700 -0.00726900 0.27576199
-0.05571900 -0.00704600 0.27551401
-0.05519400 -0.00781500 0.27499601
-0.04140700 -0.01675400 0.27894801
-0.04185100 -0.01705000 0.27850100
-0.04162200 -0.01749500 0.27864099
-0.04134200 -0.01829300 0.27907801
-0.04116000 -0.01857100 0.27912101
-0.04150600 -0.01857600 0.27898899
-0.04368600 -0.01724600 0.27839100
-0.04373800 -0.01680100 0.27853799
-0.04229500 -0.01676400 0.27841100
-0.04278900 -0.01837800 0.27813101
-0.04307200 -0.01778800 0.27811599
-0.04092600 -0.01997000 0.28145900
-0.04186700 -0.01929300 0.28167701
-0.04079300 -0.01940900 0.28047299
-0.04117600 -0.01960600 0.28061399
-0.04137100 -0.01965900 0.27995199
-0.04153400 -0.01958400 0.28078401
-0.04169000 -0.01970000 0.28051201
-0.04098900 -0.02027700 0.28126100
-0.04097500 -0.02079600 0.28097099
-0.04097400 -0.02053300 0.28103200
-0.04096100 -0.02045200 0.28102699
-0.04285800 -0.01976400 0.27994499
-0.04270200 -0.01963200 0.28101400
-0.04263600 -0.01958200 0.28114101
-0.04303900 -0.01972600 0.27998400
-0.04353000 -0.01936100 0.28136799
-0.04337700 -0.01963400 0.28027400
-0.04168900 -0.01957800 0.27932400
-0.04221600 -0.01954100 0.27907699
-0.04097400 -0.01927300 0.27940899
-0.04107600 -0.01918600 0.27927700
-0.04152300 -0.01891300 0.27900800
-0.04216400 -0.01974000 0.27948999
-0.04198500 -0.01902300 0.27879599
-0.04353200 -0.01948300 0.27953699
-0.04363800 -0.01939600 0.27936199
-0.04294800 -0.01973600 0.27987301
-0.04353300 -0.01953200 0.27978101
-0.04275400 -0.01905700 0.27842301
-0.04298100 -0.01907300 0.27841201
-0.04339000 -0.01933200 0.27886701
-0.04508900 -0.01853600 0.28058600
-0.04589000 -0.01758100 0.28009501
-0.04629200 -0.01709500 0.27995101
-0.04608500 -0.01728500 0.28158200
-0.04513000 -0.01835700 0.28129601
-0.04566300 -0.01778400 0.28147101
-0.04526200 -0.01832600 0.28024200
-0.04676300 -0.01669700 0.27993000
-0.04581800 -0.01776800 0.28041500
-0.04584400 -0.01775000 0.28082901
-0.04517600 -0.01835100 0.27994299
-0.04537700 -0.01724000 0.27889499
-0.04493300 -0.01735000 0.27868301
-0.04425400 -0.01716300 0.27859601
-0.04452900 -0.01887800 0.27970099
-0.04453300 -0.01882500 0.27954599
-0.04525500 -0.01773700 0.27901301
-0.04436900 -0.01785400 0.27848399
-0.04430900 -0.01815600 0.27846599
-0.04466000 -0.01779700 0.27858999
-0.04421000 -0.01832800 0.27845299
-0.04663500 -0.01661800 0.27923900
-0.04567600 -0.01767400 0.27966601
-0.04612600 -0.01701500 0.27945301
-0.04555900 -0.01721600 0.27900901
-0.04547700 -0.01694200 0.27885801
-0.04553600 -0.01778600 0.27954701
-0.04423000 -0.01921800 0.28034499
-0.04433400 -0.01909600 0.27996999
-0.04435800 -0.01894900 0.28141499
-0.04405200 -0.01926100 0.27979299
-0.04384200 -0.01938900 0.27980599
-0.04072100 -0.02253800 0.28179401
-0.04070500 -0.02210600 0.28128999
-0.06468600 0.00143600 0.27682999
-0.06331200 0.00346900 0.27667001
-0.06295300 0.00457100 0.27872601
-0.06310800 0.00382400 0.27691099
-0.06351200 0.00381000 0.27888501
-0.06452800 0.00276500 0.28032899
-0.06372700 0.00374200 0.27966899
-0.06370100 0.00395000 0.28023800
-0.06306400 0.00459800 0.27934200
-0.06334700 0.00347200 0.27684501
-0.06381200 0.00273700 0.27666801
-0.06361800 0.00370700 0.27904499
-0.06330500 0.00393000 0.27824599
-0.06311100 0.00445800 0.27908999
-0.06297600 0.00416400 0.27745801
-0.06345900 0.00371600 0.27829900
-0.06288100 0.00408000 0.27665600
-0.06270700 0.00409500 0.27580801
-0.06273300 0.00376700 0.27478501
-0.06341400 0.00323200 0.27635700
-0.06316500 0.00339600 0.27564400
-0.06269900 0.00401800 0.27550900
-0.06305400 0.00374500 0.27632499
-0.06271400 0.00378000 0.27472901
-0.06245000 0.00412900 0.27461901
-0.06225300 0.00363500 0.27180099
-0.06302600 0.00286500 0.27297899
-0.06274900 0.00322300 0.27281001
-0.06280400 0.00329200 0.27336299
-0.06237900 0.00312400 0.27185801
-0.06267000 0.00316700 0.27225599
-0.06280700 -0.00144900 0.27939901
-0.06129100 -0.00214000 0.27715299
-0.06213500 -0.00204900 0.27853200
-0.06219100 -0.00214900 0.27893600
-0.06251100 -0.00113600 0.27826899
-0.06214900 -0.00101300 0.27711999
-0.06230600 -0.00101700 0.27751401
-0.06275700 -0.00042500 0.27697900
-0.06205700 -0.00165800 0.27763799
-0.06534200 0.00023900 0.28083500
-0.06549500 0.00044700 0.28063199
-0.06516700 0.00172900 0.27986699
-0.06472500 0.00247600 0.28032801
-0.06522100 0.00043500 0.28014401
-0.06535300 0.00131100 0.27943599
-0.06501600 0.00060600 0.27933300
-0.06527600 0.00069500 0.27963701
-0.06557900 0.00120900 0.28021100
-0.06542200 0.00050900 0.28034499
-0.06434500 -0.00037100 0.28056100
-0.06321400 -0.00183300 0.28116399
-0.06325300 -0.00139700 0.28047800
-0.06362800 -0.00080200 0.28012100
-0.06445700 0.00004700 0.27963001
-0.06452400 -0.00014500 0.28032601
-0.06301900 -0.00141900 0.28002900
-0.06462400 0.00193200 0.27790800
-0.06437800 0.00039000 0.27855000
-0.06417700 0.00255000 0.27783799
-0.06439800 0.00194300 0.27672601
-0.06398400 0.00033200 0.27778599
-0.06413500 0.00061300 0.27730200
-0.06384200 0.00056300 0.27683401
-0.06497900 0.00167700 0.27875999
-0.06461700 0.00226000 0.27899799
-0.06519800 0.00133200 0.27882600
-0.06523900 0.00129700 0.27893099
-0.06512500 0.00080300 0.27904299
-0.06500000 0.00108300 0.27804899
-0.06460900 0.00070200 0.27815199
-0.06467400 0.00158000 0.27699700
-0.06483800 0.00142700 0.27738899
-0.06478700 0.00121900 0.27727601
-0.06331700 -0.00035700 0.27814201
-0.06335000 -0.00050800 0.27865699
-0.06391300 0.00009100 0.27836201
-0.06343100 0.00020200 0.27686501
-0.06034200 -0.00438500 0.27997801
-0.06092800 -0.00337300 0.27924001
-0.06061900 -0.00435200 0.28110600
-0.06077800 -0.00411900 0.28081101
-0.06070800 -0.00391200 0.27985701
-0.06107600 -0.00351400 0.28021199
-0.06117200 -0.00352500 0.28080201
-0.06185300 -0.00292100 0.28081599
-0.06158100 -0.00319700 0.28114700
-0.06220100 -0.00268900 0.28139800
-0.06147600 -0.00295800 0.27981400
-0.06147200 -0.00316500 0.28030401
-0.06231300 -0.00226000 0.27975601
-0.06198100 -0.00268100 0.28020701
-0.06181300 -0.00252900 0.27917600
-0.05989300 -0.00541100 0.28153500
-0.06033500 -0.00476700 0.28086701
-0.05997500 -0.00512600 0.28061000
-0.05981100 -0.00503900 0.27982000
-0.05996600 -0.00488000 0.27989000
-0.06049200 -0.00318000 0.27777201
-0.06025300 -0.00335900 0.27764001
-0.05997300 -0.00450300 0.27910700
-0.06130300 -0.00253600 0.27804700
-0.05983100 -0.00368200 0.27730501
-0.06027500 -0.00383900 0.27863699
-0.06087000 -0.00334200 0.27899900
-0.06031300 -0.00271600 0.27664900
-0.06102900 -0.00314600 0.27888900
-0.06077400 -0.00261400 0.27731201
-0.06182300 -0.00223000 0.27847001
-0.06034300 -0.00301100 0.27722600
-0.06042100 -0.00276200 0.27693200
-0.06267900 0.00049400 0.27475601
-0.06238300 0.00041900 0.27444801
-0.06269300 0.00089000 0.27413100
-0.06129900 -0.00183300 0.27651000
-0.06107000 -0.00151500 0.27544901
-0.06087200 -0.00159400 0.27539501
-0.06127700 -0.00056700 0.27449900
-0.06003300 -0.00204900 0.27504700
-0.06011800 -0.00180700 0.27476200
-0.05999100 -0.00157600 0.27428001
-0.06068700 -0.00149400 0.27493101
-0.06089700 -0.00112300 0.27428401
-0.06179700 -0.00064900 0.27545899
-0.06257800 0.00002900 0.27549601
-0.06240100 -0.00021900 0.27566999
-0.06158600 -0.00041500 0.27467901
-0.06218000 0.00008400 0.27473399
-0.06117300 0.00059200 0.27290100
-0.06102400 0.00160100 0.27209401
-0.06017300 0.00057600 0.27219900
-0.06018600 0.00187100 0.27177200
-0.06053200 0.00159700 0.27193400
-0.06194900 0.00109300 0.27306601
-0.06200200 0.00054100 0.27377799
-0.06207200 0.00074200 0.27360699
-0.06154200 0.00053100 0.27329400
-0.06156900 0.00159000 0.27236101
-0.06213200 0.00180600 0.27251601
-0.06049500 -0.00101800 0.27367100
-0.06411100 0.00216400 0.27609700
-0.06439900 0.00166100 0.27600399
-0.06401700 0.00206200 0.27526301
-0.06434200 0.00169000 0.27575901
-0.06419000 0.00105400 0.27624300
-0.06360200 0.00077500 0.27575600
-0.06430700 0.00133500 0.27584201
-0.06356700 0.00250000 0.27449000
-0.06377500 0.00156000 0.27449501
-0.06401100 0.00189400 0.27471599
-0.06401700 0.00147400 0.27503601
-0.06387000 0.00200900 0.27439401
-0.06309900 0.00065400 0.27510700
-0.06400000 0.00138500 0.27516299
-0.06363800 0.00219500 0.27386099
-0.06322800 0.00177600 0.27345401
-0.06318800 0.00257800 0.27288201
-0.06310800 0.00250400 0.27267700
-0.05994400 -0.00243700 0.27550501
-0.06018900 -0.00219900 0.27544001
-0.06085100 -0.00220000 0.27648300
-0.02853100 -0.02610200 0.28714299
-0.02813200 -0.02687200 0.28730601
-0.02819100 -0.02788100 0.28719899
-0.02809400 -0.02831800 0.28730199
-0.02842000 -0.02953800 0.28733599
-0.02804700 -0.02907500 0.28735700
-0.02851100 -0.03046700 0.28780401
-0.02866700 -0.02980600 0.28768101
-0.02861000 -0.03041800 0.28742200
-0.02892700 -0.02972500 0.28719199
-0.02780700 -0.03158600 0.28726599
-0.02794200 -0.03124200 0.28791499
-0.02765700 -0.03185400 0.28810999
-0.02766300 -0.03191800 0.28744799
-0.02770300 -0.03444400 0.28845799
-0.02694000 -0.03530600 0.28858399
-0.02746900 -0.03408800 0.28794101
-0.02744100 -0.03378400 0.28805599
-0.02772300 -0.03469900 0.28809401
-0.02776100 -0.03467500 0.28825501
-0.02761000 -0.03535300 0.28825301
-0.02797200 -0.03513100 0.28804299
-0.02739100 -0.03455000 0.28719199
-0.02800800 -0.03538300 0.28770399
-0.02872900 -0.02646700 0.28704101
-0.02843900 -0.02721900 0.28689599
-0.02852500 -0.02687000 0.28689200
-0.02859900 -0.02702900 0.28680199
-0.02888000 -0.02695500 0.28590700
-0.02914100 -0.02665800 0.28681701
-0.02911100 -0.02669800 0.28670901
-0.02910800 -0.02715600 0.28635699
-0.02844800 -0.02736300 0.28686801
-0.02856000 -0.02811000 0.28662899
-0.02899300 -0.02743200 0.28663099
-0.02895700 -0.02836000 0.28627101
-0.02859000 -0.02628200 0.28479099
-0.02878100 -0.02739200 0.28513601
-0.02877900 -0.02717000 0.28533301
-0.02888900 -0.02764700 0.28528601
-0.02863600 -0.02676900 0.28492901
-0.02849400 -0.02935300 0.28698099
-0.02872900 -0.02944700 0.28682801
-0.02889100 -0.02963500 0.28699401
-0.02916600 -0.02962700 0.28660300
-0.02899100 -0.02919200 0.28629601
-0.02895200 -0.02918800 0.28632501
-0.02965300 -0.02959700 0.28611100
-0.02860800 -0.03060700 0.28606701
-0.02913800 -0.02976100 0.28703201
-0.02933400 -0.02975800 0.28669500
-0.02935500 -0.02867500 0.28489199
-0.02965900 -0.02868800 0.28545600
-0.02920500 -0.03028700 0.28566000
-0.02876900 -0.03064100 0.28498900
-0.02952000 -0.03027400 0.28476599
-0.02852800 -0.03083600 0.28505099
-0.02974300 -0.02911000 0.28583100
-0.02986300 -0.02977500 0.28608999
-0.02990800 -0.02887200 0.28566799
-0.03011100 -0.02939900 0.28574201
-0.03000700 -0.02935500 0.28476101
-0.02856300 -0.02741100 0.28327101
-0.02857300 -0.02700000 0.28328300
-0.02860700 -0.02750800 0.28411400
-0.02887400 -0.02814300 0.28444701
-0.02859200 -0.02792900 0.28272799
-0.02864000 -0.02668300 0.28294700
-0.02868100 -0.02655400 0.28286099
-0.02863600 -0.02779700 0.28238699
-0.02871800 -0.02844200 0.28308100
-0.02890600 -0.02865600 0.28355199
-0.02882800 -0.02862200 0.28323999
-0.02915000 -0.02877200 0.28423899
-0.02898900 -0.02881700 0.28350300
-0.02887700 -0.03078400 0.28416601
-0.02912800 -0.03061800 0.28410000
-0.02912700 -0.03075400 0.28355101
-0.02890900 -0.02888300 0.28280899
-0.02897400 -0.02894800 0.28298599
-0.02924300 -0.02933200 0.28258500
-0.02944800 -0.02946800 0.28232399
-0.02921200 -0.02929100 0.28248999
-0.02947500 -0.03070900 0.28283799
-0.02969400 -0.02930400 0.28436700
-0.02979500 -0.03027900 0.28383401
-0.02982700 -0.02974400 0.28330499
-0.03022000 -0.02997000 0.28331599
-0.02989900 -0.03034400 0.28332701
-0.03004100 -0.02938800 0.28196099
-0.02992400 -0.02924300 0.28184500
-0.03045300 -0.02909400 0.28188601
-0.02987000 -0.02982200 0.28289199
-0.03019000 -0.02991800 0.28248000
-0.03007000 -0.02968100 0.28220001
-0.03039400 -0.02993500 0.28240201
-0.03084000 -0.03010900 0.28251401
-0.03091500 -0.03075600 0.28235200
-0.02787400 -0.03143400 0.28608599
-0.02759700 -0.03201300 0.28640300
-0.02787900 -0.03144400 0.28652301
-0.02776200 -0.03165500 0.28586999
-0.02740000 -0.03270600 0.28641000
-0.02738600 -0.03285400 0.28584099
-0.02768500 -0.03194800 0.28510001
-0.02785900 -0.03151600 0.28559500
-0.02816700 -0.03127700 0.28481299
-0.02777000 -0.03166600 0.28567800
-0.02777100 -0.03167700 0.28560099
-0.02744100 -0.03259700 0.28514501
-0.02722800 -0.03412100 0.28625301
-0.02725000 -0.03436200 0.28647000
-0.02722700 -0.03415400 0.28588799
-0.02731100 -0.03443000 0.28694400
-0.02734200 -0.03476300 0.28661701
-0.02732600 -0.03482000 0.28628099
-0.02721800 -0.03396300 0.28518501
-0.02727500 -0.03340900 0.28458399
-0.02721800 -0.03417800 0.28538501
-0.02731000 -0.03500700 0.28480300
-0.02743800 -0.03529600 0.28555700
-0.02817100 -0.03153500 0.28372699
-0.02900300 -0.03095400 0.28321099
-0.02871500 -0.03095400 0.28400499
-0.02775700 -0.03198400 0.28405800
-0.02870700 -0.03124300 0.28314400
-0.02758900 -0.03227500 0.28420600
-0.02755500 -0.03242000 0.28400901
-0.02753200 -0.03267500 0.28363001
-0.02815300 -0.03183700 0.28298199
-0.02761500 -0.03322600 0.28219101
-0.02863200 -0.03154700 0.28251201
-0.02854800 -0.03155600 0.28269300
-0.02840800 -0.03214900 0.28180799
-0.02799400 -0.03207200 0.28289700
-0.02767700 -0.03274800 0.28262100
-0.02811300 -0.03251300 0.28184199
-0.02924800 -0.03106000 0.28235599
-0.03072800 -0.03134900 0.28192100
-0.03087400 -0.03249700 0.28202599
-0.02764000 -0.03502400 0.28191501
-0.02735100 -0.03451900 0.28300399
-0.02768300 -0.03550600 0.28291100
-0.02730500 -0.03492000 0.28433999
-0.02750800 -0.03324500 0.28279200
-0.02726700 -0.03451400 0.28398699
-0.02749900 -0.03458100 0.28204599
-0.02763700 -0.03523300 0.28232801
-0.02742500 -0.03494100 0.28301400
-0.02739600 -0.03493300 0.28331101
-0.02754600 -0.03486300 0.28210801
-0.03080300 -0.03558300 0.28259799
-0.03117000 -0.03529000 0.28290099
-0.03737900 -0.03056300 0.28731999
-0.03718600 -0.03110400 0.28718600
-0.03712400 -0.03164500 0.28717801
-0.03710900 -0.03178100 0.28718400
-0.03713000 -0.03405200 0.28786299
-0.03686800 -0.03461200 0.28776199
-0.03688500 -0.03354300 0.28720200
-0.03356300 -0.03020900 0.28493500
-0.03344400 -0.03013100 0.28477201
-0.03325500 -0.03082900 0.28503099
-0.03382500 -0.03006300 0.28452399
-0.03408700 -0.03068900 0.28483301
-0.03359000 -0.03073800 0.28494999
-0.03441700 -0.03022700 0.28490600
-0.03470900 -0.03021800 0.28494400
-0.03431400 -0.03030300 0.28487399
-0.03523200 -0.02943800 0.28517401
-0.03531500 -0.02923300 0.28474000
-0.03573700 -0.02899400 0.28526801
-0.03548300 -0.02919100 0.28522500
-0.03546300 -0.02939400 0.28522801
-0.03587500 -0.02931800 0.28532600
-0.03559200 -0.03070100 0.28538600
-0.03526700 -0.03026500 0.28516299
-0.03566500 -0.02993000 0.28533000
-0.03487300 -0.03080900 0.28497699
-0.03456200 -0.02620700 0.28189099
-0.03489200 -0.02675000 0.28191000
-0.03591800 -0.02716000 0.28216401
-0.03576500 -0.02641700 0.28211400
-0.03402000 -0.02743900 0.28185901
-0.03578200 -0.02734900 0.28201500
-0.03559000 -0.02837000 0.28222799
-0.03576700 -0.02809600 0.28223401
-0.03222000 -0.03035500 0.28321800
-0.03208200 -0.03077500 0.28324500
-0.03267900 -0.03027900 0.28429899
-0.03272500 -0.03030700 0.28404301
-0.03321200 -0.03025700 0.28404501
-0.03286400 -0.03032700 0.28336799
-0.03352600 -0.03024500 0.28352699
-0.03138600 -0.02950100 0.28219900
-0.03180900 -0.02889500 0.28199700
-0.03163600 -0.03059500 0.28298900
-0.03201800 -0.03035000 0.28307599
-0.03180300 -0.03027600 0.28269199
-0.03177800 -0.02974700 0.28221399
-0.03200800 -0.03016900 0.28243700
-0.03345500 -0.03017300 0.28277600
-0.03255700 -0.03034100 0.28308901
-0.03272200 -0.03010500 0.28229299
-0.03274200 -0.03015300 0.28238401
-0.03259200 -0.02980400 0.28197899
-0.03506000 -0.02946300 0.28347999
-0.03365900 -0.03014900 0.28418899
-0.03369900 -0.03019200 0.28359300
-0.03484200 -0.02962800 0.28410101
-0.03511600 -0.02940300 0.28341800
-0.03499900 -0.02953300 0.28361800
-0.03494200 -0.02897800 0.28211701
-0.03429800 -0.02938300 0.28199601
-0.03512500 -0.02924000 0.28278100
-0.03370600 -0.02982700 0.28219801
-0.03433100 -0.02961900 0.28241199
-0.03474300 -0.02915100 0.28211501
-0.03545600 -0.02849500 0.28218600
-0.03523100 -0.02895100 0.28242499
-0.03513500 -0.02894600 0.28228801
-0.03832000 -0.02752900 0.28595901
-0.03803700 -0.02807400 0.28594401
-0.03823100 -0.02813600 0.28638399
-0.03644800 -0.02658100 0.28471100
-0.03670300 -0.02704700 0.28495300
-0.03686900 -0.02709200 0.28495401
-0.03789700 -0.02652800 0.28502101
-0.03807700 -0.02641100 0.28505701
-0.03624400 -0.02815500 0.28525200
-0.03601900 -0.02840300 0.28521600
-0.03673700 -0.02832800 0.28534800
-0.03637000 -0.02764900 0.28505501
-0.03798100 -0.02773900 0.28566599
-0.03788000 -0.02803900 0.28575301
-0.03884200 -0.02697000 0.28646299
-0.03853400 -0.02740700 0.28623301
-0.03855900 -0.02648000 0.28560200
-0.03871800 -0.02712300 0.28637299
-0.03835300 -0.02671900 0.28551099
-0.03714800 -0.03033000 0.28667000
-0.03740000 -0.02910700 0.28594601
-0.03704000 -0.03040800 0.28654701
-0.03695600 -0.03022100 0.28623900
-0.03692300 -0.03021800 0.28618699
-0.03742300 -0.02913300 0.28599301
-0.03778400 -0.02863500 0.28606001
-0.03754100 -0.02961500 0.28670701
