-0.01797200 -0.04534600 0.13900000 201 209 178
-0.01764600 -0.04534600 0.13900000 207 215 184
-0.01719400 -0.04502000 0.13800000 207 217 192
-0.00639200 -0.04436700 0.13600001 121 138 139
-0.00607200 -0.04436700 0.13600001 205 213 202
-0.00575200 -0.04436700 0.13600001 229 237 226
-0.00543300 -0.04436700 0.13600001 246 248 239
-0.00511300 -0.04436700 0.13600001 247 249 240
-0.00479300 -0.04436700 0.13600001 252 250 240
-0.00447300 -0.04436700 0.13600001 252 250 240
-0.00415300 -0.04436700 0.13600001 252 250 242
-0.00383400 -0.04436700 0.13600001 246 244 236
-0.00351400 -0.04436700 0.13600001 230 233 232
-0.01908900 -0.04534300 0.14000000 227 227 192
-0.01862600 -0.04501900 0.13900000 255 255 202
-0.01829900 -0.04501900 0.13900000 255 255 205
-0.01797200 -0.04501900 0.13900000 255 255 210
-0.01764600 -0.04501900 0.13900000 255 255 211
-0.01719400 -0.04469500 0.13800000 255 255 223
-0.01654500 -0.04469500 0.13800000 252 255 233
-0.00671200 -0.04404800 0.13600001 81 92 88
-0.00639200 -0.04404800 0.13600001 189 200 196
-0.00607200 -0.04404800 0.13600001 252 255 245
-0.00575200 -0.04404800 0.13600001 252 255 245
-0.00321700 -0.04437100 0.13699999 252 255 251
-0.00289500 -0.04437100 0.13699999 250 255 254
-0.00257300 -0.04437100 0.13699999 250 255 254
-0.00225100 -0.04437100 0.13699999 248 255 249
-0.02387000 -0.04597800 0.14300001 148 145 140
-0.02353300 -0.04597800 0.14300001 222 225 200
-0.02319700 -0.04597800 0.14300001 244 247 222
-0.02270100 -0.04565700 0.14200000 245 252 228
-0.02236700 -0.04565700 0.14200000 128 137 128
-0.01941900 -0.04501400 0.14000000 202 201 184
-0.01654500 -0.04437100 0.13800000 252 255 222
-0.01622100 -0.04437100 0.13800000 253 255 223
-0.01589600 -0.04437100 0.13800000 253 255 238
-0.01545900 -0.04404900 0.13699999 254 255 239
-0.00708300 -0.04404900 0.13699999 81 88 92
-0.00676100 -0.04404900 0.13699999 104 107 91
-0.00257300 -0.04404900 0.13699999 252 255 251
-0.00225100 -0.04404900 0.13699999 252 255 251
-0.00192900 -0.04404900 0.13699999 252 255 251
-0.00160700 -0.04404900 0.13699999 250 255 251
-0.00128500 -0.04404900 0.13699999 250 255 251
-0.02420600 -0.04564200 0.14300001 175 164 139
-0.02387000 -0.04564200 0.14300001 247 236 211
-0.02319700 -0.04564200 0.14300001 255 255 218
-0.02236700 -0.04532300 0.14200000 245 252 228
-0.02203300 -0.04532300 0.14200000 240 245 233
-0.02169900 -0.04532300 0.14200000 167 172 160
-0.02136500 -0.04532300 0.14200000 125 131 131
-0.02103200 -0.04532300 0.14200000 117 123 123
-0.01974800 -0.04468500 0.14000000 199 193 155
-0.01941900 -0.04468500 0.14000000 254 248 210
-0.01589600 -0.04404600 0.13800000 253 255 236
-0.01557200 -0.04404600 0.13800000 254 255 237
-0.01513700 -0.04372700 0.13699999 254 255 243
-0.00740500 -0.04372700 0.13699999 80 80 76
-0.00708300 -0.04372700 0.13699999 120 120 116
-0.00676100 -0.04372700 0.13699999 226 224 201
-0.00128500 -0.04372700 0.13699999 252 255 251
-0.00096300 -0.04372700 0.13699999 251 255 248
-0.00064000 -0.04372700 0.13699999 252 255 249
-0.02420600 -0.04530600 0.14300001 247 239 195
-0.02236700 -0.04498900 0.14200000 255 255 222
-0.02203300 -0.04498900 0.14200000 253 255 236
-0.02169900 -0.04498900 0.14200000 250 254 233
-0.02136500 -0.04498900 0.14200000 195 196 185
-0.02088300 -0.04467200 0.14100000 141 142 131
-0.02055200 -0.04467200 0.14100000 135 127 103
-0.02022000 -0.04467200 0.14100000 164 156 132
-0.01974800 -0.04435600 0.14000000 248 234 178
-0.01557200 -0.04372200 0.13800000 255 255 233
-0.01513700 -0.04340500 0.13699999 254 255 239
-0.01481500 -0.04340500 0.13699999 254 255 239
-0.01449200 -0.04340500 0.13699999 253 255 240
-0.00740500 -0.04340500 0.13699999 127 125 106
-0.00708300 -0.04340500 0.13699999 230 228 209
-0.00064000 -0.04340500 0.13699999 252 255 251
-0.00031800 -0.04340500 0.13699999 250 255 249
0.00000400 -0.04340500 0.13699999 248 255 247
-0.02203300 -0.04465500 0.14200000 255 255 223
-0.02169900 -0.04465500 0.14200000 255 255 231
-0.02136500 -0.04465500 0.14200000 255 255 233
-0.02103200 -0.04465500 0.14200000 239 239 217
-0.02055200 -0.04434100 0.14100000 194 186 146
-0.02022000 -0.04434100 0.14100000 206 198 158
-0.01481500 -0.04308300 0.13699999 254 255 234
-0.01449200 -0.04308300 0.13699999 254 255 237
-0.00772700 -0.04308300 0.13699999 70 84 86
-0.00740500 -0.04308300 0.13699999 182 175 146
0.00000400 -0.04308300 0.13699999 252 255 249
0.00032600 -0.04308300 0.13699999 248 255 244
-0.02572900 -0.04494600 0.14399999 57 63 65
-0.02539100 -0.04494600 0.14399999 90 96 98
-0.02487800 -0.04463400 0.14300001 211 195 161
-0.02169900 -0.04432100 0.14200000 255 255 219
-0.02136500 -0.04432100 0.14200000 255 255 228
-0.02103200 -0.04432100 0.14200000 255 255 229
-0.01449200 -0.04276100 0.13699999 252 255 233
-0.01417000 -0.04276100 0.13699999 234 241 215
-0.00772700 -0.04276100 0.13699999 79 92 89
0.00032600 -0.04276100 0.13699999 252 255 247
0.00064800 -0.04276100 0.13699999 248 253 243
-0.02572900 -0.04460700 0.14399999 67 67 61
-0.02539100 -0.04460700 0.14399999 138 138 132
-0.01417000 -0.04243900 0.13699999 246 252 215
0.00064800 -0.04243900 0.13699999 252 255 249
0.00097000 -0.04243900 0.13699999 238 240 229
0.00129200 -0.04243900 0.13699999 120 121 108
0.00162600 -0.04274800 0.13800000 115 116 103
0.00195100 -0.04274800 0.13800000 123 127 120
0.00227500 -0.04274800 0.13800000 140 144 137
0.00260000 -0.04274800 0.13800000 149 150 146
0.00292400 -0.04274800 0.13800000 149 150 146
0.00324900 -0.04274800 0.13800000 148 148 144
0.00357300 -0.04274800 0.13800000 141 141 137
-0.02572900 -0.04426800 0.14399999 90 82 70
-0.02539100 -0.04426800 0.14399999 189 181 169
-0.01427400 -0.04242400 0.13800000 255 255 214
0.00097000 -0.04211600 0.13699999 253 255 244
0.00130200 -0.04242400 0.13800000 133 131 112
0.00162600 -0.04242400 0.13800000 169 167 148
0.00195100 -0.04242400 0.13800000 217 218 205
0.00227500 -0.04242400 0.13800000 252 253 240
0.00260000 -0.04242400 0.13800000 254 255 247
0.00292400 -0.04242400 0.13800000 254 255 247
0.00324900 -0.04242400 0.13800000 254 255 249
0.00357300 -0.04242400 0.13800000 254 255 249
0.00389800 -0.04242400 0.13800000 240 244 239
0.00422200 -0.04242400 0.13800000 207 211 206
-0.02572900 -0.04393000 0.14399999 126 114 96
0.00129200 -0.04179400 0.13699999 207 209 191
0.00162600 -0.04209900 0.13800000 252 254 236
0.00195100 -0.04209900 0.13800000 254 255 241
0.00490700 -0.04240400 0.13900000 245 252 246
-0.02606800 -0.04359100 0.14399999 61 72 72
0.00490700 -0.04207800 0.13900000 251 255 250
0.00523300 -0.04207800 0.13900000 251 255 248
0.00556000 -0.04207800 0.13900000 216 220 213
0.00523300 -0.04175100 0.13900000 253 255 246
0.00556000 -0.04175100 0.13900000 254 255 247
0.00588700 -0.04175100 0.13900000 240 245 235
0.00588700 -0.04142400 0.13900000 252 255 243
0.00621400 -0.04142400 0.13900000 245 250 236
0.00654100 -0.04142400 0.13900000 188 198 186
0.00621400 -0.04109700 0.13900000 254 255 241
0.00658800 -0.04139300 0.14000000 249 254 240
0.00658800 -0.04106300 0.14000000 255 255 239
0.00691700 -0.04106300 0.14000000 230 232 214
0.00691700 -0.04073400 0.14000000 254 255 234
0.00729800 -0.04069400 0.14100000 224 227 206
0.00763000 -0.04069400 0.14100000 131 134 113
0.00796100 -0.04069400 0.14100000 114 123 116
0.00729800 -0.04036200 0.14100000 255 255 228
0.00763000 -0.04036200 0.14100000 228 229 200
0.00796100 -0.04036200 0.14100000 165 171 152
0.00829300 -0.04036200 0.14100000 137 143 124
0.00868500 -0.04064800 0.14200000 134 142 139
0.00901900 -0.04064800 0.14200000 152 160 157
0.00935300 -0.04064800 0.14200000 205 209 204
0.00968700 -0.04064800 0.14200000 238 242 237
0.01002100 -0.04064800 0.14200000 249 247 237
0.01035500 -0.04064800 0.14200000 249 247 237
0.00763000 -0.04003100 0.14100000 254 255 216
0.00796100 -0.04003100 0.14100000 253 255 234
0.00829300 -0.04003100 0.14100000 240 244 221
0.00868500 -0.04031500 0.14200000 246 253 245
0.00901900 -0.04031500 0.14200000 250 255 249
0.00935300 -0.04031500 0.14200000 252 255 251
0.01076400 -0.04059900 0.14300001 254 255 247
0.01110000 -0.04059900 0.14300001 254 255 247
0.00796100 -0.03969900 0.14100000 252 255 228
0.01110000 -0.04026200 0.14300001 254 255 247
0.01143700 -0.04026200 0.14300001 253 255 244
0.01143700 -0.03992600 0.14300001 254 255 245
0.01177300 -0.03992600 0.14300001 254 255 245
0.01177300 -0.03959000 0.14300001 252 254 243
0.01219400 -0.03952800 0.14399999 255 255 235
0.01219400 -0.03918900 0.14399999 255 255 229
