-0.06245630 -0.01102698 0.30395311 19 19 19
-0.05808647 -0.01571655 0.30935362 45 45 45
-0.05119982 -0.03162706 0.32666105 104 104 104
-0.05190746 -0.03367438 0.33044645 76 76 76
-0.05534878 -0.03209007 0.32134396 134 134 134
-0.05973554 -0.01226682 0.30548206 19 19 19
-0.06228052 -0.01120208 0.30415785 22 22 22
-0.05320824 -0.03218199 0.32141373 129 129 129
-0.05155922 -0.03415986 0.33104289 115 115 115
-0.05500093 -0.03256340 0.32194951 103 103 103
-0.05909748 -0.01391028 0.30730593 19 19 19
-0.06189117 -0.01187958 0.30493733 22 22 22
-0.05106558 -0.03125513 0.32742542 103 103 103
-0.06044890 -0.01111002 0.30416101 23 23 23
-0.05484582 -0.03272272 0.32214621 134 134 134
-0.06188018 -0.01172117 0.30474204 21 21 21
-0.05044369 -0.03267953 0.32930571 110 110 110
-0.05451369 -0.03324324 0.32271460 104 104 104
-0.05013517 -0.03344539 0.33024028 75 75 75
-0.06163745 -0.01196660 0.30502093 21 21 21
-0.06094903 -0.01044858 0.30343068 24 24 24
-0.05302700 -0.03328423 0.32286173 140 140 140
-0.05461259 -0.03280988 0.32224181 136 136 136
-0.06175896 -0.01155235 0.30456728 22 22 22
-0.05929166 -0.01431693 0.30775490 18 18 18
-0.05250368 -0.03445058 0.32441127 150 150 150
-0.05131159 -0.03385668 0.33069265 100 100 100
-0.05489006 -0.03204655 0.32128483 130 130 130
-0.06162366 -0.01165084 0.30469209 20 20 20
-0.06069008 -0.01140986 0.30447027 21 21 21
-0.05722685 -0.01971537 0.31317285 104 104 104
-0.05095733 -0.03236910 0.32894486 111 111 111
-0.05440444 -0.03282727 0.32226560 133 133 133
-0.06131619 -0.01023972 0.30314693 26 26 26
-0.06118129 -0.01238711 0.30547404 136 136 136
-0.05882235 -0.01583582 0.30944681 39 39 39
-0.05441759 -0.03259766 0.32200608 134 134 134
-0.06005135 -0.01325547 0.30657223 22 22 22
-0.06151685 -0.01147667 0.30449650 20 20 20
-0.05404164 -0.03199102 0.32121655 101 101 101
-0.05402941 -0.03327521 0.32274064 105 105 105
-0.05964354 -0.01436989 0.30780104 19 19 19
-0.06079724 -0.01285993 0.30602324 21 21 21
-0.05390571 -0.03247948 0.32183176 133 133 133
-0.05334169 -0.03441766 0.32427067 143 143 143
-0.05771514 -0.01955436 0.31282753 98 98 98
-0.06023170 -0.01401543 0.30732873 137 137 137
-0.05131609 -0.03241855 0.32898864 82 82 82
-0.06104454 -0.01168151 0.30475026 22 22 22
-0.05421756 -0.03222829 0.32149249 134 134 134
-0.05115075 -0.03301117 0.32969046 78 78 78
-0.06071944 -0.01268440 0.30584979 21 21 21
-0.03765916 -0.02899950 0.32566527 133 133 133
-0.05241279 -0.01757069 0.31121448 154 154 154
-0.04947727 -0.01164552 0.30550766 47 47 47
-0.05015302 -0.01275669 0.30665296 104 104 104
-0.05029129 -0.01290162 0.30681473 76 76 76
-0.05263217 -0.01816183 0.31172782 51 51 51
-0.05157130 -0.01601608 0.30976212 117 117 117
-0.05104160 -0.01379923 0.30776808 54 54 54
-0.05048440 -0.01392625 0.30790147 54 54 54
-0.05032932 -0.01225448 0.30609381 47 47 47
-0.08560234 -0.01062133 0.29631701 124 124 124
-0.05054440 -0.01255811 0.30642661 44 44 44
-0.08574936 -0.01143507 0.29725963 123 123 123
-0.08679450 -0.01357399 0.30005589 147 147 147
-0.05221289 -0.01541017 0.30903953 152 152 152
-0.08584119 -0.01193819 0.29786679 140 140 140
-0.04998906 -0.01332164 0.30728671 47 47 47
-0.08817182 -0.01657547 0.30367658 147 147 147
-0.08563262 -0.01175885 0.29745686 138 138 138
-0.05071490 -0.01216195 0.30597469 85 85 85
-0.08862214 -0.01759462 0.30488187 167 167 167
-0.08604027 -0.01267517 0.29876614 142 142 142
-0.03772734 -0.02753534 0.32400355 124 124 124
-0.08760679 -0.01586509 0.30278990 148 148 148
-0.08515293 -0.01128998 0.29642555 131 131 131
-0.05167157 -0.01383564 0.30778527 39 39 39
-0.08751542 -0.01587636 0.30280137 147 147 147
-0.08508862 -0.01136109 0.29641223 132 132 132
-0.05170233 -0.01385581 0.30775151 44 44 44
-0.08830621 -0.01759339 0.30478862 150 150 150
-0.08578137 -0.01277013 0.29861829 132 132 132
-0.08763537 -0.01644642 0.30343321 151 151 151
-0.08519671 -0.01192400 0.29704952 128 128 128
-0.05107105 -0.01184852 0.30557632 52 52 52
-0.08904913 -0.01828228 0.31126654 135 135 135
-0.08708569 -0.01555242 0.30237615 161 161 161
-0.08471002 -0.01127073 0.29582310 129 129 129
-0.05120320 -0.01175223 0.30546558 45 45 45
-0.05110620 -0.01634797 0.31010565 65 65 65
-0.08892109 -0.01820685 0.31108481 131 131 131
-0.08688355 -0.01535628 0.30206856 164 164 164
-0.05169616 -0.01258494 0.30637154 44 44 44
-0.05242721 -0.01383296 0.30761984 55 55 55
-0.05003338 -0.01431716 0.30834466 51 51 51
-0.08730736 -0.01634019 0.30330622 150 150 150
-0.08492989 -0.01201542 0.29681197 127 127 127
-0.05249284 -0.01374410 0.30750567 50 50 50
-0.05153223 -0.01169200 0.30544132 43 43 43
-0.08789977 -0.01768011 0.30489880 148 148 148
-0.08545281 -0.01312207 0.29856041 128 128 128
-0.05272650 -0.01369660 0.30746770 56 56 56
-0.08874124 -0.01938766 0.30741975 112 112 112
-0.08628491 -0.01477865 0.30115288 140 140 140
-0.05165222 -0.01139540 0.30510986 67 67 67
-0.05541181 -0.01863321 0.31288344 78 78 78
-0.04042384 -0.03101389 0.32792357 126 126 126
-0.05483008 -0.01763297 0.31109118 90 90 90
-0.08748510 -0.01722334 0.30433670 149 149 149
-0.08509282 -0.01284952 0.29787073 126 126 126
-0.05302972 -0.01361033 0.30740631 44 44 44
-0.08873551 -0.01872453 0.31172946 130 130 130
-0.08667871 -0.01587172 0.30255488 158 158 158
-0.08433128 -0.01163206 0.29596826 153 153 153
-0.05445115 -0.01627322 0.30969563 63 63 63
-0.03703320 -0.02418543 0.32014635 139 139 139
-0.08843768 -0.01938331 0.30707714 149 149 149
-0.08596187 -0.01477579 0.30079928 132 132 132
-0.05569886 -0.01851713 0.31229016 134 134 134
-0.08822677 -0.01917671 0.30669332 164 164 164
-0.08576763 -0.01459548 0.30038491 126 126 126
-0.05436608 -0.01560636 0.30911073 91 91 91
-0.05116674 -0.01755326 0.31124812 89 89 89
-0.05292263 -0.01252287 0.30621940 77 77 77
-0.05595152 -0.01840927 0.31242341 228 228 228
-0.08833448 -0.01954808 0.30722213 142 142 142
-0.08588450 -0.01500875 0.30090165 129 129 129
-0.05461068 -0.01575594 0.30926377 71 71 71
-0.06105003 -0.03058933 0.31837136 125 125 125
-0.05467341 -0.01566409 0.30915010 112 112 112
-0.05106342 -0.01758761 0.31128684 67 67 67
-0.08851571 -0.01999580 0.30811790 114 114 114
-0.08612940 -0.01562657 0.30174085 129 129 129
-0.05493985 -0.01600001 0.30950749 54 54 54
-0.05322244 -0.01242479 0.30607548 44 44 44
-0.05099545 -0.01755583 0.31123629 55 55 55
-0.08863623 -0.01939817 0.31262434 131 131 131
-0.08660877 -0.01662033 0.30343917 180 180 180
-0.08427160 -0.01242920 0.29683667 157 157 157
-0.05414823 -0.01387322 0.30760193 51 51 51
-0.08714435 -0.01783285 0.30501941 151 151 151
-0.08482295 -0.01365125 0.29842898 137 137 137
-0.05450089 -0.01453634 0.30798879 38 38 38
-0.05587224 -0.01744230 0.31013396 33 33 33
-0.05601903 -0.01753332 0.31037563 31 31 31
-0.03715274 -0.02305318 0.31882122 105 105 105
-0.05436308 -0.01377621 0.30748764 40 40 40
-0.08792111 -0.01947977 0.30703002 153 153 153
-0.08552899 -0.01511648 0.30059665 130 130 130
-0.05680236 -0.01827015 0.31229103 23 23 23
-0.04750953 -0.01109819 0.30507365 78 78 78
-0.08859238 -0.01984158 0.31315601 96 96 96
-0.08663449 -0.01720151 0.30418438 149 149 149
-0.08432344 -0.01307685 0.29755020 163 163 163
-0.05302497 -0.02193027 0.31645361 114 114 114
-0.05478537 -0.01395865 0.30761445 54 54 54
-0.08823560 -0.01937519 0.31224799 111 111 111
-0.08623882 -0.01670437 0.30317023 130 130 130
-0.08385561 -0.01236932 0.29663411 157 157 157
-0.05893210 -0.02151673 0.31582171 115 115 115
-0.08804319 -0.02022449 0.30802712 147 147 147
-0.08569304 -0.01596140 0.30154508 126 126 126
-0.05509659 -0.01401332 0.30768761 69 69 69
-0.05681856 -0.01730761 0.31106523 87 87 87
-0.05645242 -0.01670695 0.30975670 22 22 22
-0.04915770 -0.01481311 0.30896965 61 61 61
-0.08751868 -0.01941934 0.30692196 152 152 152
-0.08518826 -0.01522294 0.30037951 130 130 130
-0.05665595 -0.01674119 0.31021574 21 21 21
-0.05708977 -0.01728720 0.31127098 39 39 39
-0.04705860 -0.01093746 0.30488858 83 83 83
-0.08684578 -0.01828803 0.30554220 155 155 155
-0.08455105 -0.01423372 0.29890257 145 145 145
-0.05713079 -0.01722606 0.31117845 39 39 39
-0.03652281 -0.02059491 0.31603029 131 131 131
-0.05039098 -0.01815328 0.31110853 36 36 36
-0.08814847 -0.01985945 0.31313086 134 134 134
-0.08617551 -0.01725543 0.30395061 135 135 135
-0.08382148 -0.01302447 0.29737249 157 157 157
-0.05721860 -0.01706062 0.31095371 44 44 44
-0.04249519 -0.03162806 0.32854590 126 126 126
-0.06315468 -0.03073981 0.31870493 131 131 131
-0.08805986 -0.02091320 0.30908561 119 119 119
-0.08572958 -0.01680055 0.30254182 128 128 128
-0.08325034 -0.01212040 0.29620948 148 148 148
-0.05749735 -0.01706547 0.31093034 43 43 43
-0.05762374 -0.01712038 0.31098530 50 50 50
-0.08767068 -0.02042008 0.30809426 158 158 158
-0.08535151 -0.01628266 0.30151239 129 129 129
-0.05026551 -0.01805909 0.31123468 26 26 26
-0.06501740 -0.03091711 0.32669410 143 143 143
-0.06337211 -0.03030551 0.31818184 117 117 117
-0.08698276 -0.01931686 0.30679071 152 152 152
-0.08472663 -0.01529494 0.30013129 143 143 143
-0.05666482 -0.01478228 0.30839869 35 35 35
-0.03661200 -0.01991367 0.31524447 102 102 102
-0.05769618 -0.01662002 0.31036147 59 59 59
-0.08640852 -0.01835849 0.30558124 153 153 153
-0.08411787 -0.01434910 0.29889381 155 155 155
-0.06503971 -0.03047675 0.32617861 100 100 100
-0.06251283 -0.02822932 0.31568944 112 112 112
-0.04869175 -0.01495529 0.30915159 67 67 67
-0.08778576 -0.02016527 0.31289285 106 106 106
-0.08574688 -0.01748148 0.30371001 127 127 127
-0.08335125 -0.01303824 0.29725084 158 158 158
-0.05794254 -0.01675340 0.31048724 58 58 58
-0.06583025 -0.03161635 0.32748556 132 132 132
-0.05460857 -0.01004448 0.30347767 61 61 61
-0.05046960 -0.01832332 0.31244916 20 20 20
-0.08760598 -0.02099226 0.30883911 158 158 158
-0.08533262 -0.01697726 0.30222151 133 133 133
-0.08275247 -0.01207947 0.29602474 160 160 160
-0.06302859 -0.02853202 0.31603661 120 120 120
-0.08682753 -0.01968566 0.30720368 152 152 152
-0.08457348 -0.01573319 0.30054048 158 158 158
-0.04851784 -0.01493761 0.30914769 65 65 65
-0.05789588 -0.01583210 0.30948216 46 46 46
-0.08774598 -0.02045557 0.31382495 134 134 134
-0.08583995 -0.01801297 0.30492356 140 140 140
-0.08353728 -0.01393813 0.29827011 152 152 152
-0.05685826 -0.01359919 0.30714542 44 44 44
-0.05834296 -0.01650094 0.31021082 52 52 52
-0.05018461 -0.01839096 0.31276217 35 35 35
-0.03616169 -0.01819442 0.31313303 136 136 136
-0.08669772 -0.01978993 0.30731809 153 153 153
-0.08444447 -0.01585415 0.30062360 141 141 141
-0.05860834 -0.01669269 0.31037486 28 28 28
-0.06276920 -0.02692061 0.31446177 110 110 110
-0.04825392 -0.01472228 0.30898136 48 48 48
-0.05748100 -0.01414709 0.30768541 39 39 39
-0.08770203 -0.02176113 0.31038103 103 103 103
-0.08543665 -0.01779413 0.30377960 124 124 124
-0.08299097 -0.01326830 0.29736319 153 153 153
-0.05845002 -0.01587193 0.30953971 37 37 37
-0.06573620 -0.02949424 0.32495040 106 106 106
-0.04864622 -0.01573508 0.30999944 41 41 41
-0.05871182 -0.01600167 0.30963266 39 39 39
-0.08606645 -0.01893430 0.30627015 162 162 162
-0.08383022 -0.01505795 0.29952243 143 143 143
-0.06670375 -0.03095724 0.32669756 132 132 132
-0.04996557 -0.01842424 0.31276968 51 51 51
-0.04758952 -0.01382111 0.30800349 60 60 60
-0.08663728 -0.02020779 0.30779186 152 152 152
-0.08438285 -0.01627380 0.30110425 147 147 147
-0.05893096 -0.01572890 0.30932483 33 33 33
-0.04885720 -0.01642054 0.31078431 36 36 36
-0.04396452 -0.03206173 0.32897860 125 125 125
-0.08755965 -0.02200499 0.31068370 107 107 107
-0.08528008 -0.01802890 0.30407274 129 129 129
-0.08286435 -0.01358004 0.29763851 149 149 149
-0.06749033 -0.03125078 0.32700664 125 125 125
-0.04881411 -0.01651473 0.31087434 72 72 72
-0.08617872 -0.01967341 0.30718395 155 155 155
-0.08395491 -0.01583668 0.30042848 148 148 148
-0.05938682 -0.01540742 0.30895826 60 60 60
-0.04806118 -0.01529661 0.30957672 40 40 40
-0.05992994 -0.01610644 0.30964038 62 62 62
-0.08722948 -0.02185407 0.30986422 154 154 154
-0.08496471 -0.01788267 0.30323690 133 133 133
-0.08239599 -0.01305399 0.29691660 156 156 156
-0.05998558 -0.01588670 0.30943549 49 49 49
-0.04879232 -0.01688274 0.31122404 72 72 72
-0.06791952 -0.03058183 0.32621035 131 131 131
-0.06813613 -0.03080131 0.32646355 127 127 127
-0.08579734 -0.01931130 0.30665368 159 159 159
-0.08357062 -0.01547606 0.29988658 149 149 149
-0.06812709 -0.03059645 0.32621896 133 133 133
-0.04731532 -0.01415976 0.30837834 50 50 50
-0.06841082 -0.03095832 0.32664049 120 120 120
-0.06811742 -0.03027500 0.32582849 141 141 141
-0.06842970 -0.03068331 0.32632709 132 132 132
-0.08693140 -0.02165775 0.30950838 145 145 145
-0.08466653 -0.01769451 0.30286828 152 152 152
-0.08205520 -0.01276895 0.29650864 152 152 152
-0.06755950 -0.03084174 0.31983477 147 147 147
-0.06116430 -0.01642019 0.30997047 26 26 26
-0.04770206 -0.01522392 0.30951062 43 43 43
-0.08571157 -0.01949994 0.30687463 170 170 170
-0.08349445 -0.01569766 0.30009115 148 148 148
-0.06858459 -0.03017077 0.32569146 106 106 106
-0.06901992 -0.03063504 0.32623306 136 136 136
-0.08681686 -0.02178504 0.30967438 150 150 150
-0.08456201 -0.01785650 0.30301765 148 148 148
-0.08192843 -0.01289841 0.29658893 151 151 151
-0.06923381 -0.03070323 0.32630783 125 125 125
-0.06117898 -0.01525566 0.30865332 47 47 47
-0.04916224 -0.01839514 0.31286877 53 53 53
-0.08703715 -0.02131003 0.31440681 117 117 117
-0.08496569 -0.01858641 0.30496520 131 131 131
-0.06101660 -0.01456974 0.30795810 38 38 38
-0.06850667 -0.02883689 0.32411733 84 84 84
-0.06840351 -0.03056425 0.31949267 150 150 150
-0.06143121 -0.01508294 0.30848283 45 45 45
-0.06861588 -0.03057814 0.31950468 149 149 149
-0.08590437 -0.02036517 0.30798763 151 151 151
-0.08370383 -0.01664488 0.30116856 132 132 132
-0.06827923 -0.02985715 0.31859499 159 159 159
-0.06206436 -0.01583243 0.30925632 22 22 22
-0.06155084 -0.01458789 0.30793470 52 52 52
-0.04876389 -0.01797543 0.31245655 52 52 52
-0.08643036 -0.02155896 0.30937082 153 153 153
-0.08416952 -0.01765243 0.30269134 142 142 142
-0.08129209 -0.01218471 0.29582697 125 125 125
-0.07986051 -0.02375874 0.31175792 146 146 146
-0.06892629 -0.03036261 0.31923524 149 149 149
-0.06232940 -0.01560311 0.30899844 22 22 22
-0.06192893 -0.01471862 0.30799884 35 35 35
-0.08694701 -0.02270649 0.31094614 131 131 131
-0.08462628 -0.01859204 0.30443841 128 128 128
-0.08189006 -0.01350410 0.29725969 132 132 132
-0.04697882 -0.01468048 0.30901253 68 68 68
-0.06886230 -0.02976141 0.31848493 161 161 161
-0.06905174 -0.02988558 0.31864625 163 163 163
-0.06891414 -0.02947321 0.31816539 158 158 158
-0.06207224 -0.01425351 0.30751684 34 34 34
-0.08477689 -0.01891916 0.30543369 135 135 135
-0.06268337 -0.01543418 0.30878648 23 23 23
-0.06926724 -0.02992564 0.31869251 162 162 162
-0.04668810 -0.01430413 0.30861962 49 49 49
-0.06252784 -0.01494877 0.30823937 63 63 63
-0.06963495 -0.02831280 0.32351434 139 139 139
-0.06941327 -0.02974645 0.31849146 156 156 156
-0.08563682 -0.02057263 0.30825037 151 151 151
-0.08349072 -0.01700275 0.30136472 133 133 133
-0.03576662 -0.01435211 0.30953303 86 86 86
-0.06239719 -0.01420218 0.30746701 36 36 36
-0.06225639 -0.01374823 0.30695122 56 56 56
-0.06953059 -0.02945527 0.31815264 162 162 162
-0.08593518 -0.02132756 0.30909172 150 150 150
-0.08374672 -0.01755615 0.30232090 128 128 128
-0.06971960 -0.02962953 0.31837842 156 156 156
-0.06303721 -0.01472052 0.30797991 32 32 32
-0.06989927 -0.02962038 0.31837282 156 156 156
-0.08616877 -0.02198337 0.30988908 151 151 151
-0.08395094 -0.01813168 0.30319828 150 150 150
-0.06308876 -0.01451361 0.30778500 42 42 42
-0.07030626 -0.02820219 0.32335386 141 141 141
-0.06985045 -0.02920300 0.31788015 161 161 161
-0.03609423 -0.01465057 0.30981800 108 108 108
-0.08665985 -0.02302408 0.31136099 129 129 129
-0.08433145 -0.01887781 0.30486530 132 132 132
-0.08145257 -0.01365756 0.29725188 117 117 117
-0.03581068 -0.01395401 0.30906874 89 89 89
-0.06106374 -0.00991407 0.30273232 45 45 45
-0.07025776 -0.02946242 0.31816402 160 160 160
-0.06326538 -0.01390804 0.30711952 55 55 55
-0.04790450 -0.01731929 0.31179923 73 73 73
-0.06333721 -0.01386654 0.30707946 51 51 51
-0.08510883 -0.02029954 0.30773377 163 163 163
-0.08287208 -0.01650959 0.30059099 108 108 108
-0.03562533 -0.01339287 0.30847535 176 176 176
-0.05544094 -0.03436223 0.32398838 156 156 156
-0.06989768 -0.02810896 0.31646365 157 157 157
-0.08622038 -0.02255524 0.31055441 151 151 151
-0.08396247 -0.01868176 0.30387199 135 135 135
-0.06139056 -0.00960949 0.30251279 92 92 92
-0.06420061 -0.01474674 0.30792871 22 22 22
-0.04856501 -0.01894646 0.31356207 19 19 19
-0.08486173 -0.02020079 0.30749750 144 144 144
-0.08261787 -0.01639047 0.30044517 99 99 99
-0.04826569 -0.01838842 0.31298640 41 41 41
-0.06910403 -0.02613642 0.31349847 127 127 127
-0.07087407 -0.02907999 0.31774911 162 162 162
-0.03615487 -0.01394696 0.30904108 118 118 118
-0.08589040 -0.02228158 0.31023872 149 149 149
-0.08366866 -0.01850712 0.30349594 163 163 163
-0.07088797 -0.02889317 0.31748402 172 172 172
-0.06934564 -0.02607436 0.31346792 112 112 112
-0.04750378 -0.01707001 0.31154105 42 42 42
-0.03569516 -0.01287810 0.30788580 117 117 117
-0.03711359 -0.01575086 0.31133300 109 109 109
-0.08429047 -0.01962388 0.30602089 141 141 141
-0.08047216 -0.01266867 0.29597020 175 175 175
-0.07146010 -0.02771596 0.32263771 136 136 136
-0.06395759 -0.01325907 0.30632097 105 105 105
-0.07162208 -0.02783360 0.32285485 85 85 85
-0.03564824 -0.01261179 0.30765390 117 117 117
-0.06983781 -0.02642762 0.31396022 125 125 125
-0.08476149 -0.02056015 0.30782849 140 140 140
-0.07149346 -0.02944955 0.31819499 152 152 152
-0.04627156 -0.03266989 0.32952848 121 121 121
-0.06489676 -0.01448602 0.30761608 22 22 22
-0.08503969 -0.02121807 0.30897886 158 158 158
-0.07120015 -0.02851067 0.31700081 160 160 160
-0.06458452 -0.01372727 0.30680063 40 40 40
-0.04778793 -0.01790919 0.31247693 64 64 64
-0.07023146 -0.02648880 0.31408101 131 131 131
-0.07189106 -0.02969579 0.31859085 141 141 141
-0.08594085 -0.02309701 0.31121492 142 142 142
-0.08363058 -0.01902457 0.30467251 128 128 128
-0.08008485 -0.01248037 0.29562983 154 154 154
-0.06455844 -0.01334341 0.30637085 45 45 45
-0.06452860 -0.01307997 0.30612758 148 148 148
-0.08631989 -0.02280100 0.31664547 100 100 100
-0.08441543 -0.02052360 0.30732068 134 134 134
-0.07223882 -0.02954991 0.31841251 142 142 142
-0.03707112 -0.01467649 0.30971783 89 89 89
-0.04972039 -0.02203559 0.31672567 113 113 113
-0.08454467 -0.02085618 0.30813754 138 138 138
-0.07180110 -0.02826645 0.31672198 158 158 158
-0.06504700 -0.01327559 0.30629161 37 37 37
-0.03577907 -0.01203786 0.30695090 97 97 97
-0.08447263 -0.02090660 0.30813974 137 137 137
-0.07229739 -0.02869554 0.31733346 158 158 158
-0.08489025 -0.02177554 0.30968264 156 156 156
-0.07268182 -0.02732397 0.32210305 131 131 131
-0.06506985 -0.01260555 0.30557582 108 108 108
-0.07237700 -0.02845084 0.31699520 178 178 178
-0.04769941 -0.01842929 0.31307846 56 56 56
-0.03627908 -0.01264909 0.30759600 101 101 101
-0.08545113 -0.02306383 0.31114131 153 153 153
-0.08317780 -0.01908809 0.30452260 124 124 124
-0.07244387 -0.02841191 0.31696635 173 173 173
-0.04526633 -0.01375108 0.30811951 80 80 80
-0.06600273 -0.01401503 0.30699304 21 21 21
-0.07175402 -0.02696341 0.31470713 102 102 102
-0.08601179 -0.02418915 0.31313491 110 110 110
-0.08378202 -0.02029792 0.30653629 151 151 151
-0.05461823 -0.03431352 0.32394245 157 157 157
-0.04752576 -0.01824294 0.31295520 61 61 61
-0.06608951 -0.01374645 0.30671221 23 23 23
-0.07296791 -0.02868598 0.31731933 158 158 158
-0.08462348 -0.02179147 0.30970180 160 160 160
-0.07192959 -0.02674595 0.31444862 144 144 144
-0.06574529 -0.01275333 0.30565551 32 32 32
-0.04681785 -0.01713050 0.31164354 40 40 40
-0.08561063 -0.02384767 0.31209764 148 148 148
-0.08323959 -0.01963246 0.30564559 146 146 146
-0.07068367 -0.02412003 0.31109619 107 107 107
-0.04745911 -0.01844225 0.31315744 43 43 43
-0.08454312 -0.02199358 0.30991384 149 149 149
-0.08235139 -0.01833393 0.30307943 126 126 126
-0.07321398 -0.02814509 0.31665778 159 159 159
-0.07253170 -0.02686725 0.31463474 99 99 99
-0.08577020 -0.02445487 0.31320190 114 114 114
-0.08349858 -0.02048651 0.30664212 147 147 147
-0.07349654 -0.02836784 0.31695682 167 167 167
-0.07346211 -0.02811961 0.31665251 159 159 159
-0.08452899 -0.02229710 0.31022692 149 149 149
-0.08234187 -0.01867915 0.30341607 149 149 149
-0.07391379 -0.02877797 0.31745759 157 157 157
-0.03632640 -0.01175699 0.30650830 138 138 138
-0.05426035 -0.03431126 0.32396904 153 153 153
-0.08565819 -0.02458145 0.31336847 115 115 115
-0.08339317 -0.02064596 0.30679095 153 153 153
-0.07304841 -0.02695451 0.31479114 154 154 154
-0.03686770 -0.01263074 0.30747205 122 122 122
-0.06658506 -0.01243788 0.30530199 40 40 40
-0.08450712 -0.02260952 0.31057996 149 149 149
-0.08221330 -0.01880010 0.30349842 145 145 145
-0.06637402 -0.01183626 0.30465311 48 48 48
-0.07371827 -0.02773871 0.31620079 156 156 156
-0.06633441 -0.01158292 0.30431753 43 43 43
-0.03782348 -0.01431481 0.30936411 88 88 88
-0.07403665 -0.02820859 0.31680021 162 162 162
-0.08387170 -0.02170889 0.30899629 136 136 136
-0.04651408 -0.01716452 0.31172672 33 33 33
-0.06595640 -0.01067105 0.30335113 38 38 38
-0.07355580 -0.02709465 0.31536549 107 107 107
-0.04615302 -0.03502016 0.32028094 147 147 147
-0.03659543 -0.01180669 0.30666041 255 255 255
-0.08488241 -0.02369730 0.31185344 155 155 155
-0.08252522 -0.01948241 0.30542019 147 147 147
-0.07412136 -0.02798093 0.31651455 162 162 162
-0.04650614 -0.03557263 0.32083282 160 160 160
-0.06594255 -0.01029947 0.30295992 56 56 56
-0.04659119 -0.01750792 0.31208616 55 55 55
-0.08405208 -0.02229194 0.31022564 157 157 157
-0.08180260 -0.01856196 0.30308521 110 110 110
-0.04625828 -0.03488468 0.32011965 144 144 144
-0.07786297 -0.02068050 0.30584338 132 132 132
-0.07352333 -0.02650209 0.31420434 163 163 163
-0.08521929 -0.02469186 0.31311750 143 143 143
-0.08288507 -0.02056607 0.30663636 141 141 141
-0.03719891 -0.01245800 0.30727044 188 188 188
-0.04892197 -0.02223376 0.31700167 130 130 130
-0.03738390 -0.01279246 0.30767035 88 88 88
-0.06626500 -0.01024390 0.30287093 37 37 37
-0.07483234 -0.02846416 0.31709945 154 154 154
-0.08443633 -0.02333882 0.31144753 152 152 152
-0.08206850 -0.01922914 0.30495733 118 118 118
-0.04821709 -0.03317479 0.33002734 124 124 124
-0.06777203 -0.01297713 0.30581838 24 24 24
-0.07494086 -0.02667866 0.32137996 132 132 132
-0.06680171 -0.01089051 0.30355424 60 60 60
-0.08514383 -0.02488941 0.31341180 137 137 137
-0.08284873 -0.02082407 0.30691785 144 144 144
-0.03734482 -0.01241189 0.30722615 118 118 118
-0.05206225 -0.03110082 0.31982839 130 130 130
-0.06719185 -0.01152362 0.30424032 45 45 45
-0.07439897 -0.02710518 0.31545076 155 155 155
-0.04368952 -0.02754320 0.31630906 140 140 140
-0.08426885 -0.02339393 0.31149068 152 152 152
-0.08191866 -0.01926658 0.30499282 124 124 124
-0.06778331 -0.01241838 0.30518588 42 42 42
-0.06724180 -0.01123822 0.30389890 56 56 56
-0.04552996 -0.03082405 0.32000142 127 127 127
-0.08323192 -0.02179597 0.30872107 135 135 135
-0.06700708 -0.01065611 0.30331182 32 32 32
-0.07496697 -0.02771472 0.31622484 160 160 160
-0.04540813 -0.01571997 0.31022871 50 50 50
-0.04697189 -0.03526611 0.32051229 159 159 159
-0.08482256 -0.02481801 0.31319863 151 151 151
-0.08247556 -0.02067129 0.30673140 137 137 137
-0.07949915 -0.01548367 0.29837781 121 121 121
-0.07419033 -0.02598575 0.31373510 159 159 159
-0.06713849 -0.01039920 0.30302557 32 32 32
-0.08312058 -0.02190356 0.30898720 128 128 128
-0.06779375 -0.01164320 0.30432588 39 39 39
-0.07530441 -0.02780478 0.31636199 162 162 162
-0.03846686 -0.01384873 0.30877107 102 102 102
-0.04562273 -0.01626867 0.31081659 46 46 46
-0.07569613 -0.02659003 0.32130632 83 83 83
-0.08358741 -0.02280548 0.31079680 148 148 148
-0.08139703 -0.01917323 0.30398956 114 114 114
-0.06728058 -0.01031766 0.30291471 48 48 48
-0.07487461 -0.02662014 0.31485838 102 102 102
-0.08358067 -0.02297118 0.31099734 146 146 146
-0.08134449 -0.01918904 0.30420476 109 109 109
-0.04658767 -0.03404073 0.31909725 156 156 156
-0.07483094 -0.02641141 0.31459260 152 152 152
-0.05217669 -0.03189223 0.32046777 131 131 131
-0.03856485 -0.01364262 0.30856523 88 88 88
-0.07406370 -0.02490054 0.31234807 107 107 107
-0.08441038 -0.02473138 0.31310838 147 147 147
-0.08209413 -0.02067137 0.30659035 128 128 128
-0.07958463 -0.01633361 0.29937038 142 142 142
-0.04760213 -0.03575341 0.32097483 155 155 155
-0.06826617 -0.01170294 0.30441996 45 45 45
-0.07467859 -0.02582508 0.31372815 163 163 163
-0.08442568 -0.02492031 0.31330016 147 147 147
-0.08207072 -0.02078909 0.30681983 131 131 131
-0.07946039 -0.01628957 0.29924580 142 142 142
-0.06822634 -0.01145786 0.30409142 61 61 61
-0.07493921 -0.02610207 0.31421459 156 156 156
-0.03795792 -0.01219146 0.30693787 83 83 83
-0.06850850 -0.01177927 0.30445039 43 43 43
-0.08283208 -0.02215406 0.30961680 134 134 134
-0.07458386 -0.02531496 0.31298855 145 145 145
-0.04437022 -0.02745955 0.31620812 167 167 167
-0.04407693 -0.01365117 0.30813375 97 97 97
-0.06893287 -0.01246321 0.30521464 22 22 22
-0.07505280 -0.02597109 0.31407696 157 157 157
-0.08327446 -0.02304734 0.31106833 148 148 148
-0.08053049 -0.01850348 0.30260858 124 124 124
-0.06890921 -0.01220916 0.30497885 29 29 29
-0.05181598 -0.03158075 0.32010972 133 133 133
-0.08434926 -0.02531240 0.31377867 163 163 163
-0.08200883 -0.02121138 0.30730817 132 132 132
-0.07936789 -0.01664167 0.29967940 137 137 137
-0.07637537 -0.02636118 0.32103071 136 136 136
-0.04336064 -0.01239238 0.30678189 89 89 89
-0.07453357 -0.02455506 0.31207108 151 151 151
-0.08425805 -0.02398044 0.31803048 99 99 99
-0.08230013 -0.02186795 0.30837104 131 131 131
-0.07954186 -0.01713124 0.30041897 132 132 132
-0.07517969 -0.02553277 0.31350246 170 170 170
-0.03830202 -0.01234255 0.30709377 50 50 50
-0.07564186 -0.02620768 0.31437957 104 104 104
-0.08246773 -0.02220988 0.30961660 106 106 106
-0.07969570 -0.01755260 0.30111474 121 121 121
-0.04475829 -0.01532562 0.30984914 67 67 67
-0.07489064 -0.02467895 0.31234726 152 152 152
-0.07609192 -0.02685511 0.31521964 157 157 157
-0.08240800 -0.02225009 0.30972093 107 107 107
-0.07963912 -0.01763314 0.30119118 124 124 124
-0.07513881 -0.02494487 0.31277722 157 157 157
-0.05206924 -0.03248292 0.32088426 127 127 127
-0.04531652 -0.01657340 0.31116140 71 71 71
-0.08328062 -0.02395899 0.31213054 149 149 149
-0.07676803 -0.02616583 0.32078594 135 135 135
-0.07506573 -0.02445317 0.31212902 164 164 164
-0.08304551 -0.02367732 0.31179085 148 148 148
-0.08032996 -0.01921312 0.30341449 100 100 100
-0.05129297 -0.03114460 0.31953979 132 132 132
-0.04813703 -0.02222769 0.31703943 114 114 114
-0.04395757 -0.01411146 0.30860850 100 100 100
-0.08340737 -0.02456010 0.31289572 163 163 163
-0.06987726 -0.01238360 0.30497104 21 21 21
-0.07525824 -0.02449076 0.31221077 148 148 148
-0.07421444 -0.02254971 0.30913118 106 106 106
-0.07712477 -0.02610127 0.32069385 137 137 137
-0.08372345 -0.02400703 0.31810984 126 126 126
-0.08179057 -0.02195525 0.30832571 134 134 134
-0.07892445 -0.01697823 0.30014932 134 134 134
-0.06900349 -0.01036953 0.30284932 35 35 35
-0.07633144 -0.02615457 0.31435531 144 144 144
-0.06930882 -0.01070900 0.30320778 33 33 33
-0.07577846 -0.02490658 0.31286234 107 107 107
-0.08200743 -0.02231285 0.30966115 105 105 105
-0.07907195 -0.01750593 0.30088705 124 124 124
-0.07646074 -0.02599147 0.31412664 144 144 144
-0.05210467 -0.03308434 0.32149273 132 132 132
-0.08241913 -0.02320602 0.31122762 145 145 145
-0.07959963 -0.01859883 0.30236080 134 134 134
-0.07472114 -0.02280637 0.30932420 132 132 132
-0.04352583 -0.01360704 0.30810976 153 153 153
-0.04749724 -0.03384677 0.31895706 145 145 145
-0.03850508 -0.01172539 0.30646595 121 121 121
-0.08293368 -0.02436376 0.31260288 151 151 151
-0.07981829 -0.01914662 0.30324596 111 111 111
-0.07514416 -0.02329106 0.30995709 109 109 109
-0.04543185 -0.01740637 0.31219101 50 50 50
-0.08350029 -0.02423286 0.31834197 130 130 130
-0.08147418 -0.02208030 0.30856058 107 107 107
-0.07728814 -0.02686663 0.31531796 162 162 162
-0.04054652 -0.01545439 0.31039232 59 59 59
-0.07742882 -0.02696053 0.31544748 154 154 154
-0.08185086 -0.02267774 0.31045422 152 152 152
-0.07917497 -0.01829218 0.30189645 122 122 122
-0.07002331 -0.01091381 0.30341196 49 49 49
-0.04432386 -0.01550100 0.31011662 51 51 51
-0.03975385 -0.01386203 0.30862501 173 173 173
-0.08187695 -0.02287334 0.31081411 150 150 150
-0.07929365 -0.01872267 0.30249584 118 118 118
-0.07682784 -0.02553759 0.31364158 147 147 147
-0.07010078 -0.01068726 0.30311945 33 33 33
-0.07715469 -0.02592890 0.31410906 150 150 150
-0.08335106 -0.02587193 0.31440637 144 144 144
-0.04454322 -0.01606683 0.31068349 64 64 64
-0.04314308 -0.01338769 0.30787292 81 81 81
-0.07526243 -0.02248924 0.30889848 137 137 137
-0.07515706 -0.02211626 0.30845615 140 140 140
-0.07541007 -0.02259733 0.30906665 146 146 146
-0.05047928 -0.03068243 0.31897044 138 138 138
-0.04457922 -0.01634634 0.31097382 45 45 45
-0.04381758 -0.01482089 0.30941567 92 92 92
-0.03947962 -0.01289619 0.30767608 52 52 52
-0.04303273 -0.01333743 0.30784622 86 86 86
-0.08149467 -0.02272904 0.31037301 138 138 138
-0.07734770 -0.02560152 0.31373107 149 149 149
-0.07524488 -0.02179679 0.30801135 146 146 146
-0.04450958 -0.01637909 0.31101054 41 41 41
-0.07776783 -0.02624114 0.31453335 155 155 155
-0.08269554 -0.02512465 0.31352919 152 152 152
-0.07062507 -0.01070440 0.30311528 34 34 34
-0.07856294 -0.02753369 0.31613967 148 148 148
-0.07076734 -0.01077774 0.30320656 47 47 47
-0.07756060 -0.02553031 0.31366736 148 148 148
-0.07776421 -0.02591612 0.31414381 154 154 154
-0.04427377 -0.01604197 0.31068125 51 51 51
-0.07134034 -0.01164904 0.30415314 27 27 27
-0.07854506 -0.02718169 0.31575683 162 162 162
-0.04793350 -0.03344654 0.31853351 157 157 157
-0.08229966 -0.02472500 0.31302565 150 150 150
-0.07874860 -0.02738330 0.31597507 150 150 150
-0.04316556 -0.01415466 0.30870822 81 81 81
-0.07102962 -0.01077843 0.30320725 32 32 32
-0.08123659 -0.02292452 0.31064937 135 135 135
-0.04047284 -0.01414708 0.30893460 85 85 85
-0.07121985 -0.01079803 0.30322587 33 33 33
-0.08191724 -0.02436351 0.31252572 146 146 146
-0.07102079 -0.01034429 0.30256966 45 45 45
-0.04312945 -0.01437997 0.30896071 85 85 85
-0.03894629 -0.01096659 0.30567583 226 226 226
-0.08199912 -0.02465532 0.31290349 155 155 155
-0.04058171 -0.01420243 0.30896086 89 89 89
-0.07868657 -0.02641240 0.31479570 153 153 153
-0.05168642 -0.03376574 0.32285413 136 136 136
-0.07111553 -0.01007250 0.30241123 29 29 29
-0.07759297 -0.02425040 0.31196466 128 128 128
-0.08208054 -0.02504989 0.31341082 158 158 158
-0.07864285 -0.02598892 0.31427824 147 147 147
-0.04286897 -0.01423417 0.30883655 49 49 49
-0.07153299 -0.01052323 0.30295557 27 27 27
-0.04063391 -0.01412974 0.30888745 75 75 75
-0.07885045 -0.02619902 0.31456175 150 150 150
-0.08155981 -0.02420135 0.31233412 141 141 141
-0.07872546 -0.01927983 0.30433199 101 101 101
-0.07780487 -0.02416421 0.31165302 127 127 127
-0.04355710 -0.01572634 0.31036490 107 107 107
-0.08110131 -0.02349512 0.31153154 144 144 144
-0.07921938 -0.02654123 0.31500962 165 165 165
-0.07853589 -0.02507110 0.31318760 146 146 146
-0.04259011 -0.01401058 0.30860284 54 54 54
-0.08222234 -0.02461479 0.31878874 98 98 98
-0.04361870 -0.01620013 0.31093842 69 69 69
-0.07890768 -0.02529834 0.31347704 151 151 151
-0.05139158 -0.03400406 0.33085942 110 110 110
-0.08193620 -0.02562219 0.31409970 160 160 160
-0.07964790 -0.02170467 0.30752808 148 148 148
-0.04193636 -0.01311990 0.30770364 125 125 125
-0.07942647 -0.02609917 0.31448591 165 165 165
-0.04135561 -0.01506507 0.30982596 94 94 94
-0.07893587 -0.02500218 0.31314632 139 139 139
-0.08107448 -0.02414882 0.31225669 148 148 148
-0.04307504 -0.01543101 0.31014577 129 129 129
-0.07213272 -0.01017716 0.30246833 29 29 29
-0.04072176 -0.01364155 0.30837685 53 53 53
-0.04326635 -0.01601576 0.31079152 63 63 63
-0.04845653 -0.03308905 0.31808311 155 155 155
-0.07239139 -0.01026959 0.30259052 38 38 38
-0.08024780 -0.02309493 0.31027681 154 154 154
-0.07920321 -0.02495458 0.31309435 145 145 145
-0.04126244 -0.01446954 0.30921108 100 100 100
-0.08038457 -0.02679787 0.31538928 154 154 154
-0.04262231 -0.01510240 0.30973479 43 43 43
-0.04161449 -0.01302154 0.30769283 177 177 177
-0.07706773 -0.02074404 0.30656716 98 98 98
-0.08000989 -0.02301852 0.31003520 114 114 114
-0.07958759 -0.02514263 0.31331408 148 148 148
-0.07250495 -0.00986857 0.30199230 39 39 39
-0.07962967 -0.02507556 0.31325096 146 146 146
-0.04186260 -0.01379985 0.30838618 51 51 51
-0.08028062 -0.02352427 0.31144333 157 157 157
-0.07796752 -0.01964538 0.30470675 110 110 110
-0.07914667 -0.02400201 0.31189758 143 143 143
-0.04199166 -0.01554802 0.31037492 82 82 82
-0.07953268 -0.02455852 0.31268245 137 137 137
-0.08107548 -0.02521847 0.31349641 151 151 151
-0.07879511 -0.02133451 0.30688840 150 150 150
-0.07338357 -0.00891842 0.30064997 141 141 141
-0.07934479 -0.02400297 0.31201068 165 165 165
-0.08168270 -0.02652453 0.31515425 149 149 149
-0.07918809 -0.02203516 0.30889460 88 88 88
-0.04126300 -0.01299340 0.30767018 165 165 165
-0.08037119 -0.02577583 0.31413451 151 151 151
-0.07966750 -0.02428168 0.31239501 142 142 142
-0.07973520 -0.02320780 0.31022501 157 157 157
-0.08068489 -0.02618755 0.31468183 155 155 155
-0.04105445 -0.01338812 0.30806369 58 58 58
-0.08034720 -0.02535962 0.31361726 154 154 154
-0.07986014 -0.02350999 0.31104904 131 131 131
-0.07976304 -0.02409047 0.31218749 148 148 148
-0.04182671 -0.01437408 0.30907992 95 95 95
-0.07973250 -0.02348829 0.31082922 132 132 132
-0.07766822 -0.02051366 0.30563393 128 128 128
-0.04258285 -0.01600781 0.31092313 67 67 67
-0.03818587 -0.03050302 0.32736263 102 102 102
-0.06290010 -0.01573931 0.30903247 60 60 60
-0.06303974 -0.01568411 0.30897495 70 70 70
-0.03947390 -0.03076784 0.32768324 123 123 123
-0.06311329 -0.01549446 0.30877134 24 24 24
-0.04218986 -0.03191127 0.32872915 102 102 102
-0.06944613 -0.02146482 0.30900520 131 131 131
-0.04310533 -0.03216839 0.32898647 103 103 103
-0.06396383 -0.01526895 0.30848396 34 34 34
-0.04152676 -0.03137956 0.32830605 126 126 126
-0.06209935 -0.01625158 0.30968598 36 36 36
-0.06186409 -0.01621014 0.30962348 32 32 32
-0.06431573 -0.01502055 0.30821246 67 67 67
-0.07646710 -0.02302519 0.30969343 98 98 98
-0.06436880 -0.01477632 0.30793521 23 23 23
-0.06096228 -0.01632605 0.30983314 26 26 26
-0.06555019 -0.01469191 0.30784884 141 141 141
-0.06107000 -0.01663238 0.31016994 44 44 44
-0.06046217 -0.01658970 0.31011206 31 31 31
-0.04491130 -0.03249267 0.32940960 118 118 118
-0.04353387 -0.03185262 0.32874027 120 120 120
-0.06047422 -0.01685781 0.31042984 52 52 52
-0.06042946 -0.01691865 0.31049845 52 52 52
-0.06628138 -0.01388943 0.30680954 23 23 23
-0.04602823 -0.03283953 0.32975429 111 111 111
-0.05501978 -0.01461049 0.30812958 32 32 32
-0.05371758 -0.01398807 0.30771038 85 85 85
-0.04767336 -0.03358763 0.33026662 93 93 93
-0.04528817 -0.03242298 0.32929760 117 117 117
-0.05319686 -0.01395468 0.30770099 105 105 105
-0.05435241 -0.01472472 0.30801493 44 44 44
-0.05408531 -0.01474279 0.30792874 60 60 60
-0.04628904 -0.03277239 0.32966617 127 127 127
-0.05365070 -0.01473262 0.30789730 74 74 74
-0.04691603 -0.03296420 0.32984170 122 122 122
-0.05959530 -0.01747987 0.31111524 38 38 38
-0.06816485 -0.01338397 0.30617654 30 30 30
-0.04638807 -0.03268797 0.32953876 131 131 131
-0.05224579 -0.01412499 0.30793643 104 104 104
-0.05233881 -0.01434510 0.30790493 84 84 84
-0.06820693 -0.01321349 0.30602902 27 27 27
-0.07949559 -0.02098886 0.30676553 71 71 71
-0.07752301 -0.02010527 0.30523172 119 119 119
-0.05441592 -0.01563294 0.30912241 83 83 83
-0.04909774 -0.03369272 0.33059740 114 114 114
-0.06852489 -0.01280459 0.30559117 21 21 21
-0.04828513 -0.03323712 0.33009425 110 110 110
-0.07786484 -0.01946971 0.30464813 110 110 110
-0.07793358 -0.01943307 0.30459490 110 110 110
-0.06939945 -0.01253293 0.30519855 27 27 27
-0.04894483 -0.03339470 0.33024746 117 117 117
-0.05213853 -0.03474484 0.33150369 105 105 105
-0.06971072 -0.01234707 0.30489650 21 21 21
-0.05053202 -0.01478844 0.30856505 185 185 185
-0.07038974 -0.02635941 0.31395358 93 93 93
-0.05184557 -0.03443012 0.33134374 122 122 122
-0.05031534 -0.01477441 0.30867466 104 104 104
-0.06989838 -0.02626379 0.31379604 105 105 105
-0.05157712 -0.03424409 0.33115292 125 125 125
-0.04995589 -0.01487548 0.30905199 23 23 23
-0.07109769 -0.01214212 0.30448449 51 51 51
-0.05419671 -0.03548568 0.33180991 101 101 101
-0.07147295 -0.01205527 0.30437967 23 23 23
-0.05482644 -0.01779197 0.31127599 85 85 85
-0.05172341 -0.03413600 0.33098838 118 118 118
-0.07100751 -0.01139300 0.30400780 21 21 21
-0.05122214 -0.01623299 0.31002507 82 82 82
-0.08035765 -0.01841351 0.30246356 109 109 109
-0.05336368 -0.03471443 0.33156061 128 128 128
-0.04933155 -0.01555801 0.30979827 26 26 26
-0.08086518 -0.01833601 0.30269194 69 69 69
-0.05394613 -0.01810925 0.31158629 31 31 31
-0.05401381 -0.03487199 0.33170182 130 130 130
-0.05395630 -0.01831935 0.31200659 63 63 63
-0.05336877 -0.01822155 0.31174546 34 34 34
-0.05311624 -0.01819816 0.31170097 92 92 92
-0.07880802 -0.01685252 0.29995149 122 122 122
-0.05358727 -0.03457248 0.33139086 112 112 112
-0.07248105 -0.01042777 0.30279180 36 36 36
-0.05212239 -0.01814679 0.31175390 77 77 77
-0.03759861 -0.02761409 0.32409668 124 124 124
-0.05209698 -0.01826972 0.31185648 59 59 59
-0.05207968 -0.01834222 0.31188756 28 28 28
-0.04959533 -0.01721050 0.31099805 23 23 23
-0.05936981 -0.02155529 0.31583491 108 108 108
-0.07977966 -0.01609872 0.29916549 116 116 116
-0.08974720 -0.01768837 0.31060290 120 120 120
-0.05913759 -0.02164900 0.31594321 125 125 125
-0.08953647 -0.01747130 0.31029114 117 117 117
-0.08997629 -0.01738072 0.31024280 93 93 93
-0.05834757 -0.02155958 0.31586534 113 113 113
-0.09001762 -0.01726292 0.31009662 95 95 95
-0.05287090 -0.01926610 0.31319168 49 49 49
-0.05800955 -0.02151812 0.31583345 101 101 101
-0.07875071 -0.01462496 0.29735017 104 104 104
-0.08241165 -0.01596297 0.29991502 104 104 104
-0.05222009 -0.01913510 0.31336850 201 201 201
-0.05171100 -0.01885028 0.31292963 77 77 77
-0.07372407 -0.00874827 0.30073896 18 18 18
-0.07866912 -0.01399930 0.29705229 108 108 108
-0.05484996 -0.03449090 0.33124864 113 113 113
-0.06329169 -0.03278461 0.32891068 122 122 122
-0.05073174 -0.01920065 0.31333196 255 255 255
-0.05665581 -0.02187352 0.31627706 124 124 124
-0.09006331 -0.01566903 0.30819234 101 101 101
-0.05634031 -0.02177778 0.31617725 112 112 112
-0.04409272 -0.02724433 0.31595832 150 150 150
-0.05055410 -0.01932061 0.31381455 255 255 255
-0.08783866 -0.01590322 0.30284995 139 139 139
-0.08779515 -0.01577624 0.30270219 143 143 143
-0.08821506 -0.01588025 0.30284956 132 132 132
-0.08858132 -0.01595846 0.30296779 153 153 153
-0.05765464 -0.02518687 0.31391898 135 135 135
-0.08179963 -0.01349468 0.29720742 133 133 133
-0.09073733 -0.01489889 0.30731744 83 83 83
-0.06310322 -0.02864331 0.31607464 119 119 119
-0.08860041 -0.01542068 0.30234015 151 151 151
-0.08739791 -0.01480695 0.30154812 141 141 141
-0.09062593 -0.01458725 0.30694658 151 151 151
-0.04705207 -0.01879270 0.31344536 31 31 31
-0.05736704 -0.03426927 0.33086908 127 127 127
-0.09088592 -0.01440850 0.30675972 83 83 83
-0.04584397 -0.03392408 0.31901553 151 151 151
-0.04607169 -0.03394247 0.31901255 164 164 164
-0.05743608 -0.03409482 0.33067453 87 87 87
-0.05597189 -0.02551720 0.31405655 120 120 120
-0.04223422 -0.01807652 0.30986121 59 59 59
-0.04650721 -0.03401268 0.31907102 159 159 159
-0.05770719 -0.03409880 0.33065721 103 103 103
-0.08716331 -0.01379043 0.30034351 129 129 129
-0.08849648 -0.01432058 0.30106515 129 129 129
-0.04622119 -0.03366403 0.31878006 162 162 162
-0.04539239 -0.01988417 0.31159511 76 76 76
-0.08780868 -0.01384818 0.30049571 131 131 131
-0.09067927 -0.01348941 0.30566990 143 143 143
-0.08825341 -0.01392055 0.30061126 133 133 133
-0.04292500 -0.01876874 0.31068963 101 101 101
-0.09083979 -0.01342460 0.30558884 115 115 115
-0.09099226 -0.01341844 0.30559981 116 116 116
-0.04446228 -0.01974144 0.31146884 125 125 125
-0.05224941 -0.02219254 0.31680247 118 118 118
-0.04502919 -0.02011401 0.31175035 127 127 127
-0.08769441 -0.01332617 0.29987970 133 133 133
-0.05215861 -0.02229605 0.31687742 122 122 122
-0.08772194 -0.01317976 0.29974234 132 132 132
-0.08640914 -0.01254411 0.29881805 123 123 123
-0.08708477 -0.01274267 0.29917914 128 128 128
-0.08743954 -0.01284315 0.29930750 130 130 130
-0.08625730 -0.01225934 0.29846367 124 124 124
-0.08722863 -0.01260043 0.29901397 128 128 128
-0.08641512 -0.01217333 0.29841894 125 125 125
-0.08645992 -0.01211700 0.29837549 127 127 127
-0.05318858 -0.02552343 0.31429675 136 136 136
-0.05067649 -0.02210766 0.31676877 137 137 137
-0.05316389 -0.02560591 0.31429201 139 139 139
-0.09099019 -0.01238641 0.30439258 143 143 143
-0.04703862 -0.03344691 0.31845903 163 163 163
-0.08833446 -0.01262441 0.29914510 131 131 131
-0.08578160 -0.01146495 0.29731542 123 123 123
-0.09105238 -0.01214213 0.30410793 114 114 114
-0.08582158 -0.01131103 0.29720515 122 122 122
-0.05943490 -0.03398486 0.33042985 114 114 114
-0.05034618 -0.02233792 0.31704932 119 119 119
-0.08902188 -0.01254468 0.29913610 142 142 142
-0.05901593 -0.03373562 0.33020589 83 83 83
-0.08887244 -0.01235656 0.29887316 128 128 128
-0.06977010 -0.03092699 0.32655093 118 118 118
-0.08890011 -0.01221364 0.29874995 131 131 131
-0.08588632 -0.01080883 0.29673696 120 120 120
-0.06253503 -0.03072029 0.31866145 131 131 131
-0.08702784 -0.01120690 0.29745731 132 132 132
-0.06202547 -0.03061125 0.31848726 99 99 99
-0.08830742 -0.01173260 0.29814342 133 133 133
-0.08811191 -0.01156018 0.29793525 133 133 133
-0.06343193 -0.03273252 0.32884267 123 123 123
-0.08703095 -0.01091230 0.29714468 130 130 130
-0.06946150 -0.03111956 0.32674211 115 115 115
-0.08880508 -0.01166158 0.29812860 128 128 128
-0.08706300 -0.01078741 0.29700202 129 129 129
-0.08916217 -0.01175934 0.29826617 123 123 123
-0.08734287 -0.01076278 0.29701817 131 131 131
-0.04867963 -0.02226042 0.31705126 115 115 115
-0.08856654 -0.01127596 0.29764321 132 132 132
-0.05134086 -0.02610076 0.31449893 123 123 123
-0.08660298 -0.01013613 0.29624313 127 127 127
-0.04834686 -0.02229173 0.31710482 110 110 110
-0.06012342 -0.03364667 0.33002549 122 122 122
-0.09105410 -0.01053143 0.30223799 112 112 112
-0.06862076 -0.03117132 0.32687652 127 127 127
-0.08748942 -0.01032432 0.29653880 134 134 134
-0.04818644 -0.02235000 0.31719509 118 118 118
-0.06834820 -0.03110769 0.32681018 124 124 124
-0.08732112 -0.01002666 0.29620105 135 135 135
-0.05062295 -0.02608021 0.31451178 123 123 123
-0.08905079 -0.01072763 0.29714119 146 146 146
-0.05055188 -0.02616802 0.31454635 123 123 123
-0.08777372 -0.01002084 0.29622498 133 133 133
-0.09107032 -0.01004473 0.30168039 116 116 116
-0.06025651 -0.03341032 0.32976076 135 135 135
-0.08870865 -0.01017252 0.29643968 126 126 126
-0.04977259 -0.02604491 0.31459469 122 122 122
-0.09116399 -0.00952093 0.30109397 82 82 82
-0.06021369 -0.03327146 0.32959437 93 93 93
-0.04676094 -0.02238799 0.31729713 135 135 135
-0.04812070 -0.03252596 0.31752616 158 158 158
-0.06104564 -0.03361673 0.32983270 115 115 115
-0.09099211 -0.00886983 0.30033171 113 113 113
-0.04598694 -0.02241194 0.31738442 117 117 117
-0.09134622 -0.00869172 0.30013570 84 84 84
-0.06703966 -0.03161192 0.32744369 131 131 131
-0.09100569 -0.00832952 0.29969871 91 91 91
-0.04811519 -0.02593842 0.31492516 155 155 155
-0.04546682 -0.02244103 0.31743515 108 108 108
-0.04875346 -0.03231875 0.31739548 153 153 153
-0.06667336 -0.03169608 0.32754624 130 130 130
-0.09115603 -0.00790439 0.29922712 83 83 83
-0.04804806 -0.03048742 0.31872112 130 130 130
-0.04749544 -0.02644219 0.31489199 162 162 162
-0.06609636 -0.03182887 0.32771486 134 134 134
-0.06186518 -0.03325205 0.32946143 122 122 122
-0.04665612 -0.02616074 0.31482232 149 149 149
-0.06615988 -0.03203331 0.32792756 122 122 122
-0.04816737 -0.03026771 0.31868497 127 127 127
-0.04727178 -0.02666936 0.31516594 164 164 164
-0.06534716 -0.03181847 0.32772952 133 133 133
-0.05181259 -0.03175258 0.32015803 123 123 123
-0.04639557 -0.02650817 0.31498608 168 168 168
-0.06216165 -0.03312583 0.32931656 129 129 129
-0.04548343 -0.02610098 0.31475791 144 144 144
-0.06237736 -0.03309563 0.32926008 123 123 123
-0.06483164 -0.03204014 0.32800835 134 134 134
-0.04955026 -0.03054719 0.31877789 129 129 129
-0.06413330 -0.03221061 0.32822210 136 136 136
-0.05081626 -0.03095296 0.31920049 124 124 124
-0.04939841 -0.03007489 0.31862345 149 149 149
-0.06364848 -0.03243774 0.32851058 111 111 111
-0.07086295 -0.03112131 0.32599276 114 114 114
-0.04670194 -0.03238429 0.31799984 139 139 139
-0.07905322 -0.02853206 0.32300103 102 102 102
-0.07917482 -0.02846884 0.32297745 105 105 105
-0.04745145 -0.03173398 0.31800693 131 131 131
-0.04757426 -0.03154298 0.31805807 128 128 128
-0.08246104 -0.01568995 0.29967377 77 77 77
-0.07822938 -0.01524639 0.29827926 112 112 112
-0.06874136 -0.01344735 0.30594283 248 248 248
-0.04803795 -0.03099979 0.31845430 127 127 127
-0.08229801 -0.01603170 0.29994506 85 85 85
-0.04765969 -0.03082683 0.31876770 123 123 123
-0.06680873 -0.01480571 0.30708608 73 73 73
-0.06938282 -0.01314979 0.30548814 138 138 138
-0.04986546 -0.03051522 0.31882283 131 131 131
-0.04766288 -0.03058531 0.31877720 134 134 134
-0.06999569 -0.01302797 0.30532721 240 240 240
-0.06638716 -0.01505245 0.30733538 57 57 57
-0.07054196 -0.03130112 0.32605481 110 110 110
-0.06956265 -0.01265610 0.30529255 31 31 31
-0.06327626 -0.02857157 0.31608069 125 125 125
-0.07844316 -0.01685577 0.30035079 106 106 106
-0.05435066 -0.04491630 0.32459301 110 110 110
-0.06397464 -0.01538777 0.30856800 48 48 48
-0.07184691 -0.01220275 0.30420902 255 255 255
-0.07168469 -0.03065514 0.32585299 114 114 114
-0.06831811 -0.03138393 0.32711753 118 118 118
-0.05434027 -0.04381794 0.32559258 119 119 119
-0.06012725 -0.03395313 0.33019301 117 117 117
-0.07094466 -0.03066375 0.32617351 112 112 112
-0.07894447 -0.01317967 0.29630756 109 109 109
-0.05476911 -0.04233239 0.32667515 114 114 114
-0.06971643 -0.03178740 0.32615635 113 113 113
-0.07137156 -0.02637261 0.31405291 98 98 98
-0.07897119 -0.01295890 0.29609114 109 109 109
-0.09012134 -0.03224207 0.28555727 122 122 122
-0.05481638 -0.04162757 0.32725984 120 120 120
-0.06913917 -0.03179450 0.32652637 112 112 112
-0.04488255 -0.02620227 0.31483454 144 144 144
-0.07322506 -0.01143657 0.30333984 43 43 43
-0.05127666 -0.02584485 0.31443688 122 122 122
-0.04969392 -0.02578345 0.31459028 143 143 143
-0.04466347 -0.02582029 0.31506306 149 149 149
-0.05435757 -0.02560486 0.31419852 138 138 138
-0.07291012 -0.01126156 0.30338365 32 32 32
-0.04495255 -0.02570825 0.31506750 152 152 152
-0.05587289 -0.02547469 0.31407812 139 139 139
-0.05479945 -0.04071969 0.32802102 123 123 123
-0.05287527 -0.02546116 0.31432912 137 137 137
-0.05627466 -0.02538092 0.31404445 139 139 139
-0.04611235 -0.02549902 0.31505233 137 137 137
-0.05482982 -0.02534178 0.31421664 134 134 134
-0.05817168 -0.02526296 0.31381050 140 140 140
-0.07324628 -0.01081825 0.30279487 22 22 22
-0.04641047 -0.02538387 0.31511220 138 138 138
-0.07324535 -0.01071507 0.30274671 21 21 21
-0.06866878 -0.03207664 0.32657722 113 113 113
-0.04645361 -0.02527413 0.31519717 138 138 138
-0.05194976 -0.02520177 0.31453979 130 130 130
-0.05793744 -0.02508861 0.31390414 138 138 138
-0.04425195 -0.02524222 0.31544635 146 146 146
-0.04956545 -0.02514838 0.31485963 128 128 128
-0.05782002 -0.02498198 0.31398529 133 133 133
-0.04308600 -0.02497908 0.31624252 152 152 152
-0.05509979 -0.03920346 0.32909653 130 130 130
-0.05089090 -0.02499166 0.31488985 125 125 125
-0.04808291 -0.02494085 0.31526205 130 130 130
-0.06553308 -0.03210408 0.32806399 123 123 123
-0.06055824 -0.01750431 0.31070682 143 143 143
-0.04309055 -0.02477854 0.31638479 148 148 148
-0.04746081 -0.02482994 0.31543112 131 131 131
-0.05573719 -0.02470717 0.31450588 125 125 125
-0.05520451 -0.03867266 0.32946914 123 123 123
-0.04676311 -0.02472204 0.31563413 130 130 130
-0.05969254 -0.01764546 0.31108472 43 43 43
-0.05627484 -0.02458186 0.31455609 126 126 126
