-0.05801209641 -0.02031357956 0.29234793091 44 44 44
-0.06903604126 -0.01790930367 0.27130270386 106 106 106
-0.06214845657 -0.01035735703 0.26648767090000003 89 89 89
-0.04821295929 0.00113188303 0.2641428833 97 97 97
-0.08505478668000001 -0.012102873799999999 0.27668960571 64 64 64
-0.08869374847 -0.0173938961 0.28153665160999997 56 56 56
-0.08220630645999999 -0.04013031769 0.29624749756 125 125 125
-0.05923086929 -0.02246635628 0.29508026123000003 41 41 41
-0.05439872742 -0.01575260067 0.28885699463 44 44 44
-0.06387036514 -0.01172467613 0.26688531494 117 117 117
-0.0485448761 -5.046900000000001e-07 0.26620758057 57 57 57
-0.08778709412 -0.02913331604 0.30810061646000003 52 52 52
-0.09040995026 -0.03050338936 0.28396908569 123 123 123
-0.06808558655000001 -0.0402988739 0.31759814453 106 106 106
-0.08644689178000001 -0.01396213722 0.27775247192 64 64 64
-0.05610321426 -0.017693229680000002 0.29032073974999995 47 47 47
-0.06882988739 -0.01567950153 0.26756878662 88 88 88
-0.05022605515 -0.0021952373999999998 0.26825146484 56 56 56
-0.08919677733999999 -0.01821236992 0.28212246704 49 49 49
-0.08637434387000001 -0.027099603649999998 0.30590942382999997 52 52 52
-0.07015686035 0.00274487996 0.27042486572 94 94 94
-0.05939034271 -0.02485894394 0.30000946045 49 49 49
-0.056391349789999996 -0.01773962593 0.29037454224 50 50 50
-0.06914183044000001 -0.01581789589 0.26762435913 94 94 94
-0.05025623322 -0.0020821929 0.26828817749 53 53 53
-0.08373313904 -0.011056438449999999 0.27620434569999996 56 56 56
-0.0880059433 -0.01648772049 0.28037445068 64 64 64
-0.09037377166999999 -0.02240255737 0.28882302856000003 53 53 53
-0.059593479160000004 -0.02488165855 0.30011145019999996 47 47 47
-0.05680773544 -0.01815711975 0.29073464966 48 48 48
-0.06954547882 -0.01622977066 0.2681184082 87 87 87
-0.05446397781 -0.00470556688 0.26749157715 50 50 50
-0.0881448288 -0.030094028470000003 0.3088765564 54 54 54
-0.07230072784 -0.00152106166 0.27542514038 55 55 55
-0.08600448608000001 -0.013423186299999999 0.27707275391 65 65 65
-0.08492004395 -0.03888062668 0.290634552 97 97 97
-0.08877505493 -0.01784062767 0.28164544678 55 55 55
-0.06953266907 -0.017751358029999997 0.27139050293 105 105 105
-0.06210752487 -0.00983512878 0.26665484619 89 89 89
-0.04863310242 0.00145650411 0.26409249878 97 97 97
-0.09029286956999999 -0.026505218509999998 0.29729852295000003 39 39 39
-0.08895606995 -0.0316477375 0.31060421753 110 110 110
-0.08225483704 -0.03956613159 0.29616461182 127 127 127
-0.08062565613 -0.00859223938 0.27588513183999996 54 54 54
-0.07002579498 -0.01839378357 0.27215100098 98 98 98
-0.06319741058 -0.01059681511 0.26677944946000004 105 105 105
-0.08318333435 -0.010752351759999999 0.27602285767 55 55 55
-0.08676520538 -0.014901615140000001 0.27863772583 61 61 61
-0.08940385437000001 -0.01988721085 0.28462884521 63 63 63
-0.08234078217 -0.04006724167 0.29731344604 117 117 117
-0.06019532394 -0.02285574913 0.29601034546 40 40 40
-0.056211402890000005 -0.016834190370000002 0.28982006836 43 43 43
-0.06464597321 -0.0121458025 0.26794692993 123 123 123
-0.049160289759999996 -0.00022440684999999998 0.26712512207 54 54 54
-0.07024368286 0.00195459962 0.27115393066000004 81 81 81
-0.08294043732 -0.01062525463 0.27597015381 56 56 56
-0.06887264252 -0.04032670975 0.31797857666 108 108 108
-0.06022407913 -0.0241319046 0.29864718628000003 42 42 42
-0.05802497101 -0.018846241 0.29124871826 42 42 42
-0.06998342896 -0.01655880737 0.26896478271 87 87 87
-0.05734052658 -0.00632213926 0.26732501221 50 50 50
-0.08932501221 -0.01919310951 0.28301132202 41 41 41
-0.08962634276999999 -0.02549560738 0.29597143555000005 51 51 51
-0.08831117249 -0.03104676056 0.30984283447 84 84 84
-0.08538393402 -0.038761760709999996 0.2906368103 107 107 107
-0.05942526627 -0.02037986183 0.29247839355000005 43 43 43
-0.07003842926 -0.01772125435 0.27145700073 91 91 91
-0.06241101837 -0.00967230892 0.26679812622 90 90 90
-0.04856444168 0.00241443825 0.26325216675 97 97 97
-0.08312522888 -0.01088651562 0.27592260742 55 55 55
-0.08763705444 -0.01642187119 0.27976251221000004 62 62 62
-0.0853742218 -0.03938353729 0.29198669433999996 112 112 112
-0.06014099884 -0.02123949432 0.29336978149 43 43 43
-0.0907194519 -0.021865589140000002 0.28606509398999996 35 35 35
-0.06369137192 -0.0106905508 0.26715063477 114 114 114
-0.049247989650000004 0.00089373052 0.26556332397 68 68 68
-0.08645497131 -0.02863078308 0.30776895142 52 52 52
-0.07054131317 0.00058831286 0.27309368896 50 50 50
-0.08241766357000001 -0.010371947289999999 0.27581558228 54 54 54
-0.06077374649 -0.02247809792 0.29532675171 42 42 42
-0.056391689300000006 -0.01627977753 0.28944268799 46 46 46
-0.06461026764000001 -0.01176668835 0.26812115479 119 119 119
-0.0495937233 -4.397126e-05 0.26717578125 54 54 54
-0.08750140381 -0.01633355713 0.27958062744 63 63 63
-0.09051756287000001 -0.021700597760000002 0.28581210327 33 33 33
-0.06928352356 -0.0400661087 0.31779980468999997 109 109 109
-0.06082865906 -0.02329761314 0.29699185181000004 43 43 43
-0.057455123899999995 -0.017439113620000002 0.29028271483999996 49 49 49
-0.06986557007000001 -0.01536155319 0.26773696899 109 109 109
-0.0501926384 -0.00093304461 0.26825396729 54 54 54
-0.06986386108 0.00187791741 0.27127200317 81 81 81
-0.08089426422 -0.00919916821 0.27568133545 50 50 50
-0.08668824005 -0.01505931282 0.27825479125999997 60 60 60
-0.06089195251 -0.02419179344 0.29907034302 47 47 47
-0.05844139099 -0.018390422820000002 0.29097705078 45 45 45
-0.07056343842 -0.01628092766 0.26865826416 101 101 101
-0.05761273193 -0.0058245582599999995 0.26730911255 54 54 54
-0.08927114105 -0.01988347435 0.28388381958000003 60 60 60
-0.08982516479000001 -0.02640332222 0.29677868652 40 40 40
-0.08844980621000001 -0.03182353592 0.31058963013 105 105 105
-0.06075831223 -0.02494807243 0.30087408447 49 49 49
-0.05884286118 -0.01863915634 0.29118640137 41 41 41
-0.07074896239999999 -0.01644421577 0.26894607544000004 95 95 95
-0.058179645540000005 -0.0062712993600000004 0.26748577881 57 57 57
-0.07623869324 -0.00523223972 0.27508511353 37 37 37
-0.08452259827 -0.01251878548 0.27623324585 62 62 62
-0.08848268127 -0.017874540329999997 0.28071255493 66 66 66
-0.08563784027 -0.03813528061 0.29030651855 97 97 97
-0.059246704100000006 -0.01901350403 0.29145809937 45 45 45
-0.09064769745 -0.02252340317 0.2868057251 32 32 32
-0.09047542572 -0.022662565229999997 0.28749490356 44 44 44
-0.09053844452 -0.02328856277 0.28873684692 58 58 58
-0.08732859802 -0.03024069977 0.30891091919 54 54 54
-0.07035816193 -0.00031028277 0.27447692870999996 46 46 46
-0.085674263 -0.03800572968 0.29025134277000003 105 105 105
-0.05947712326 -0.01907890892 0.29150616455 47 47 47
-0.08881407166 -0.031727315900000004 0.29833218384000004 53 53 53
-0.08899139404 -0.03146377563 0.29749862671 58 58 58
-0.049079498289999995 0.00281669331 0.26336691284 116 116 116
-0.08551036072 -0.01362545967 0.27666955566 65 65 65
-0.08881096649 -0.01877006912 0.28188528442 55 55 55
-0.08603562927 -0.03879275894 0.29145932006999997 129 129 129
-0.06114445114 -0.02115162086 0.29337811279 42 42 42
-0.09143058777 -0.02458927155 0.28963882446 31 31 31
-0.06346014786 -0.00982762909 0.26738922119 107 107 107
-0.0497674675 0.00181507051 0.26454815674000004 106 106 106
-0.08802903748 -0.03154667282 0.31027655029 86 86 86
-0.07136969757 -0.0017658273 0.27553564453 53 53 53
-0.08222400665 -0.03940248108 0.29865383911 111 111 111
-0.0616858139 -0.02250806046 0.29560263062000003 42 42 42
-0.05712642288 -0.01591171074 0.28926147461 50 50 50
-0.08635704041 -0.01467579556 0.27714709473 66 66 66
-0.0867329483 -0.015443559649999999 0.27819354248 62 62 62
-0.0886942215 -0.018558080669999998 0.28136947632 56 56 56
-0.09056243134 -0.02352459908 0.28871600342 56 56 56
-0.08714368439 -0.030318174360000002 0.3089576416 55 55 55
-0.0617858429 -0.023251161580000002 0.29714959717 47 47 47
-0.0882519989 -0.032146049499999996 0.31083578490999997 107 107 107
-0.06807106018 0.00348612404 0.26987246704 112 112 112
-0.06884298706 0.00241918612 0.27081552124 96 96 96
-0.07564699554000001 -0.00476618862 0.27442831421 33 33 33
-0.08370484924 -0.01196932316 0.27578338623000004 61 61 61
-0.07003044891 -0.0393646431 0.3172260437 104 104 104
-0.08869600677 -0.01864182281 0.28132293701 58 58 58
-0.05864141083 -0.01736108589 0.29035583496 50 50 50
-0.07002879333 -0.014689719200000001 0.26794281006 106 106 106
-0.05063525772 -0.00028045607 0.26823886108 54 54 54
-0.09046213531 -0.02335513306 0.2882805481 59 59 59
-0.08696385956000001 -0.03026538467 0.30891824341 56 56 56
-0.06931620026 0.00130811536 0.27219363403 53 53 53
-0.06994586182000001 -0.00036266389 0.27454736328 46 46 46
-0.05852667236 -0.01707988358 0.2901736145 44 44 44
-0.07030304718 -0.01485023975 0.26810003662000004 110 110 110
-0.05101152039 -0.00065794653 0.26869543457 51 51 51
-0.0829839325 -0.01141565895 0.27558621216 59 59 59
-0.08759196472000001 -0.01694919968 0.27935708618 66 66 66
-0.09008357239 -0.021893199920000002 0.28558065796 45 45 45
-0.06184943008 -0.02447597313 0.30018786621 48 48 48
-0.05972164917 -0.01827800941 0.29100180053999997 49 49 49
-0.07127799224999999 -0.01580910873 0.26878448486 125 125 125
-0.05152618027 -0.00108461845 0.26898434448 52 52 52
-0.08563188934 -0.02885600471 0.30784140015 52 52 52
-0.06907353973 0.00159993696 0.27177264404 69 69 69
-0.08084142303 -0.00967659378 0.27533166504 54 54 54
-0.062022773739999995 -0.02442428398 0.30014389038 51 51 51
-0.05980373001 -0.0180824852 0.2908795166 47 47 47
-0.07085370636 -0.01521487904 0.26843588257 116 116 116
-0.0515082016 -0.00090402949 0.26896313477 54 54 54
-0.0869673996 -0.01606437492 0.27837030029 63 63 63
-0.08951295471000001 -0.02101242065 0.28446209717 64 64 64
-0.07059780884 -0.03950121307 0.31761529541 108 108 108
-0.08629900360000001 -0.0299216404 0.30875582886 50 50 50
-0.08729382324 -0.0311590538 0.30966357421999996 57 57 57
-0.07004988097999999 -0.014313632009999999 0.2680614624 107 107 107
-0.0508441391 0.00015865969999999998 0.26797866821000005 54 54 54
-0.06924864959999999 0.0004420864 0.27358245849999996 50 50 50
-0.08181768799 -0.01062854862 0.27545245361000004 54 54 54
-0.08709442902 -0.01635247231 0.27848916626 65 65 65
-0.08782641601999999 -0.01756129646 0.27981915283000003 69 69 69
-0.0604496727 -0.01853388405 0.29121820068 48 48 48
-0.07127277374 -0.01548631859 0.26874273682 127 127 127
-0.089486763 -0.02107782745 0.28440219116 66 66 66
-0.09032784271 -0.022648275380000003 0.28622351074 39 39 39
-0.08607666779 -0.02988242722 0.30875308228 50 50 50
-0.06915232086 0.00032509484999999997 0.27376776123 49 49 49
-0.06240597916 -0.02437833214 0.30023800659 50 50 50
-0.07848632813 -0.00776642752 0.27487487793000004 53 53 53
-0.07180638123 -0.016254282 0.26977450562 122 122 122
-0.05992639923 -0.00636150217 0.26779092407 58 58 58
-0.08508105469 -0.01385757065 0.27648529053 64 64 64
-0.08870915985000001 -0.01910598946 0.28131497192 58 58 58
-0.09058204651 -0.02411072922 0.28868127441 57 57 57
-0.08617028809 -0.03699977112 0.28988848877 132 132 132
-0.061512729640000006 -0.01946135902 0.29192694092 43 43 43
-0.08790882874 -0.03266592026 0.31129919434 105 105 105
-0.06744538878999999 0.0033796103 0.26988150023999996 94 94 94
-0.06781652069 0.00282689691 0.27041763306 96 96 96
-0.07828328705 -0.00772431993 0.27478042603 45 45 45
-0.08541342163 -0.01426116276 0.27660379028 64 64 64
-0.0864265213 -0.038113201140000004 0.29194833374 125 125 125
-0.06257204056 -0.02063615227 0.29296832275 41 41 41
-0.08890608978 -0.019963945389999998 0.28252783203000004 58 58 58
-0.06403133391999999 -0.00970741558 0.26889025879 104 104 104
-0.08840120697 -0.021989402770000003 0.27871255493 111 111 111
-0.09090651703000001 -0.024905591959999997 0.28945056152 40 40 40
-0.08712798309 -0.031597036360000004 0.31001373291 57 57 57
-0.08765855408 -0.020886808399999998 0.27770797728999996 122 122 122
-0.06313128281000001 -0.02142823029 0.29396917725 42 42 42
-0.07079182434 -0.0020518074 0.27550790405 46 46 46
-0.06366505814 -0.009185847280000001 0.26859393311 98 98 98
-0.05095137405 0.00186288702 0.26549081421 92 92 92
-0.08540032959 -0.01441327286 0.27662442017 64 64 64
-0.08876370239 -0.01956874466 0.28169607544 58 58 58
-0.09045122528 -0.0238684082 0.2879397583 60 60 60
-0.06340938187 -0.02280101395 0.29662200928 43 43 43
-0.05988767242 -0.01707697678 0.29028305054 42 42 42
-0.06393861771 -0.00948971176 0.26904641724 96 96 96
-0.05123540115 0.0013043470399999998 0.26655752563 60 60 60
-0.06763217926 0.0026876442400000002 0.27054180908000003 95 95 95
-0.07771763611 -0.00739985514 0.27459362793000003 44 44 44
-0.08397230530000001 -0.01300989914 0.27586416626 67 67 67
-0.06351111984 -0.02253687096 0.29605398559999996 42 42 42
-0.05941408157 -0.01628958321 0.28974841309 45 45 45
-0.0640061264 -0.00959234238 0.26930310059 109 109 109
-0.05140194702 0.00107436275 0.26702230835 54 54 54
-0.0901872406 -0.02281899834 0.28594036865 52 52 52
-0.08531980133 -0.01791748619 0.27533508301 118 118 118
-0.06692637634000001 0.00355039001 0.26969885254000003 92 92 92
-0.06368254471 -0.02202683258 0.29506958008 44 44 44
-0.06867716217 7.377841e-05 0.27401083374 53 53 53
-0.06375168228 -0.009171899800000001 0.26912789916999996 91 91 91
-0.05143386841 0.00138158059 0.26663455199999997 60 60 60
-0.08353681183 -0.01263902092 0.27555102539 64 64 64
-0.08845116425 -0.01908088493 0.28072583007999996 70 70 70
-0.09030994415 -0.023498920439999998 0.28691073608 57 57 57
-0.06374397278 -0.022411645889999998 0.29584634399 43 43 43
-0.0597530365 -0.01635821915 0.28983029175 47 47 47
-0.06371229172000001 -0.009093620299999999 0.26924411011 87 87 87
-0.051580272669999996 0.00102223241 0.2672673645 53 53 53
-0.0669101181 0.00332347798 0.26989605713 107 107 107
-0.07948163605000001 -0.00898982048 0.27449002075 57 57 57
-0.07156508636 -0.03861996841 0.31683361816 97 97 97
-0.063923172 -0.02258501053 0.29626165771 43 43 43
-0.06015460205 -0.01668567848 0.29006579590000003 43 43 43
-0.06944132233 -0.012811939239999999 0.26822677612 101 101 101
-0.05192115784 0.00020720306 0.26870825195 52 52 52
-0.08914595795 -0.02119984055 0.28382263184 74 74 74
-0.09048820496 -0.02672408295 0.29318710327 34 34 34
-0.0575432663 0.00233785462 0.26881518555 58 58 58
-0.06405045319 -0.022545524600000002 0.2962046814 42 42 42
-0.06026113892 -0.016626140589999998 0.29004769897 41 41 41
-0.06940213013 -0.012660157200000001 0.26827816772 99 99 99
-0.05183256531 0.00073750567 0.26793542480000004 51 51 51
-0.0828134079 -0.01210666847 0.27516519165 59 59 59
-0.08846134186 -0.01930698967 0.28072686768 69 69 69
-0.09030621338 -0.02363959503 0.28673431396 59 59 59
-0.09035713196 -0.02611802483 0.29183529663 54 54 54
-0.09055765533 -0.02691113091 0.29319812012 32 32 32
-0.06350769806 -0.008676198960000001 0.26949591064 93 93 93
-0.05161561966 0.0019684599599999997 0.26603710938 93 93 93
-0.06660050200999999 0.0034762933299999996 0.26972616577 99 99 99
-0.08078343201 -0.010446389200000001 0.27491461182 55 55 55
-0.0873613205 -0.01750910759 0.27857211303999996 71 71 71
-0.06381171036 -0.020535303119999997 0.29294995117 42 42 42
-0.07667121124000001 -0.01849836731 0.26936209106000003 96 96 96
-0.061739254 -0.0065406661 0.26814157103999997 55 55 55
-0.05109671021 0.0033704214100000003 0.26430007935 117 117 117
-0.09052207946999999 -0.02697205162 0.29315637206999995 35 35 35
-0.08713534546 -0.03293885422 0.31141799927 93 93 93
-0.08666825104 -0.03757258987 0.29272692871 126 126 126
-0.06383401489 -0.0203093605 0.29273651123 42 42 42
-0.07668849944999999 -0.01808550835 0.26872845459 81 81 81
-0.06065151215 -0.00549937391 0.26783868408 46 46 46
-0.08678079224 -0.01670720291 0.27761376953 64 64 64
-0.08905658722 -0.02159873962 0.28402706909 80 80 80
-0.09025912476 -0.02672547913 0.29296478271 42 42 42
-0.08825354767 -0.03616553116 0.28773818970000004 114 114 114
-0.06198861694 -0.017904113769999997 0.29097210693 47 47 47
-0.07031858063 -0.013096035 0.26862271118000003 106 106 106
-0.05218774796 0.0010059821600000001 0.26783807373 53 53 53
-0.06769996643000001 0.00052821636 0.27348135376 53 53 53
-0.08259372711 -0.01217835236 0.27500802612 59 59 59
-0.07223789978 -0.03838469696 0.31672631836 100 100 100
-0.06477603911999999 -0.02225146294 0.29578109740999997 42 42 42
-0.08951644897 -0.02229597664 0.28459866333 68 68 68
-0.09034552002 -0.02421055412 0.28714559937 65 65 65
-0.05236343384 0.00074509454 0.26837960815 54 54 54
-0.09066576385000001 -0.027453931810000002 0.29336526489 43 43 43
-0.08699137115000001 -0.03310986328 0.31158538818 94 94 94
-0.07915467834 -0.00913231564 0.27409042358 55 55 55
-0.07054341125000001 -0.00850531864 0.27026800537 56 56 56
-0.061227127080000006 -0.01664710426 0.29014379882999997 46 46 46
-0.0697535553 -0.01240969563 0.26855728148999997 94 94 94
-0.052630630490000004 0.00030766421999999996 0.26905175781 52 52 52
-0.08736224364999999 -0.0179080143 0.27877780151000003 73 73 73
-0.08992876434 -0.022974420550000003 0.2849899292 63 63 63
-0.09076948547000001 -0.02780194092 0.29373031615999995 33 33 33
-0.0847419281 -0.030285310750000002 0.30909848021999997 50 50 50
-0.06145291519 -0.016800062180000002 0.29026052856 43 43 43
-0.06985935974 -0.01240633297 0.26861788940000003 96 96 96
-0.05309075546 -0.00010182974 0.26946270751999996 54 54 54
-0.06735988617 0.0006492545 0.2733104248 53 53 53
-0.08291650391000001 -0.01271969604 0.27510543823 62 62 62
-0.08831275940000001 -0.019672792430000002 0.28061080933 67 67 67
-0.08863159943 -0.0354717865 0.28657620239 104 104 104
-0.06153173447 -0.016733934399999997 0.29023040771 46 46 46
-0.06940713501000001 -0.01195184231 0.26861978149 97 97 97
-0.052909942630000005 0.00037641956999999996 0.26908950806000004 51 51 51
-0.09053654480000001 -0.02634767914 0.29098889159999997 56 56 56
-0.08571089935000001 -0.03149193764 0.30986550903 53 53 53
-0.07700482178 -0.00702982616 0.27299423217999996 30 30 30
-0.08872510529000001 -0.03536652756 0.28647622681 102 102 102
-0.061722118379999996 -0.016656488419999997 0.29019503784 46 46 46
-0.06936374664 -0.0118207922 0.26866455078 94 94 94
-0.05305166626 0.00030246812 0.26922018433 52 52 52
-0.08691661072 -0.01732871628 0.27777340698 65 65 65
-0.08937573242 -0.022533233639999997 0.28457983398 64 64 64
-0.09045316314999999 -0.02749246788 0.29314883423 45 45 45
-0.08908682251000001 -0.02959994888 0.2999085083 57 57 57
-0.08452082061999999 -0.030402061459999997 0.30921423340000004 50 50 50
-0.06577430725000001 -0.00934202576 0.26948583983999996 56 56 56
-0.05287836456 0.00088403499 0.26854095459 54 54 54
-0.06673342896 0.00167964685 0.27172402954 58 58 58
-0.08153094482 -0.01170219803 0.27480538940000004 59 59 59
-0.08748865508999999 -0.01887119675 0.27983752441000004 107 107 107
-0.08885496521 -0.03516771698 0.28629431152 107 107 107
-0.06162849426 -0.016341508869999997 0.2900128479 44 44 44
-0.06919403839 -0.01149315643 0.26877020263999996 93 93 93
-0.05318705368 0.00041243023 0.26920193481 51 51 51
-0.09042574310000001 -0.02666477394 0.29124536133 58 58 58
-0.08573712921000001 -0.03203660583 0.31029202271 51 51 51
-0.07737143707 -0.00793892622 0.27379394531 46 46 46
-0.08893579102 -0.03541537476 0.28691967773 114 114 114
-0.08274697876 -0.012863273619999999 0.2749352417 62 62 62
-0.06485372925 -0.008368797300000001 0.26933471680000004 54 54 54
-0.052938194269999996 0.00153384197 0.26759677124000003 55 55 55
-0.08763015747 -0.01914771652 0.27994152831999997 105 105 105
-0.09020397186 -0.024089056020000003 0.28598162841999997 60 60 60
-0.07276081085 -0.01048529625 0.27087185669 53 53 53
-0.06583582305999999 -0.022247077940000002 0.29596710205 44 44 44
-0.07766067504999999 -0.01814292145 0.2695803833 109 109 109
-0.06423988342 -0.00763084602 0.26900167847 54 54 54
-0.05274160004 0.002688797 0.26576821898999997 105 105 105
-0.06660666656 0.00131386721 0.27226766968 55 55 55
-0.08169001769999999 -0.01199895859 0.27468832397 61 61 61
-0.08285043335 -0.03737298965 0.30070928955 64 64 64
-0.06595411681999999 -0.02114920425 0.29391531371999996 42 42 42
-0.07756550597999999 -0.017641763690000003 0.26896768188 113 113 113
-0.06385353469999999 -0.007088794230000001 0.2687868042 55 55 55
-0.05253659058 0.00336794257 0.26504049682999997 105 105 105
-0.09021125793 -0.02743080139 0.29278582764 50 50 50
-0.08563918304000001 -0.03227548981 0.31053833008 52 52 52
-0.08378422546 -0.01945946503 0.27168399047999997 124 124 124
-0.06595331573 -0.02084721756 0.29350247192 45 45 45
-0.07691771698 -0.0073130455 0.27274682617 33 33 33
-0.06105066681 -0.00462660217 0.26833657836999997 47 47 47
-0.07996614075 -0.01050490284 0.27423373413 54 54 54
-0.0870254364 -0.01793434143 0.27795043945 72 72 72
-0.09009022522 -0.023863565439999998 0.28518392944 62 62 62
-0.09010408019999999 -0.02534986877 0.28830316162 62 62 62
-0.08199222565 -0.02175399208 0.27089846802 96 96 96
-0.06514232635 -0.00819506168 0.26947625732 56 56 56
-0.09018036652000001 -0.0276279335 0.29294165039000003 48 48 48
-0.08487734985 -0.03147715187 0.30996273803999996 50 50 50
-0.07667250061 -0.00714296913 0.27256246948 36 36 36
-0.08408435822 -0.01457755375 0.27564212035999996 108 108 108
-0.08921897888 -0.03436038208 0.2854737854 101 101 101
-0.0779453125 -0.01799963379 0.26977243042 110 110 110
-0.06392134094 -0.0067731595000000006 0.26878692627 55 55 55
-0.0529465065 0.0032334938000000003 0.26537722778 106 106 106
-0.09018119049000001 -0.02433971596 0.28585116577 62 62 62
-0.08925745392000001 -0.02922007751 0.2976350708 55 55 55
-0.08363525391 -0.03676839447 0.29916647339 63 63 63
-0.06633242798000001 -0.0205499382 0.29320758057 45 45 45
-0.07691109467 -0.01650204849 0.26856674193999996 106 106 106
-0.06592553710999999 0.0019163540599999999 0.27131317139 61 61 61
-0.06640046692 0.00061721057 0.27320864868 56 56 56
-0.08359289551 -0.014212923050000001 0.27548083496 98 98 98
-0.08834233856 -0.0204909687 0.28059661864999996 64 64 64
-0.08710991669000001 -0.03597080994 0.2924105835 125 125 125
-0.06498479462000001 -0.01877839088 0.29173455811000004 47 47 47
-0.07051017761 -0.01188706017 0.26935476685 107 107 107
-0.054137905119999996 0.00053154707 0.26957550049 52 52 52
-0.09037911987 -0.02709244537 0.291021698 58 58 58
-0.08497634125 -0.03199535179 0.31031591796999997 53 53 53
-0.07679153442 -0.00751926947 0.27262139893 35 35 35
-0.07857107544 -0.00938706875 0.27343859863 58 58 58
-0.08208589935 -0.021274528499999997 0.27066323853 117 117 117
-0.06526599883999999 -0.00788312817 0.26956018066000004 51 51 51
-0.05376236725 0.00184446669 0.26768902588 55 55 55
-0.08450217438 -0.0151272068 0.27564199829 115 115 115
-0.08864088440000001 -0.021216192249999998 0.28138363647 68 68 68
-0.07408283997 -0.037091579439999994 0.31531369019 55 55 55
-0.08933341980000001 -0.033893077849999995 0.2852321167 121 121 121
-0.07820410919 -0.01796651077 0.27018395996 111 111 111
-0.06448806763 -0.00689910412 0.26906649779999997 54 54 54
-0.05352231216 0.00291250825 0.26605697631999997 106 106 106
-0.08505083466 -0.03225080872 0.31054147339000004 53 53 53
-0.07692864989999999 -0.00780527258 0.27277804565 42 42 42
-0.08291381835999999 -0.03721942902 0.30212985229 61 61 61
-0.06711560059 -0.021695636749999997 0.29507727051 49 49 49
-0.07826670074 -0.01771983719 0.26983590698 126 126 126
-0.06415010834 -0.0064994645100000005 0.26890609741 54 54 54
-0.05352449417 0.00318182468 0.26577108765 108 108 108
-0.0887268219 -0.022202606200000002 0.28313482666 114 114 114
-0.09035079193 -0.02723065186 0.29087942505000003 58 58 58
-0.08329695128999999 -0.036936943050000004 0.30117141723999996 63 63 63
-0.06725345612 -0.02134623146 0.29444436646000005 48 48 48
-0.07826271056999999 -0.01749084282 0.26964724731 139 139 139
-0.06439430237 -0.0065854454 0.26903216553 50 50 50
-0.053642341610000005 0.0031277668499999998 0.26589624022999997 109 109 109
-0.07684090424 -0.00782954884 0.27267990112 41 41 41
-0.08465910339 -0.01544833183 0.27556460571 117 117 117
-0.08315821074999999 -0.03700085068 0.30170379639 64 64 64
-0.08861734772 -0.02147896576 0.28151644897 68 68 68
-0.07838135529 -0.01759534645 0.26986877441 130 130 130
-0.06462895966000001 -0.00674819708 0.26915609740999996 54 54 54
-0.0538298912 0.00296300673 0.26619265747 107 107 107
-0.09027893829 -0.027416398999999998 0.29115325927999997 57 57 57
-0.08494340515 -0.03243277359 0.31073001098999997 53 53 53
-0.06582423401 0.00074703193 0.27294165039 50 50 50
-0.07648944092000001 -0.0075285387 0.27239248657000004 37 37 37
-0.07831758881 -0.01736181831 0.26967004395 149 149 149
-0.06440644836 -0.0064165086699999995 0.26909036255 50 50 50
-0.053774394989999995 0.00342309093 0.26571426392 110 110 110
-0.08495694733 -0.01599441624 0.27593933105 120 120 120
-0.08844837952000001 -0.02198176956 0.28267199706999996 109 109 109
-0.08381739044 -0.03658210373 0.30032995605 59 59 59
-0.06721596527 -0.020179695129999998 0.29293374634 48 48 48
-0.07777625275 -0.016582044599999998 0.26917773438 122 122 122
-0.06343334198 -0.00550105953 0.26893106079 53 53 53
-0.09007294464 -0.02842995453 0.29337039184999997 52 52 52
-0.08471811676 -0.032457797999999996 0.31077218628000003 52 52 52
-0.06629008484 -6.893961e-05 0.27364367676 45 45 45
-0.0841860733 -0.036173690800000005 0.29919888306000003 62 62 62
-0.06703688049 -0.01981968117 0.29263476563 48 48 48
-0.07753143310999999 -0.016229522710000003 0.26907565308 116 116 116
-0.06324944687 -0.00524292088 0.26896102904999997 49 49 49
-0.08501229095 -0.016164304730000002 0.27597482300000004 122 122 122
-0.0883530426 -0.02192130661 0.28253710938 102 102 102
-0.09032858276 -0.027302099229999998 0.29036193847999997 56 56 56
-0.08708957671999999 -0.03586104965 0.29426815796 120 120 120
-0.06645272063999999 -0.01910806847 0.29207690430000005 47 47 47
-0.08898228455 -0.026791889189999998 0.27843154907 130 130 130
-0.06112511063 -0.0033511641000000003 0.26869967651000004 35 35 35
-0.06423155212000001 0.0034263565499999997 0.26945660400000004 95 95 95
-0.07966065216 -0.01086735535 0.27364303589 57 57 57
-0.08598418427 -0.01743598747 0.27679275513 68 68 68
-0.08705992125999999 -0.034741039280000004 0.29223269653 132 132 132
-0.08246214294000001 -0.02056585503 0.27066351318 118 118 118
-0.0676319046 -0.00874890232 0.26968093872 60 60 60
-0.054742671970000004 0.00202149796 0.26794482422 58 58 58
-0.08951405334000001 -0.02580354881 0.28844082642 71 71 71
-0.08893395233 -0.03081444359 0.29972238159 58 58 58
-0.0752858963 -0.03679277039 0.31505981445 66 66 66
-0.06570206451 0.00033845049 0.27325549316000003 51 51 51
-0.07784174347 -0.01626412964 0.26934078979 122 122 122
-0.061395694730000006 -0.00359291935 0.26913592528999997 50 50 50
-0.07990763855 -0.01130654716 0.27382199097 58 58 58
-0.08626108551 -0.0178231678 0.27690792847 69 69 69
-0.08914318084999999 -0.02323285675 0.28336712646 111 111 111
-0.08723573303000001 -0.03490008163 0.29279193114999996 124 124 124
-0.08382234192 -0.022181253430000002 0.27231723022 108 108 108
-0.07126063537999999 -0.01168338966 0.27054754639 105 105 105
-0.05540502167 0.0008648622000000001 0.26981799316 50 50 50
-0.08377577209 -0.03183571053 0.3103157959 51 51 51
-0.06616986084 -0.00042638743 0.27373516846 99 99 99
-0.0818168869 -0.01313729382 0.27429586792 62 62 62
-0.08932919312 -0.034091842649999995 0.28808853148999997 115 115 115
-0.08383681488 -0.022039047239999998 0.27216867065 113 113 113
-0.07120810699 -0.011546187400000001 0.27058435058999997 104 104 104
-0.055399394989999996 0.00114157653 0.26951693726000003 53 53 53
-0.08844941711 -0.02161849594 0.28092633057 68 68 68
-0.09023410796999999 -0.02713311005 0.28947497558999996 63 63 63
-0.08358143616 -0.03175550079 0.31029934692 49 49 49
-0.08461647797 -0.033295944210000004 0.31171139526 54 54 54
-0.06378590012 0.00358310199 0.26922232056 91 91 91
-0.07710499573 -0.015297293659999999 0.26921343994 106 106 106
-0.06479733276 0.00154554343 0.27177859496999995 55 55 55
-0.07347902679000001 -0.00574281597 0.27248614501999996 36 36 36
-0.0831587677 -0.01453607559 0.27479043579 108 108 108
-0.08764237976 -0.01999177742 0.27864660645 120 120 120
-0.08700057219999999 -0.034232414249999996 0.29250860596 129 129 129
-0.08649989319 -0.02495739746 0.27441030884 102 102 102
-0.07847277832 -0.016579736709999997 0.26987338257 128 128 128
-0.0646614151 -0.00570584917 0.26942141723999996 53 53 53
-0.08964977264 -0.026405368800000002 0.2887243042 68 68 68
-0.08294203186 -0.03128966522 0.30999975586 48 48 48
-0.06547298431 0.00014260894 0.27331445313 51 51 51
-0.08729173278999999 -0.034962654110000005 0.29372970580999996 119 119 119
-0.07889609528 -0.010504433629999999 0.27316067505 57 57 57
-0.0837220459 -0.02130107117 0.27152050781000003 135 135 135
-0.07075232697 -0.01081246281 0.27047515869 99 99 99
-0.05559885025 0.00167101634 0.26883029175 51 51 51
-0.08541543579000001 -0.01740181351 0.27674328613 70 70 70
-0.08909994507 -0.02330625725 0.28288424683 117 117 117
-0.07604880523999999 -0.03686757278 0.31546707153 94 94 94
-0.08992267609 -0.03337817001 0.28663491821000003 114 114 114
-0.08814618683 -0.027745910640000003 0.27791140747 107 107 107
-0.08287276459000001 -0.020186183929999997 0.27081259155 118 118 118
-0.06831020355 -0.00847295475 0.26979998779 51 51 51
-0.05527939224 0.00280779982 0.26719546509000003 95 95 95
-0.06395973969 0.00283826089 0.2699798584 89 89 89
-0.0796005249 -0.01132046604 0.27347189331 58 58 58
-0.07573072815000001 -0.03598890305 0.31438735962 53 53 53
-0.09032949066000001 -0.03230691528 0.28403710938 116 116 116
-0.0862588501 -0.01882816696 0.27798492432 85 85 85
-0.08256690216 -0.01983390808 0.27077508545 117 117 117
-0.06798600768999999 -0.00809660339 0.26977627563 56 56 56
-0.055447685239999996 0.00272002077 0.26738925171 91 91 91
-0.08981462097000001 -0.02483749771 0.28468884277 68 68 68
-0.08983498382999999 -0.02968762207 0.29476986693999996 60 60 60
-0.07587878417999999 -0.0359862175 0.31438156128000005 52 52 52
-0.09035109711 -0.032392288209999995 0.28433346558 124 124 124
-0.08795162963999999 -0.027144569400000002 0.27747351074 118 118 118
-0.08324874115 -0.02035468483 0.27097317505 124 124 124
-0.06429289246 0.0017769587 0.2713765564 53 53 53
-0.05593574142 0.00184936738 0.26877304077 52 52 52
-0.08013676452999999 -0.01200844002 0.273796875 56 56 56
-0.08624626922999999 -0.01889236259 0.27802334595 97 97 97
-0.07648239136 -0.03678671265 0.31536358643 91 91 91
-0.08998577881 -0.033079216 0.2865307312 121 121 121
-0.08860150146 -0.02786665916 0.27813418579 126 126 126
-0.08417367554 -0.02142565536 0.27195956421 135 135 135
-0.07142217255 -0.01114490223 0.27099981688999997 62 62 62
-0.05605676651 0.00177477896 0.26891192627 52 52 52
-0.08894971466 -0.03112002563 0.29897021483999997 54 54 54
-0.06471328735 0.00070202613 0.27276394653 48 48 48
-0.07655891418 -0.03669806671 0.31526925659 91 91 91
-0.08459208678999999 -0.01611886978 0.27471447754 119 119 119
-0.08880154419 -0.02805005836 0.27844454956 125 125 125
-0.08448770905000001 -0.02177170372 0.27239508057 130 130 130
-0.08516802979 -0.01713163757 0.27581906128000006 118 118 118
-0.056504936219999996 0.00089731228 0.27020529175 47 47 47
-0.0882306366 -0.0219188385 0.28076611328 69 69 69
-0.09005462646 -0.02744815254 0.28925497437000003 65 65 65
-0.08287573242 -0.03191345406 0.31052697754 51 51 51
-0.08707990265 -0.03390295792 0.29322451782000003 117 117 117
-0.08933580017 -0.02907329559 0.27985388184 113 113 113
-0.086202034 -0.023745885850000002 0.27391482544 115 115 115
-0.07821746826 -0.01564986801 0.27000180054 121 121 121
-0.06445056915000001 -0.0048246674499999994 0.26959872437 31 31 31
-0.07632012939 -0.008667226790000001 0.27266702271000004 45 45 45
-0.08423402405000001 -0.0158418932 0.27449694824 112 112 112
-0.08821937561 -0.02120347214 0.27903765869 109 109 109
-0.08719577789 -0.033634651179999996 0.29530484009 115 115 115
-0.09012039948 -0.03053414917 0.28182730103 133 133 133
-0.08742961121000001 -0.025096158979999998 0.27497998047 132 132 132
-0.07927182007 -0.01702657318 0.27134387207 140 140 140
-0.07813557434 -0.010942447659999998 0.27273416138 54 54 54
-0.05595771027 0.0029149808899999997 0.26739993285999997 95 95 95
-0.08981649779999999 -0.0293747921 0.29362390137 111 111 111
-0.08402903748 -0.034092979429999996 0.31294006348 88 88 88
-0.07377107239 -0.00687275362 0.27289257813 45 45 45
-0.09042786407 -0.03195469856 0.28441595459 110 110 110
-0.08842645264 -0.02703413773 0.27762603760000004 126 126 126
-0.0841835556 -0.02093818092 0.27183398438 148 148 148
-0.07984096527 -0.0119691925 0.27351245117 60 60 60
-0.05674306107 0.0011425416500000002 0.27004251099 52 52 52
-0.08515309143000001 -0.01753308105 0.27618859863 111 111 111
-0.08881777954 -0.02319149208 0.28198971558 116 116 116
-0.0899201889 -0.02840216446 0.29099948119999997 60 60 60
-0.08978520966 -0.029954113010000002 0.29445892334 60 60 60
-0.08921255493 -0.02812319565 0.27881866455 130 130 130
-0.08488088226000001 -0.021976570129999998 0.27307971191 135 135 135
-0.07738131713999999 -0.01457038307 0.26980090331999995 104 104 104
-0.06467358398 -0.0046706876800000005 0.2696902771 36 36 36
-0.08380766296 -0.03383892441 0.31236233521 64 64 64
-0.07611513519 -0.00868769455 0.27261831664999997 44 44 44
-0.08414593506 -0.01591923237 0.2743414917 108 108 108
-0.08728688049 -0.03409729004 0.29425457763999996 117 117 117
-0.08970802306999999 -0.02964485359 0.28133868408 125 125 125
-0.08706855774 -0.02426968384 0.27449365234 131 131 131
-0.07894909668 -0.01615736008 0.27075610352 130 130 130
-0.06593149567 -0.0056990437500000005 0.27004211426 52 52 52
-0.08806085205 -0.022086996079999997 0.28070889282 69 69 69
-0.08989530945 -0.02758996582 0.28908514403999996 67 67 67
-0.08239844513 -0.031957113270000004 0.31061657715 48 48 48
-0.08510736847 -0.034703464510000004 0.29926220703 61 61 61
-0.09027462006 -0.03035709572 0.28209719849 131 131 131
-0.08772077179 -0.02499523163 0.27523849487 193 193 193
-0.06420689392 0.00054403269 0.27279574585 46 46 46
-0.0687465744 -0.00773986006 0.27000741577000004 55 55 55
-0.05643036652 0.00285402703 0.2677059021 91 91 91
-0.08123543549 -0.01351040649 0.27389129639 62 62 62
-0.08711656951999999 -0.02004408073 0.27777264404 115 115 115
-0.07743445586999999 -0.01030320358 0.27259075928 54 54 54
-0.08967166901 -0.03197755623 0.28661254883 132 132 132
-0.08881720734 -0.0271221962 0.27803033447000003 140 140 140
-0.08454051971 -0.02095435333 0.27220779419 142 142 142
-0.07230821991 -0.01071663952 0.27070492554 53 53 53
-0.08990266418000001 -0.028407262800000003 0.29057623291 59 59 59
-0.08973547363 -0.030073320389999998 0.29432391357 60 60 60
-0.06247917557 0.00376863384 0.26875714111000004 99 99 99
-0.07743286896 -0.00997894096 0.27266473388999996 56 56 56
-0.07999484253 -0.01245578384 0.27356756592 57 57 57
-0.08977562714 -0.02885096359 0.28027005005 128 128 128
-0.08687466431 -0.02375152397 0.27442660522 125 125 125
-0.07873427581999999 -0.01562028122 0.27072476196 125 125 125
-0.06765229797000001 -0.00678024721 0.2702298584 45 45 45
-0.0564943428 0.00337982178 0.26713870239 100 100 100
-0.08711203003 -0.02011674881 0.27769277954 113 113 113
-0.08958840942 -0.025533767699999998 0.28490533447 67 67 67
-0.07311206055 -0.00643391371 0.27200942993 30 30 30
-0.08960794067000001 -0.03178149223 0.28680169678 135 135 135
-0.08887861633 -0.02700066185 0.27812490845000004 134 134 134
-0.08480688477 -0.02108900642 0.27251657104 143 143 143
-0.08894635773000001 -0.03140107536 0.29812667847 54 54 54
-0.06471808624 -0.004025756839999999 0.26941625977 35 35 35
-0.08257357025 -0.03257898712 0.31108724976 49 49 49
-0.06342377853 0.00135869801 0.27184890746999996 49 49 49
-0.07894991302 -0.01148121452 0.27296496581999996 59 59 59
-0.08719960021999999 -0.033642322540000005 0.29461352539 112 112 112
-0.08982359314 -0.029279403689999997 0.28160214232999997 122 122 122
-0.08745856476 -0.024191867829999998 0.27491662598 129 129 129
-0.07927796173 -0.01620473289 0.27153869629 136 136 136
-0.06969242859000001 -0.00807210636 0.27009924316 54 54 54
-0.08569174957 -0.01866956139 0.27680728149 74 74 74
-0.08806558228 -0.022626525879999998 0.28117776489 102 102 102
-0.08958813477 -0.02756111526 0.28878982544000004 66 66 66
-0.07810024261 -0.03589471817 0.31387271118 60 60 60
-0.08983837128000001 -0.03193714523 0.28713537598 123 123 123
-0.08908683014 -0.02712416267 0.27849584961 130 130 130
-0.08507855225 -0.02129416275 0.27289678955 143 143 143
-0.062116840359999995 0.00390766215 0.26854647827 96 96 96
-0.06499151611000001 -0.00415124178 0.26977883911 36 36 36
-0.06358536148 0.00097715211 0.27228433228 48 48 48
-0.07991339874 -0.01257220173 0.27346722412 59 59 59
-0.08631523895 -0.01959774208 0.2774347229 105 105 105
-0.08714825439 -0.03393298721 0.29571456909 114 114 114
-0.09025935364 -0.02969120598 0.28208865356 131 131 131
-0.08786928558 -0.02456535149 0.27538653564 125 125 125
-0.08948557281 -0.02560597229 0.28472994995 67 67 67
-0.07038288116 -0.008439076419999999 0.27023999023 54 54 54
-0.05718650818 0.00279540992 0.26814907836999996 81 81 81
-0.08905718994 -0.03132657623 0.29737289428999997 58 58 58
-0.08940983581999999 -0.02676648712 0.28872412109 79 79 79
-0.05007426071 -0.01783950996 0.27011843871999996 88 88 88
-0.08220676421999999 -0.03779752731 0.29755816650000005 113 113 113
-0.08083602142 -0.04086933517 0.29960043335000003 115 115 115
-0.052129844669999995 -0.01497287655 0.26807366943 115 115 115
-0.051345611570000005 -0.01749304199 0.26972711182000003 89 89 89
-0.08932679749 -0.029478349690000002 0.29661257934999996 55 55 55
-0.05798278809 -0.044920211790000004 0.31633334351000003 61 61 61
-0.08888793182 -0.018006551739999998 0.29282968140000004 50 50 50
-0.08920405579 -0.0180838356 0.28549533081 48 48 48
-0.05139609909 -0.01752556801 0.27004995728 98 98 98
-0.049142322540000005 -0.02305899239 0.29480953978999996 39 39 39
-0.08027683258 -0.040957061770000004 0.30009869385000004 114 114 114
-0.08873104858000001 -0.03199832344 0.29794256592 56 56 56
-0.0818286972 -0.04026779556 0.29882635498000004 124 124 124
-0.054737560270000006 -0.04913500595 0.3198180542 118 118 118
-0.08734091187 -0.03280465317 0.29242364501999996 70 70 70
-0.08640425872999999 -0.006483991620000001 0.28291723633 57 57 57
-0.08520195006999999 -0.03495720291 0.30140982056000004 61 61 61
-0.08317347717 -0.03601132584 0.30316833496 47 47 47
-0.08168342590000001 -0.04056027985 0.29872091675 126 126 126
-0.07169989777 -0.0420224762 0.30585113525 61 61 61
-0.08541564178 -0.00829151917 0.28464706421 63 63 63
-0.08639131165000001 -0.00694971943 0.28349526978 58 58 58
-0.05857517242 -0.0445988884 0.31592025757 58 58 58
-0.07042726898 -0.042591835019999996 0.30733547974 60 60 60
-0.08949529266 -0.02681712723 0.28833059692 98 98 98
-0.08813504791 -0.032928268430000004 0.29150189209 106 106 106
-0.08232989502 -0.0382895813 0.29734591675 115 115 115
-0.07562069701999999 -0.0403965683 0.30257852173 116 116 116
-0.06953115845 -0.043280548099999996 0.30764187622 63 63 63
-0.07546891785 -0.04045236206 0.30319232178 112 112 112
-0.08060221863 -0.04083661652 0.29995172119 114 114 114
-0.08674266815 -0.03668978119 0.29434802245999997 132 132 132
-0.0892217865 -0.02908813667 0.28983813477000003 68 68 68
-0.08814402771 -0.01537818432 0.28487145995999996 59 59 59
-0.052866741179999996 -0.018393571850000002 0.29058444214 42 42 42
-0.08668670654 -0.03707208633 0.29390722656 135 135 135
-0.08209454346 -0.04021569061 0.29811083984 126 126 126
-0.07440755463000001 -0.04188108444 0.30382672119 114 114 114
-0.04476340103 -0.02608940125 0.29858181762999997 38 38 38
-0.041973526 -0.02798051643 0.30099713135 43 43 43
-0.05617406845 -0.048300994869999996 0.31900228882 120 120 120
-0.06645787811 -0.04441674805 0.31074453734999996 55 55 55
-0.08323997498 -0.03596123123 0.30318331909 44 44 44
-0.0695042572 -0.043318397519999996 0.30832244873000003 64 64 64
-0.0823714447 -0.038541122440000006 0.29720870972 122 122 122
-0.052555854799999996 -0.01573338795 0.26987515259 121 121 121
-0.08642127991 -0.03433551025 0.30045321654999996 65 65 65
-0.07205687714 -0.04188141251 0.30607794189 62 62 62
-0.07471909332 -0.04126282501 0.30410971069 112 112 112
-0.0857516861 -0.03740660095 0.29537609863000003 126 126 126
-0.05465715027 -0.0146481905 0.26831149292 94 94 94
-0.08940255737 -0.030352117539999997 0.29036322021 110 110 110
-0.07080800628999999 0.0015399195 0.27158703613 98 98 98
-0.0865789032 -0.03319356155 0.29231344604 72 72 72
-0.08157476807 -0.04083353043 0.29847421265 122 122 122
-0.05833684158 -0.01435563183 0.2662784729 97 97 97
-0.06924030304 -0.043365653989999996 0.30753967285 66 66 66
-0.05669381714 -0.04587467957 0.31676535034 60 60 60
-0.08677222442999999 -0.00685704136 0.2833711853 59 59 59
-0.08921841431 -0.01842665291 0.28500479126 54 54 54
-0.08969122314000001 -0.02692541695 0.2878522644 102 102 102
-0.08886775969999999 -0.03269115448 0.29053088379 117 117 117
-0.08539926147 -0.03821585083 0.29484597778 128 128 128
-0.07559003448 -0.04094945145 0.30236575317000003 121 121 121
-0.04927427292 -0.023236862179999998 0.29503631592 43 43 43
-0.05245428467 -0.016092723849999997 0.27051296996999996 113 113 113
-0.05738663101 -0.04521263123 0.31592926025 59 59 59
-0.07484203338999999 -0.04109545898 0.30409963989 112 112 112
-0.08213547516 -0.03966499329 0.29870993042 121 121 121
-0.08871416472999999 -0.0186989212 0.29314364624 52 52 52
-0.08825935364 -0.0145432272 0.28413381958 51 51 51
-0.05492531204 -0.01463047314 0.26862384033000003 101 101 101
-0.09087405395999999 -0.02777255821 0.29484588623 34 34 34
-0.089258461 -0.02991414833 0.29669390869 58 58 58
-0.0752325058 -0.041614700319999996 0.30274291992 127 127 127
-0.06708080292 -0.04435509872 0.30912762451 61 61 61
-0.05693389511 -0.045450004579999995 0.31620410156 64 64 64
-0.05442765808 -0.01521744156 0.26919232177999997 99 99 99
-0.048467113490000005 -0.02319875908 0.29496731567 41 41 41
-0.044045524600000004 -0.02638445663 0.29891125488 38 38 38
-0.08624581146 -0.03776309967 0.29393304443 135 135 135
-0.08733330536 -0.033809169769999994 0.29940631104 58 58 58
-0.07108259583 -0.04223259735 0.30558535767 60 60 60
-0.06498725127999999 -0.04505960846 0.31065124512 60 60 60
-0.056368148800000004 -0.04603622055 0.31670532227000003 58 58 58
-0.06557765960999999 -0.04449504089 0.31158200073000003 57 57 57
-0.08505399323 -0.03488578415 0.30171102904999997 57 57 57
-0.08808241271999999 -0.03305814743 0.29894226074 59 59 59
-0.08885749054 -0.01453567123 0.28343548584 38 38 38
-0.08972221374999999 -0.02788644409 0.29598477173 52 52 52
-0.04412096024 -0.0487706604 0.30849447632 63 63 63
-0.04922266006 0.0013421508099999999 0.26511633301 91 91 91
-0.07141655731 -0.04185076141 0.30512286377 65 65 65
-0.06492832946999999 -0.04509443665 0.31056521606000004 57 57 57
-0.05601650238 -0.0465373764 0.31704208374000004 57 57 57
-0.053157123570000006 -0.01661434746 0.28932156371999995 40 40 40
-0.08981914519999999 -0.02715818596 0.28746609497 98 98 98
-0.049188385009999995 -0.02252915001 0.294144104 40 40 40
-0.08576271819999999 -0.03823431778 0.29423040771000003 133 133 133
-0.07533802795 -0.041632625580000006 0.30236544800000004 129 129 129
-0.06685371399000001 -0.044295047760000004 0.30897341919000004 60 60 60
-0.04139438248 -0.028011602400000002 0.30099957275 44 44 44
-0.06789961243 -0.04400123596 0.30995736694 59 59 59
-0.07267965698000001 -0.0414731369 0.30585458374 65 65 65
-0.08985901642 -0.02738650322 0.28739550781 103 103 103
-0.08976202393 -0.02444490433 0.31729754638999996 117 117 117
-0.08200161742999999 -0.037950172420000004 0.29648312378 102 102 102
-0.09017420959 -0.023843818660000002 0.31665893555 120 120 120
-0.041036895749999996 -0.05138120651 0.31063204956 104 104 104
-0.0544872551 -0.016280138019999998 0.28922497559 46 46 46
-0.08875269318 -0.02605854988 0.31819723511000003 110 110 110
-0.06580467987000001 -0.04479738617 0.30969140625 59 59 59
-0.07665883636 -0.0402988739 0.30274118042 65 65 65
-0.05597805786 -0.014534667020000001 0.26862561035 98 98 98
-0.08177946472 -0.040034881589999995 0.29929306029999997 122 122 122
-0.08938690185999999 -0.02575657654 0.31720297240999995 114 114 114
-0.0902062912 -0.02445310402 0.31603179932000003 116 116 116
-0.08224353026999999 -0.037775543210000005 0.29816207886 109 109 109
-0.08908425903 -0.02635924721 0.31738714599999995 112 112 112
-0.06606331635 -0.041268863680000004 0.31710009766 69 69 69
-0.08943382262999999 -0.02592371178 0.3168800354 114 114 114
-0.05607935715 -0.0145167017 0.26869924927 99 99 99
-0.09079718017999999 -0.023523508069999997 0.31497219848999997 117 117 117
-0.0920276947 -0.02089269638 0.31308615112 115 115 115
-0.05194137955 -0.01877518845 0.29080163574 47 47 47
-0.09034400177 -0.02460357666 0.31540844727 116 116 116
-0.09163845062 -0.02200202942 0.31352160645 116 116 116
-0.09265267181 -0.01944939613 0.31190322876 124 124 124
-0.08966755676 -0.026040433879999998 0.31617449951 116 116 116
-0.09268509674 -0.019376459119999998 0.31172909546 125 125 125
-0.09202963257 -0.02125919914 0.31273623657 118 118 118
-0.08948893738 -0.0253387661 0.28676849364999996 73 73 73
-0.09207457732999999 -0.021233493800000003 0.31258172607 120 120 120
-0.09299742125999999 -0.0185609417 0.31102346801999997 127 127 127
-0.0902168808 -0.02523468399 0.31519848632999997 118 118 118
-0.09163895416 -0.022405061719999998 0.3131050415 120 120 120
-0.09291188049 -0.019143257139999998 0.31099627686000003 128 128 128
-0.09020661163 -0.025443855289999998 0.31502355957 117 117 117
-0.04960399246 0.00097100317 0.26574389647999996 63 63 63
-0.09159937286 -0.02264430046 0.31300497437 119 119 119
-0.0930278244 -0.018987575530000002 0.31063220215000004 127 127 127
-0.09020053101 -0.025595825200000002 0.31487683105000003 117 117 117
-0.03949982452 -0.0289520359 0.3024085083 59 59 59
-0.09174819182999999 -0.02249513817 0.31260397339 122 122 122
-0.04437899399 -0.026868118290000003 0.29967962646 43 43 43
-0.09155096436 -0.02301446533 0.31279650879000004 120 120 120
-0.05639151001 -0.01446939182 0.26880899047999995 100 100 100
-0.09330932617000001 -0.01838703728 0.30987582397 125 125 125
-0.09060862732 -0.02506983376 0.31404348755 118 118 118
-0.09275811768 -0.02015088844 0.310815979 123 123 123
-0.08981147766 -0.02670945549 0.31509564209 119 119 119
-0.09218212891000001 -0.021799654010000002 0.31157543945 120 120 120
-0.08892838286999999 -0.02815047264 0.31608859253000005 111 111 111
-0.09163060760000001 -0.02314967155 0.31238516234999997 119 119 119
-0.07514323425000001 -0.04194423676 0.30239440918000005 129 129 129
-0.04979688644 0.00109696269 0.2658013916 67 67 67
-0.09214810944 -0.022007099149999997 0.31148910522 121 121 121
-0.04414185715 -0.04852046204 0.30744540405 66 66 66
-0.09256144714 -0.021081104280000002 0.31073254395 121 121 121
-0.08952462006 -0.02754738617 0.31515426636 116 116 116
-0.04058587265 -0.05157973862 0.31088195801 107 107 107
-0.09251544189000001 -0.021269802089999998 0.31073443604 122 122 122
-0.08947692871 -0.0277342186 0.31512310791 112 112 112
-0.05946066666 -0.014413045880000001 0.26735623169 92 92 92
-0.09296591949 -0.02009017372 0.30994967651 123 123 123
-0.09010213469999999 -0.02666185379 0.31418035888999996 114 114 114
-0.09294492339999999 -0.02022927666 0.30987533569 121 121 121
-0.0900826416 -0.0267793045 0.31412158203 111 111 111
-0.09292922974 -0.02032419777 0.30982583618000004 121 121 121
-0.09006065368999999 -0.02689566231 0.31406842041 109 109 109
-0.09306227875 -0.02005700111 0.30947967529 122 122 122
-0.08932170868 -0.01891458321 0.28441049194 47 47 47
-0.08963812256 -0.03159638786 0.28887902831999995 113 113 113
-0.09357733154 -0.01851876831 0.30847253418000004 124 124 124
-0.0909741745 -0.025206808089999998 0.31265570068 116 116 116
-0.0938727951 -0.01730514336 0.30782113647 125 125 125
-0.09149729156 -0.02416999626 0.31178161621 117 117 117
-0.08926190948 -0.03265962219 0.28952374268 123 123 123
-0.08919950867 -0.02993174362 0.29713717651000005 55 55 55
-0.09240087891 -0.02210680962 0.31034561157 120 120 120
-0.05961998749 -0.0143861227 0.26743777466 92 92 92
-0.08962579345999999 -0.02806167984 0.31437487793 106 106 106
